ply
format ascii 1.0
element vertex 1182
property float x
property float y
property float z
property uchar red
property uchar green
property uchar blue
end_header
0.272330 0.261802 -0.129493 152 152 152
0.270574 0.264819 -0.129912 151 151 151
0.268803 0.267841 -0.130336 150 150 150
0.267122 0.270858 -0.130738 149 149 149
0.265333 0.273890 -0.131165 147 147 147
0.263401 0.276940 -0.131627 144 144 144
0.260653 0.280077 -0.132284 143 143 143
0.257759 0.283236 -0.132976 141 141 141
0.254525 0.286437 -0.133749 139 139 139
0.250826 0.289693 -0.134634 138 138 138
0.246504 0.293024 -0.135667 138 138 138
0.241903 0.296395 -0.136767 138 138 138
0.236533 0.299859 -0.138050 138 138 138
0.229272 0.303543 -0.139786 138 138 138
0.222231 0.307217 -0.141469 138 138 138
0.216415 0.310769 -0.142860 142 142 142
0.212152 0.314157 -0.143879 144 144 144
0.207875 0.317555 -0.144901 144 144 144
0.204152 0.320899 -0.145791 145 145 145
0.201347 0.324143 -0.146462 145 145 145
0.198809 0.327361 -0.147069 144 144 144
0.196458 0.330563 -0.147631 143 143 143
0.194094 0.333771 -0.148196 142 142 142
0.191575 0.337003 -0.148798 141 141 141
0.188696 0.340284 -0.149486 139 139 139
0.185552 0.343604 -0.150238 139 139 139
0.181918 0.346991 -0.151107 138 138 138
0.178596 0.350347 -0.151901 138 138 138
0.175820 0.353641 -0.152564 138 138 138
0.172531 0.357006 -0.153351 138 138 138
0.167382 0.360616 -0.154582 138 138 138
0.162313 0.364226 -0.155793 100 100 100
0.044024 -0.345610 -0.187236 138 138 138
0.084089 -0.337854 -0.177615 138 138 138
0.101805 -0.332763 -0.173361 138 138 138
0.110882 -0.328699 -0.171181 138 138 138
0.131902 -0.323299 -0.166134 138 138 138
0.157323 -0.317448 -0.160029 138 138 138
0.167601 -0.313337 -0.157561 138 138 138
0.176653 -0.309383 -0.155387 138 138 138
0.185779 -0.305440 -0.153196 138 138 138
0.195128 -0.301491 -0.150951 138 138 138
0.206671 -0.297327 -0.148179 138 138 138
0.214494 -0.293583 -0.146300 138 138 138
0.220288 -0.290067 -0.144909 138 138 138
0.224099 -0.286770 -0.143994 138 138 138
0.227898 -0.283482 -0.143081 138 138 138
0.230705 -0.280304 -0.142407 138 138 138
0.233338 -0.277148 -0.141775 138 138 138
0.235671 -0.274029 -0.141215 138 138 138
0.238203 -0.270894 -0.140607 138 138 138
0.241719 -0.267669 -0.139762 138 138 138
0.246232 -0.264354 -0.138679 138 138 138
0.251430 -0.260984 -0.137430 138 138 138
0.256185 -0.257667 -0.136288 138 138 138
0.263194 -0.254148 -0.134605 138 138 138
0.270816 -0.250588 -0.132775 138 138 138
0.276316 -0.247238 -0.131454 138 138 138
0.280807 -0.243990 -0.130376 138 138 138
0.286105 -0.240680 -0.129104 138 138 138
0.292260 -0.237306 -0.127626 138 138 138
0.297287 -0.234042 -0.126418 138 138 138
0.301371 -0.230871 -0.125438 138 138 138
0.306115 -0.227652 -0.124299 138 138 138
0.309696 -0.224540 -0.123438 138 138 138
0.313268 -0.221437 -0.122581 138 138 138
0.316800 -0.218344 -0.121733 138 138 138
0.320133 -0.215275 -0.120932 138 138 138
0.323059 -0.212246 -0.120230 138 138 138
0.325842 -0.209234 -0.119561 138 138 138
0.328305 -0.206253 -0.118970 138 138 138
0.331268 -0.203238 -0.118258 138 138 138
0.333252 -0.200304 -0.117782 138 138 138
0.335260 -0.197372 -0.117300 138 138 138
0.337003 -0.194464 -0.116881 138 138 138
0.338563 -0.191573 -0.116507 138 138 138
0.340724 -0.188642 -0.115987 138 138 138
0.342650 -0.185732 -0.115525 138 138 138
0.344607 -0.182824 -0.115055 138 138 138
0.346593 -0.179919 -0.114578 139 139 139
0.348027 -0.177054 -0.114234 141 141 141
0.349550 -0.174187 -0.113868 143 143 143
0.351072 -0.171323 -0.113503 144 144 144
0.352592 -0.168462 -0.113138 145 145 145
0.353624 -0.165635 -0.112890 146 146 146
0.354358 -0.162829 -0.112714 146 146 146
0.355092 -0.160024 -0.112537 147 147 147
0.355825 -0.157221 -0.112361 148 148 148
0.356423 -0.154428 -0.112218 148 148 148
0.356822 -0.151647 -0.112122 148 148 148
0.357183 -0.148869 -0.112035 148 148 148
0.357544 -0.146092 -0.111949 149 149 149
0.357882 -0.143317 -0.111867 149 149 149
0.358418 -0.140532 -0.111739 148 148 148
0.359044 -0.137743 -0.111588 148 148 148
0.359665 -0.134957 -0.111439 148 148 148
0.360299 -0.132170 -0.111287 148 148 148
0.361121 -0.129376 -0.111089 150 150 150
0.361950 -0.126583 -0.110891 148 148 148
0.362778 -0.123792 -0.110692 147 147 147
0.363605 -0.121003 -0.110493 149 149 149
0.364636 -0.118206 -0.110246 149 149 149
0.365664 -0.115411 -0.109999 149 149 149
0.366692 -0.112619 -0.109752 149 149 149
0.367719 -0.109829 -0.109505 149 149 149
0.368784 -0.107039 -0.109249 150 150 150
0.369830 -0.104253 -0.108998 151 151 151
0.370803 -0.101471 -0.108764 152 152 152
0.371680 -0.098696 -0.108554 152 152 152
0.372564 -0.095921 -0.108342 152 152 152
0.373473 -0.093148 -0.108123 152 152 152
0.374381 -0.090377 -0.107905 151 151 151
0.375289 -0.087607 -0.107687 150 150 150
0.376075 -0.084844 -0.107498 149 149 149
0.376734 -0.082086 -0.107340 145 145 145
0.377233 -0.079334 -0.107220 143 143 143
0.377793 -0.076582 -0.107086 141 141 141
0.378353 -0.073831 -0.106951 139 139 139
0.378729 -0.071086 -0.106861 138 138 138
0.379033 -0.068343 -0.106788 138 138 138
0.379337 -0.065602 -0.106715 138 138 138
0.379207 -0.062871 -0.106746 138 138 138
0.378685 -0.060149 -0.106872 138 138 138
0.377888 -0.057433 -0.107063 138 138 138
0.377090 -0.054714 -0.107255 138 138 138
0.376346 -0.051993 -0.107434 138 138 138
0.375635 -0.049270 -0.107604 138 138 138
0.374826 -0.046546 -0.107798 138 138 138
0.374172 -0.043819 -0.107955 138 138 138
0.373520 -0.041090 -0.108112 140 140 140
0.373039 -0.038357 -0.108228 141 141 141
0.372542 -0.035624 -0.108347 141 141 141
0.372275 -0.032886 -0.108411 142 142 142
0.372004 -0.030148 -0.108476 143 143 143
0.371608 -0.027411 -0.108571 143 143 143
0.371450 -0.024671 -0.108609 143 143 143
0.371633 -0.021927 -0.108565 143 143 143
0.371899 -0.019184 -0.108501 144 144 144
0.372166 -0.016440 -0.108437 145 145 145
0.372446 -0.013698 -0.108370 146 146 146
0.372742 -0.010956 -0.108299 148 148 148
0.373038 -0.008214 -0.108228 149 149 149
0.373360 -0.005473 -0.108151 151 151 151
0.373573 -0.002733 -0.108099 152 152 152
0.373618 0.000007 -0.108089 152 152 152
0.373695 0.002747 -0.108070 153 153 153
0.373771 0.005486 -0.108052 152 152 152
0.373816 0.008225 -0.108041 152 152 152
0.373700 0.010965 -0.108069 152 152 152
0.373584 0.013706 -0.108097 153 153 153
0.373364 0.016447 -0.108150 153 153 153
0.373123 0.019189 -0.108207 153 153 153
0.373029 0.021930 -0.108230 153 153 153
0.372878 0.024671 -0.108266 153 153 153
0.372685 0.027414 -0.108313 153 153 153
0.372492 0.030157 -0.108359 153 153 153
0.372173 0.032902 -0.108436 153 153 153
0.371750 0.035649 -0.108537 153 153 153
0.371357 0.038396 -0.108632 155 155 155
0.370930 0.041145 -0.108734 155 155 155
0.370288 0.043898 -0.108888 155 155 155
0.369493 0.046656 -0.109079 155 155 155
0.368755 0.049414 -0.109256 156 156 156
0.368114 0.052171 -0.109410 156 156 156
0.367501 0.054930 -0.109558 156 156 156
0.366927 0.057688 -0.109695 156 156 156
0.366353 0.060448 -0.109833 157 157 157
0.365785 0.063209 -0.109970 157 157 157
0.365338 0.065969 -0.110077 157 157 157
0.364965 0.068727 -0.110167 157 157 157
0.364591 0.071486 -0.110256 157 157 157
0.364238 0.074245 -0.110341 157 157 157
0.363904 0.077004 -0.110421 157 157 157
0.363618 0.079763 -0.110490 157 157 157
0.363327 0.082522 -0.110560 157 157 157
0.363032 0.085282 -0.110631 157 157 157
0.362737 0.088043 -0.110702 157 157 157
0.362343 0.090808 -0.110796 156 156 156
0.361805 0.093579 -0.110925 156 156 156
0.361230 0.096352 -0.111063 156 156 156
0.360652 0.099127 -0.111202 156 156 156
0.359701 0.101917 -0.111431 155 155 155
0.358548 0.104717 -0.111708 154 154 154
0.357324 0.107523 -0.112001 154 154 154
0.355674 0.110349 -0.112398 153 153 153
0.353887 0.113185 -0.112827 152 152 152
0.352134 0.116022 -0.113248 152 152 152
0.350350 0.118865 -0.113676 152 152 152
0.348423 0.121718 -0.114139 152 152 152
0.346804 0.124561 -0.114528 152 152 152
0.345221 0.127405 -0.114908 151 151 151
0.343638 0.130253 -0.115288 151 151 151
0.342159 0.133099 -0.115643 150 150 150
0.340461 0.135959 -0.116051 150 150 150
0.338753 0.138823 -0.116461 150 150 150
0.337122 0.141687 -0.116853 150 150 150
0.335479 0.144555 -0.117247 150 150 150
0.333537 0.147442 -0.117714 150 150 150
0.331615 0.150333 -0.118175 150 150 150
0.329690 0.153228 -0.118638 150 150 150
0.327841 0.156123 -0.119082 150 150 150
0.326261 0.159005 -0.119461 150 150 150
0.324678 0.161891 -0.119841 150 150 150
0.323184 0.164775 -0.120200 150 150 150
0.321788 0.167656 -0.120535 150 150 150
0.320511 0.170532 -0.120842 151 151 151
0.319142 0.173416 -0.121171 152 152 152
0.317604 0.176315 -0.121540 152 152 152
0.316080 0.179216 -0.121906 152 152 152
0.314651 0.182114 -0.122249 152 152 152
0.313210 0.185015 -0.122595 153 153 153
0.311728 0.187922 -0.122951 153 153 153
0.310089 0.190844 -0.123345 153 153 153
0.308525 0.193764 -0.123720 155 155 155
0.306734 0.196704 -0.124150 156 156 156
0.304962 0.199646 -0.124576 157 157 157
0.303170 0.202593 -0.125006 156 156 156
0.301352 0.205546 -0.125443 156 156 156
0.299808 0.208482 -0.125813 157 157 157
0.298262 0.211421 -0.126185 157 157 157
0.296598 0.214373 -0.126584 156 156 156
0.294882 0.217332 -0.126996 155 155 155
0.293151 0.220296 -0.127412 154 154 154
0.291439 0.223262 -0.127823 154 154 154
0.289797 0.226226 -0.128217 155 155 155
0.288153 0.229194 -0.128612 156 156 156
0.286502 0.232166 -0.129009 155 155 155
0.284936 0.235134 -0.129385 154 154 154
0.283536 0.238090 -0.129721 153 153 153
0.282175 0.241046 -0.130048 153 153 153
0.280811 0.244005 -0.130375 153 153 153
0.279410 0.246970 -0.130712 154 154 154
0.277988 0.249940 -0.131053 154 154 154
0.276308 0.252937 -0.131457 153 153 153
0.274581 0.255942 -0.131871 152 152 152
0.272854 0.258951 -0.132286 151 151 151
0.271125 0.261964 -0.132701 150 150 150
0.269394 0.264980 -0.133117 150 150 150
0.267625 0.268004 -0.133542 149 149 149
0.265767 0.271040 -0.133988 146 146 146
0.263908 0.274081 -0.134434 143 143 143
0.262053 0.277125 -0.134880 141 141 141
0.259565 0.280238 -0.135477 141 141 141
0.256152 0.283452 -0.136297 139 139 139
0.252463 0.286703 -0.137183 138 138 138
0.249093 0.289927 -0.137992 138 138 138
0.244625 0.293276 -0.139065 138 138 138
0.240124 0.296638 -0.140146 138 138 138
0.234408 0.300143 -0.141518 138 138 138
0.227298 0.303813 -0.143226 138 138 138
0.220420 0.307472 -0.144877 141 141 141
0.215681 0.310905 -0.146016 145 145 145
0.211414 0.314295 -0.147040 146 146 146
0.207300 0.317676 -0.148028 146 146 146
0.203464 0.321033 -0.148949 145 145 145
0.200490 0.324299 -0.149663 145 145 145
0.197880 0.327527 -0.150290 144 144 144
0.195348 0.330752 -0.150898 142 142 142
0.192662 0.334000 -0.151543 141 141 141
0.190010 0.337251 -0.152180 140 140 140
0.187041 0.340545 -0.152893 138 138 138
0.183452 0.343922 -0.153755 138 138 138
0.179545 0.347345 -0.154693 138 138 138
0.176849 0.350626 -0.155341 138 138 138
0.173995 0.353932 -0.156026 138 138 138
0.168648 0.357561 -0.157310 138 138 138
0.163747 0.361144 -0.158487 100 100 100
0.047807 -0.342143 -0.189490 138 138 138
0.092005 -0.333953 -0.178829 138 138 138
0.105552 -0.329366 -0.175561 138 138 138
0.124276 -0.324220 -0.171045 138 138 138
0.146963 -0.318668 -0.165572 138 138 138
0.159356 -0.314309 -0.162583 138 138 138
0.169171 -0.310262 -0.160215 138 138 138
0.178398 -0.306299 -0.157989 138 138 138
0.190077 -0.302090 -0.155172 138 138 138
0.198797 -0.298222 -0.153069 138 138 138
0.208779 -0.294240 -0.150661 138 138 138
0.215792 -0.290590 -0.148970 138 138 138
0.219958 -0.287250 -0.147965 138 138 138
0.224232 -0.283909 -0.146934 138 138 138
0.227572 -0.280671 -0.146128 138 138 138
0.230742 -0.277458 -0.145364 138 138 138
0.233364 -0.274306 -0.144731 138 138 138
0.235697 -0.271188 -0.144168 138 138 138
0.238376 -0.268041 -0.143522 138 138 138
0.241543 -0.264853 -0.142758 138 138 138
0.245304 -0.261615 -0.141851 138 138 138
0.250642 -0.258235 -0.140563 138 138 138
0.255530 -0.254909 -0.139384 138 138 138
0.262019 -0.251445 -0.137819 138 138 138
0.270072 -0.247851 -0.135876 138 138 138
0.276525 -0.244419 -0.134320 138 138 138
0.281449 -0.241138 -0.133132 138 138 138
0.287355 -0.237779 -0.131708 138 138 138
0.293020 -0.234455 -0.130341 138 138 138
0.297741 -0.231223 -0.129202 138 138 138
0.302482 -0.228000 -0.128059 138 138 138
0.306132 -0.224878 -0.127178 138 138 138
0.309382 -0.221798 -0.126394 138 138 138
0.312522 -0.218733 -0.125637 138 138 138
0.315947 -0.215651 -0.124811 138 138 138
0.319087 -0.212600 -0.124053 138 138 138
0.322100 -0.209565 -0.123326 138 138 138
0.324926 -0.206551 -0.122645 138 138 138
0.327219 -0.203584 -0.122092 138 138 138
0.329501 -0.200622 -0.121541 138 138 138
0.331578 -0.197681 -0.121040 138 138 138
0.333652 -0.194744 -0.120540 138 138 138
0.335296 -0.191843 -0.120143 138 138 138
0.337726 -0.188889 -0.119557 138 138 138
0.340131 -0.185942 -0.118977 138 138 138
0.342057 -0.183033 -0.118513 138 138 138
0.344168 -0.180115 -0.118003 138 138 138
0.346287 -0.177202 -0.117492 138 138 138
0.347946 -0.174323 -0.117092 138 138 138
0.349604 -0.171448 -0.116692 138 138 138
0.351259 -0.168576 -0.116293 138 138 138
0.352421 -0.165740 -0.116013 144 144 144
0.353120 -0.162934 -0.115844 144 144 144
0.353818 -0.160130 -0.115676 145 145 145
0.354516 -0.157327 -0.115507 145 145 145
0.355212 -0.154526 -0.115339 146 146 146
0.355626 -0.151742 -0.115240 146 146 146
0.355963 -0.148964 -0.115158 146 146 146
0.356301 -0.146186 -0.115077 145 145 145
0.356638 -0.143410 -0.114995 145 145 145
0.357193 -0.140622 -0.114862 145 145 145
0.357702 -0.137838 -0.114739 146 146 146
0.358253 -0.135053 -0.114606 146 146 146
0.359243 -0.132246 -0.114367 147 147 147
0.360069 -0.129450 -0.114168 149 149 149
0.360895 -0.126656 -0.113969 150 150 150
0.361724 -0.123863 -0.113769 150 150 150
0.362612 -0.121069 -0.113554 150 150 150
0.363679 -0.118270 -0.113297 150 150 150
0.364709 -0.115473 -0.113049 150 150 150
0.365738 -0.112680 -0.112801 150 150 150
0.366828 -0.109885 -0.112538 150 150 150
0.367944 -0.107092 -0.112268 151 151 151
0.368991 -0.104304 -0.112016 152 152 152
0.369865 -0.101525 -0.111805 152 152 152
0.370661 -0.098751 -0.111613 153 153 153
0.371537 -0.095976 -0.111402 152 152 152
0.372443 -0.093201 -0.111183 152 152 152
0.373352 -0.090428 -0.110964 151 151 151
0.374218 -0.087658 -0.110755 150 150 150
0.374689 -0.084904 -0.110641 149 149 149
0.375268 -0.082146 -0.110502 146 146 146
0.375694 -0.079395 -0.110399 145 145 145
0.376121 -0.076644 -0.110296 144 144 144
0.376678 -0.073891 -0.110161 141 141 141
0.377151 -0.071141 -0.110047 140 140 140
0.377456 -0.068397 -0.109974 140 140 140
0.377418 -0.065661 -0.109983 139 139 139
0.377140 -0.062932 -0.110050 138 138 138
0.376806 -0.060203 -0.110131 138 138 138
0.376007 -0.057484 -0.110323 138 138 138
0.375226 -0.054763 -0.110512 138 138 138
0.374516 -0.052038 -0.110683 138 138 138
0.373725 -0.049314 -0.110874 138 138 138
0.373057 -0.046586 -0.111035 140 140 140
0.372402 -0.043856 -0.111193 142 142 142
0.371862 -0.041123 -0.111323 143 143 143
0.371363 -0.038389 -0.111444 143 143 143
0.370924 -0.035652 -0.111550 144 144 144
0.370648 -0.032913 -0.111616 144 144 144
0.370387 -0.030172 -0.111679 145 145 145
0.370127 -0.027431 -0.111742 145 145 145
0.370187 -0.024687 -0.111727 145 145 145
0.370510 -0.021941 -0.111649 145 145 145
0.370834 -0.019195 -0.111571 146 146 146
0.371157 -0.016450 -0.111493 147 147 147
0.371643 -0.013704 -0.111376 148 148 148
0.371969 -0.010961 -0.111297 150 150 150
0.372296 -0.008218 -0.111219 151 151 151
0.372622 -0.005475 -0.111140 153 153 153
0.372864 -0.002734 -0.111082 154 154 154
0.372966 0.000007 -0.111057 154 154 154
0.372916 0.002748 -0.111069 154 154 154
0.372925 0.005489 -0.111067 154 154 154
0.373001 0.008229 -0.111049 153 153 153
0.372926 0.010971 -0.111067 154 154 154
0.372757 0.013712 -0.111107 154 154 154
0.372516 0.016455 -0.111166 154 154 154
0.372275 0.019198 -0.111224 154 154 154
0.372098 0.021941 -0.111266 155 155 155
0.371906 0.024685 -0.111313 154 154 154
0.371722 0.027429 -0.111357 154 154 154
0.371538 0.030173 -0.111401 154 154 154
0.371277 0.032919 -0.111464 154 154 154
0.370884 0.035667 -0.111559 155 155 155
0.370452 0.038416 -0.111663 155 155 155
0.370001 0.041167 -0.111772 155 155 155
0.369482 0.043919 -0.111897 155 155 155
0.368685 0.046678 -0.112090 156 156 156
0.368036 0.049436 -0.112246 156 156 156
0.367394 0.052195 -0.112401 156 156 156
0.366759 0.054955 -0.112554 156 156 156
0.366196 0.057714 -0.112690 156 156 156
0.365634 0.060475 -0.112826 156 156 156
0.365102 0.063237 -0.112954 156 156 156
0.364707 0.065996 -0.113049 157 157 157
0.364332 0.068755 -0.113140 157 157 157
0.363962 0.071515 -0.113229 157 157 157
0.363623 0.074275 -0.113311 157 157 157
0.363283 0.077036 -0.113393 157 157 157
0.362982 0.079796 -0.113465 157 157 157
0.362688 0.082557 -0.113536 157 157 157
0.362393 0.085318 -0.113607 157 157 157
0.362073 0.088081 -0.113684 157 157 157
0.361592 0.090850 -0.113801 157 157 157
0.360995 0.093624 -0.113945 156 156 156
0.360397 0.096399 -0.114089 156 156 156
0.359800 0.099176 -0.114233 156 156 156
0.358909 0.101965 -0.114448 155 155 155
0.357686 0.104770 -0.114743 155 155 155
0.356462 0.107577 -0.115038 154 154 154
0.354788 0.110405 -0.115442 153 153 153
0.353027 0.113241 -0.115867 152 152 152
0.351283 0.116080 -0.116287 152 152 152
0.349397 0.118929 -0.116742 152 152 152
0.347468 0.121783 -0.117207 153 153 153
0.345737 0.124633 -0.117625 153 153 153
0.344234 0.127475 -0.117988 152 152 152
0.342755 0.130319 -0.118344 152 152 152
0.341274 0.133166 -0.118702 152 152 152
0.339649 0.136024 -0.119094 151 151 151
0.337939 0.138890 -0.119506 151 151 151
0.336227 0.141759 -0.119919 151 151 151
0.334384 0.144639 -0.120364 151 151 151
0.332470 0.147527 -0.120825 151 151 151
0.330540 0.150420 -0.121291 151 151 151
0.328608 0.153317 -0.121757 151 151 151
0.326678 0.156218 -0.122222 151 151 151
0.325131 0.159100 -0.122595 151 151 151
0.323674 0.161980 -0.122947 151 151 151
0.322215 0.164863 -0.123299 151 151 151
0.320760 0.167749 -0.123650 151 151 151
0.319482 0.170627 -0.123958 152 152 152
0.317969 0.173522 -0.124323 152 152 152
0.316477 0.176420 -0.124683 153 153 153
0.315140 0.179310 -0.125006 153 153 153
0.313828 0.182201 -0.125322 153 153 153
0.312349 0.185107 -0.125679 153 153 153
0.310838 0.188018 -0.126043 154 154 154
0.309375 0.190928 -0.126396 155 155 155
0.307824 0.193848 -0.126770 156 156 156
0.306147 0.196781 -0.127175 156 156 156
0.304477 0.199717 -0.127578 157 157 157
0.302733 0.202661 -0.127998 157 157 157
0.301040 0.205606 -0.128407 157 157 157
0.299496 0.208542 -0.128779 158 158 158
0.297921 0.211484 -0.129159 158 158 158
0.296238 0.214438 -0.129565 157 157 157
0.294521 0.217399 -0.129979 156 156 156
0.292789 0.220364 -0.130397 155 155 155
0.291055 0.223333 -0.130815 155 155 155
0.289402 0.226299 -0.131214 156 156 156
0.287732 0.229270 -0.131617 156 156 156
0.286040 0.232246 -0.132025 155 155 155
0.284383 0.235222 -0.132425 154 154 154
0.282963 0.238182 -0.132767 153 153 153
0.281542 0.241144 -0.133110 152 152 152
0.280119 0.244109 -0.133453 153 153 153
0.278506 0.247095 -0.133842 153 153 153
0.276774 0.250095 -0.134260 152 152 152
0.275048 0.253099 -0.134677 151 151 151
0.273319 0.256106 -0.135094 150 150 150
0.271589 0.259117 -0.135511 149 149 149
0.269854 0.262132 -0.135929 148 148 148
0.268027 0.265159 -0.136370 146 146 146
0.266198 0.268191 -0.136811 144 144 144
0.264339 0.271230 -0.137260 141 141 141
0.262482 0.274272 -0.137707 139 139 139
0.260625 0.277318 -0.138156 138 138 138
0.257777 0.280470 -0.138843 138 138 138
0.253756 0.283750 -0.139812 138 138 138
0.250503 0.286958 -0.140597 138 138 138
0.247174 0.290181 -0.141400 138 138 138
0.242847 0.293517 -0.142444 138 138 138
0.238342 0.296882 -0.143531 138 138 138
0.232449 0.300409 -0.144952 138 138 138
0.225516 0.304062 -0.146624 139 139 139
0.219802 0.307594 -0.148003 143 143 143
0.214986 0.311037 -0.149164 147 147 147
0.210749 0.314424 -0.150186 147 147 147
0.206916 0.317775 -0.151111 146 146 146
0.203072 0.321134 -0.152038 144 144 144
0.199824 0.324432 -0.152822 145 145 145
0.196701 0.327722 -0.153575 144 144 144
0.194078 0.330960 -0.154208 141 141 141
0.191229 0.334230 -0.154895 140 140 140
0.188322 0.337513 -0.155596 139 139 139
0.185058 0.340845 -0.156384 138 138 138
0.181056 0.344275 -0.157349 138 138 138
0.177799 0.347622 -0.158134 138 138 138
0.174282 0.351007 -0.158983 138 138 138
0.170076 0.354487 -0.159997 138 138 138
0.163850 0.358232 -0.161499 100 100 100
0.037424 -0.343412 -0.195169 138 138 138
0.048672 -0.339019 -0.192444 138 138 138
0.095447 -0.330580 -0.181111 138 138 138
0.110887 -0.325795 -0.177370 138 138 138
0.139761 -0.319532 -0.170374 138 138 138
0.151966 -0.315187 -0.167416 138 138 138
0.162525 -0.311048 -0.164858 138 138 138
0.171015 -0.307158 -0.162801 138 138 138
0.183151 -0.302891 -0.159860 138 138 138
0.193684 -0.298822 -0.157308 138 138 138
0.202043 -0.295005 -0.155283 138 138 138
0.210520 -0.291194 -0.153229 138 138 138
0.216903 -0.287618 -0.151683 138 138 138
0.220913 -0.284300 -0.150711 138 138 138
0.224541 -0.281029 -0.149832 138 138 138
0.227819 -0.277801 -0.149038 138 138 138
0.230746 -0.274615 -0.148328 138 138 138
0.233390 -0.271463 -0.147688 138 138 138
0.236042 -0.268316 -0.147045 138 138 138
0.238952 -0.265149 -0.146340 138 138 138
0.242366 -0.261941 -0.145513 138 138 138
0.245978 -0.258721 -0.144638 138 138 138
0.249848 -0.255484 -0.143700 138 138 138
0.254843 -0.252152 -0.142490 138 138 138
0.262352 -0.248600 -0.140671 138 138 138
0.269787 -0.245070 -0.138869 138 138 138
0.276717 -0.241602 -0.137190 138 138 138
0.282198 -0.238276 -0.135862 138 138 138
0.288031 -0.234930 -0.134449 138 138 138
0.293067 -0.231666 -0.133228 138 138 138
0.297769 -0.228440 -0.132089 138 138 138
0.302042 -0.225261 -0.131054 138 138 138
0.304925 -0.222206 -0.130356 138 138 138
0.308184 -0.219126 -0.129566 138 138 138
0.311327 -0.216062 -0.128804 138 138 138
0.314541 -0.213000 -0.128025 138 138 138
0.317400 -0.209972 -0.127333 138 138 138
0.319980 -0.206971 -0.126708 138 138 138
0.322569 -0.203976 -0.126081 138 138 138
0.325210 -0.200982 -0.125441 138 138 138
0.327644 -0.198009 -0.124851 138 138 138
0.329835 -0.195058 -0.124320 138 138 138
0.332022 -0.192113 -0.123790 138 138 138
0.334206 -0.189173 -0.123261 138 138 138
0.336889 -0.186202 -0.122611 138 138 138
0.339537 -0.183239 -0.121969 138 138 138
0.341509 -0.180328 -0.121491 138 138 138
0.344046 -0.177383 -0.120877 138 138 138
0.345708 -0.174501 -0.120474 138 138 138
0.347368 -0.171623 -0.120072 138 138 138
0.348906 -0.168756 -0.119699 138 138 138
0.350260 -0.165904 -0.119371 138 138 138
0.350994 -0.163094 -0.119193 138 138 138
0.351694 -0.160287 -0.119024 139 139 139
0.352401 -0.157481 -0.118852 138 138 138
0.353116 -0.154676 -0.118679 138 138 138
0.353739 -0.151877 -0.118528 138 138 138
0.354318 -0.149083 -0.118388 142 142 142
0.354660 -0.146303 -0.118305 142 142 142
0.354998 -0.143524 -0.118223 142 142 142
0.355725 -0.140725 -0.118047 144 144 144
0.356236 -0.137939 -0.117923 144 144 144
0.357186 -0.135131 -0.117693 145 145 145
0.358177 -0.132323 -0.117453 146 146 146
0.359107 -0.129520 -0.117228 147 147 147
0.359839 -0.126729 -0.117050 150 150 150
0.360668 -0.123934 -0.116849 150 150 150
0.361629 -0.121136 -0.116616 150 150 150
0.362722 -0.118333 -0.116352 150 150 150
0.363752 -0.115536 -0.116102 150 150 150
0.364826 -0.112738 -0.115842 150 150 150
0.365955 -0.109941 -0.115568 150 150 150
0.367082 -0.107146 -0.115295 151 151 151
0.368150 -0.104356 -0.115036 152 152 152
0.368934 -0.101579 -0.114847 152 152 152
0.369717 -0.098804 -0.114657 153 153 153
0.370518 -0.096030 -0.114463 153 153 153
0.371411 -0.093254 -0.114246 152 152 152
0.372321 -0.090479 -0.114026 151 151 151
0.372830 -0.087720 -0.113903 150 150 150
0.373301 -0.084963 -0.113788 149 149 149
0.373791 -0.082207 -0.113670 147 147 147
0.374218 -0.079454 -0.113566 146 146 146
0.374645 -0.076701 -0.113463 145 145 145
0.375072 -0.073949 -0.113359 144 144 144
0.375561 -0.071197 -0.113241 142 142 142
0.375627 -0.068457 -0.113225 141 141 141
0.375348 -0.065725 -0.113293 141 141 141
0.375162 -0.062991 -0.113337 140 140 140
0.374947 -0.060257 -0.113390 139 139 139
0.374321 -0.057531 -0.113541 139 139 139
0.373611 -0.054806 -0.113713 139 139 139
0.372860 -0.052080 -0.113895 139 139 139
0.372021 -0.049355 -0.114099 142 142 142
0.371285 -0.046626 -0.114277 144 144 144
0.370702 -0.043892 -0.114418 145 145 145
0.370202 -0.041157 -0.114539 145 145 145
0.369702 -0.038420 -0.114661 145 145 145
0.369327 -0.035680 -0.114751 146 146 146
0.369131 -0.032937 -0.114799 148 148 148
0.369139 -0.030192 -0.114797 148 148 148
0.369232 -0.027446 -0.114774 147 147 147
0.369362 -0.024699 -0.114743 147 147 147
0.369686 -0.021951 -0.114664 147 147 147
0.370010 -0.019204 -0.114586 148 148 148
0.370476 -0.016457 -0.114473 149 149 149
0.371046 -0.013710 -0.114335 150 150 150
0.371415 -0.010965 -0.114245 151 151 151
0.371742 -0.008221 -0.114166 153 153 153
0.372021 -0.005478 -0.114099 154 154 154
0.372197 -0.002735 -0.114056 155 155 155
0.372319 0.000007 -0.114026 155 155 155
0.372269 0.002749 -0.114039 155 155 155
0.372218 0.005491 -0.114051 156 156 156
0.372168 0.008233 -0.114063 155 155 155
0.372149 0.010976 -0.114068 155 155 155
0.371908 0.013719 -0.114126 155 155 155
0.371706 0.016463 -0.114175 155 155 155
0.371513 0.019207 -0.114222 155 155 155
0.371294 0.021952 -0.114275 155 155 155
0.371062 0.024697 -0.114331 155 155 155
0.370830 0.027443 -0.114387 155 155 155
0.370598 0.030189 -0.114444 155 155 155
0.370410 0.032935 -0.114489 155 155 155
0.369975 0.035685 -0.114594 155 155 155
0.369523 0.038436 -0.114704 155 155 155
0.369071 0.041188 -0.114813 155 155 155
0.368619 0.043941 -0.114923 155 155 155
0.367958 0.046699 -0.115083 156 156 156
0.367282 0.049459 -0.115247 156 156 156
0.366598 0.052219 -0.115413 156 156 156
0.366029 0.054979 -0.115550 156 156 156
0.365482 0.057740 -0.115683 156 156 156
0.364920 0.060502 -0.115819 156 156 156
0.364476 0.063263 -0.115927 156 156 156
0.364081 0.066023 -0.116023 156 156 156
0.363698 0.068784 -0.116115 157 157 157
0.363346 0.071544 -0.116201 157 157 157
0.363007 0.074306 -0.116283 157 157 157
0.362662 0.077067 -0.116366 157 157 157
0.362315 0.079830 -0.116450 157 157 157
0.361989 0.082593 -0.116530 157 157 157
0.361665 0.085356 -0.116608 156 156 156
0.361341 0.088121 -0.116686 156 156 156
0.360956 0.090887 -0.116780 156 156 156
0.360359 0.093663 -0.116924 156 156 156
0.359712 0.096441 -0.117081 156 156 156
0.358997 0.099223 -0.117254 156 156 156
0.358220 0.102010 -0.117443 156 156 156
0.356971 0.104816 -0.117745 155 155 155
0.355692 0.107627 -0.118055 154 154 154
0.353951 0.110460 -0.118477 154 154 154
0.352177 0.113297 -0.118907 153 153 153
0.350371 0.116140 -0.119344 153 153 153
0.348443 0.118992 -0.119812 153 153 153
0.346634 0.121843 -0.120250 153 153 153
0.344982 0.124690 -0.120650 153 153 153
0.343424 0.127536 -0.121028 153 153 153
0.341871 0.130385 -0.121404 153 153 153
0.340389 0.133234 -0.121763 153 153 153
0.338836 0.136090 -0.122139 153 153 153
0.337065 0.138960 -0.122568 152 152 152
0.335192 0.141839 -0.123022 152 152 152
0.333317 0.144723 -0.123477 152 152 152
0.331417 0.147612 -0.123937 152 152 152
0.329486 0.150506 -0.124405 152 152 152
0.327574 0.153404 -0.124868 152 152 152
0.325881 0.156292 -0.125278 152 152 152
0.324293 0.159178 -0.125663 152 152 152
0.322777 0.162063 -0.126030 152 152 152
0.321259 0.164951 -0.126398 152 152 152
0.319784 0.167840 -0.126756 152 152 152
0.318348 0.170729 -0.127103 153 153 153
0.317007 0.173615 -0.127428 153 153 153
0.315666 0.176504 -0.127753 153 153 153
0.314323 0.179396 -0.128079 154 154 154
0.312998 0.182289 -0.128400 154 154 154
0.311487 0.185198 -0.128766 154 154 154
0.310052 0.188105 -0.129113 155 155 155
0.308709 0.191009 -0.129439 156 156 156
0.307303 0.193920 -0.129780 156 156 156
0.305646 0.196852 -0.130181 157 157 157
0.303987 0.199788 -0.130583 157 157 157
0.302297 0.202729 -0.130993 157 157 157
0.300711 0.205667 -0.131377 158 158 158
0.299081 0.208610 -0.131772 158 158 158
0.297430 0.211560 -0.132172 158 158 158
0.295763 0.214513 -0.132576 158 158 158
0.294062 0.217473 -0.132988 157 157 157
0.292358 0.220437 -0.133401 156 156 156
0.290650 0.223405 -0.133815 156 156 156
0.288949 0.226376 -0.134227 156 156 156
0.287270 0.229348 -0.134633 156 156 156
0.285577 0.232326 -0.135044 155 155 155
0.283882 0.235307 -0.135454 154 154 154
0.282410 0.238271 -0.135811 153 153 153
0.280924 0.241241 -0.136171 152 152 152
0.279226 0.244232 -0.136582 151 151 151
0.277521 0.247228 -0.136995 151 151 151
0.275733 0.250235 -0.137429 150 150 150
0.273942 0.253246 -0.137863 149 149 149
0.272149 0.256261 -0.138297 147 147 147
0.270253 0.259289 -0.138757 145 145 145
0.268423 0.262315 -0.139200 143 143 143
0.266594 0.265345 -0.139643 141 141 141
0.264763 0.268379 -0.140087 139 139 139
0.262912 0.271419 -0.140535 138 138 138
0.260644 0.274505 -0.141085 138 138 138
0.258002 0.277633 -0.141725 138 138 138
0.255384 0.280765 -0.142359 138 138 138
0.251726 0.284010 -0.143246 138 138 138
0.247647 0.287308 -0.144234 138 138 138
0.244682 0.290495 -0.144952 138 138 138
0.240675 0.293801 -0.145923 138 138 138
0.236351 0.297149 -0.146971 138 138 138
0.230534 0.300670 -0.148380 138 138 138
0.224310 0.304247 -0.149888 140 140 140
0.219148 0.307720 -0.151139 144 144 144
0.214384 0.311158 -0.152293 148 148 148
0.210422 0.314516 -0.153253 147 147 147
0.206595 0.317866 -0.154180 146 146 146
0.202757 0.321226 -0.155110 144 144 144
0.199212 0.324560 -0.155969 144 144 144
0.195748 0.327891 -0.156809 143 143 143
0.192776 0.331172 -0.157529 141 141 141
0.189566 0.334487 -0.158306 139 139 139
0.186362 0.337808 -0.159083 138 138 138
0.182679 0.341194 -0.159975 138 138 138
0.178355 0.344667 -0.161023 138 138 138
0.174146 0.348135 -0.162043 138 138 138
0.169951 0.351609 -0.163059 138 138 138
0.155696 0.356361 -0.166513 100 100 100
0.040260 -0.340050 -0.197655 138 138 138
0.049701 -0.335877 -0.195357 138 138 138
0.100346 -0.327048 -0.183031 138 138 138
0.128752 -0.320825 -0.176118 138 138 138
0.145379 -0.315975 -0.172072 138 138 138
0.155880 -0.311835 -0.169516 138 138 138
0.164981 -0.307871 -0.167301 138 138 138
0.173354 -0.304004 -0.165263 138 138 138
0.187380 -0.299549 -0.161850 138 138 138
0.197229 -0.295567 -0.159453 138 138 138
0.204462 -0.291881 -0.157692 138 138 138
0.211820 -0.288196 -0.155902 138 138 138
0.218013 -0.284647 -0.154394 138 138 138
0.221866 -0.281350 -0.153457 138 138 138
0.225408 -0.278092 -0.152595 138 138 138
0.228569 -0.274880 -0.151825 138 138 138
0.231120 -0.271734 -0.151205 138 138 138
0.233702 -0.268591 -0.150576 138 138 138
0.236505 -0.265432 -0.149894 138 138 138
0.239893 -0.262223 -0.149069 138 138 138
0.243548 -0.258995 -0.148180 138 138 138
0.247090 -0.255786 -0.147318 138 138 138
0.250950 -0.252555 -0.146379 138 138 138
0.254787 -0.249334 -0.145445 138 138 138
0.261130 -0.245895 -0.143901 138 138 138
0.269219 -0.242313 -0.141932 138 138 138
0.276835 -0.238790 -0.140079 138 138 138
0.282508 -0.235453 -0.138698 138 138 138
0.288150 -0.232130 -0.137325 138 138 138
0.293114 -0.228876 -0.136117 138 138 138
0.297695 -0.225665 -0.135002 138 138 138
0.301019 -0.222568 -0.134193 138 138 138
0.303904 -0.219515 -0.133491 138 138 138
0.306784 -0.216467 -0.132790 138 138 138
0.309406 -0.213446 -0.132152 138 138 138
0.311771 -0.210451 -0.131576 138 138 138
0.314642 -0.207422 -0.130878 138 138 138
0.317321 -0.204413 -0.130226 138 138 138
0.319915 -0.201417 -0.129594 138 138 138
0.322551 -0.198423 -0.128953 138 138 138
0.325181 -0.195434 -0.128313 138 138 138
0.327613 -0.192466 -0.127721 138 138 138
0.329803 -0.189520 -0.127188 138 138 138
0.332640 -0.186533 -0.126498 138 138 138
0.335620 -0.183542 -0.125772 138 138 138
0.338594 -0.180558 -0.125049 138 138 138
0.341456 -0.177588 -0.124352 138 138 138
0.343442 -0.174681 -0.123869 138 138 138
0.344978 -0.171809 -0.123495 138 138 138
0.346513 -0.168939 -0.123121 138 138 138
0.348046 -0.166073 -0.122748 138 138 138
0.348865 -0.163254 -0.122549 138 138 138
0.349574 -0.160444 -0.122376 138 138 138
0.350290 -0.157634 -0.122202 138 138 138
0.351005 -0.154827 -0.122028 138 138 138
0.351684 -0.152022 -0.121863 138 138 138
0.352264 -0.149225 -0.121722 138 138 138
0.352843 -0.146430 -0.121581 138 138 138
0.353356 -0.143639 -0.121456 139 139 139
0.354255 -0.140828 -0.121237 142 142 142
0.355124 -0.138021 -0.121026 143 143 143
0.356117 -0.135209 -0.120784 143 143 143
0.357110 -0.132400 -0.120542 144 144 144
0.358101 -0.129592 -0.120301 145 145 145
0.358876 -0.126797 -0.120113 148 148 148
0.359611 -0.124006 -0.119933 150 150 150
0.360646 -0.121202 -0.119682 150 150 150
0.361740 -0.118398 -0.119416 150 150 150
0.362821 -0.115597 -0.119152 150 150 150
0.363951 -0.112796 -0.118877 150 150 150
0.365081 -0.109997 -0.118602 150 150 150
0.366209 -0.107200 -0.118328 152 152 152
0.367218 -0.104411 -0.118082 152 152 152
0.368002 -0.101633 -0.117891 153 153 153
0.368786 -0.098856 -0.117701 153 153 153
0.369569 -0.096081 -0.117510 153 153 153
0.370379 -0.093307 -0.117313 152 152 152
0.370967 -0.090542 -0.117170 151 151 151
0.371466 -0.087781 -0.117048 150 150 150
0.371970 -0.085022 -0.116926 149 149 149
0.372417 -0.082265 -0.116817 148 148 148
0.372807 -0.079510 -0.116722 146 146 146
0.373209 -0.076756 -0.116624 145 145 145
0.373610 -0.074004 -0.116527 144 144 144
0.373950 -0.071253 -0.116444 143 143 143
0.373920 -0.068513 -0.116451 142 142 142
0.373753 -0.065777 -0.116492 141 141 141
0.373585 -0.063040 -0.116533 140 140 140
0.373209 -0.060307 -0.116624 141 141 141
0.372705 -0.057577 -0.116747 141 141 141
0.371993 -0.054850 -0.116920 141 141 141
0.371154 -0.052124 -0.117124 143 143 143
0.370313 -0.049396 -0.117329 145 145 145
0.369552 -0.046665 -0.117514 146 146 146
0.369181 -0.043926 -0.117605 149 149 149
0.368810 -0.041186 -0.117695 150 150 150
0.368439 -0.038445 -0.117785 150 150 150
0.368128 -0.035703 -0.117861 151 151 151
0.368308 -0.032953 -0.117817 151 151 151
0.368401 -0.030206 -0.117794 150 150 150
0.368494 -0.027458 -0.117772 150 150 150
0.368587 -0.024711 -0.117749 149 149 149
0.368860 -0.021962 -0.117683 149 149 149
0.369245 -0.019213 -0.117589 150 150 150
0.369816 -0.016464 -0.117450 151 151 151
0.370387 -0.013716 -0.117311 152 152 152
0.370860 -0.010969 -0.117196 153 153 153
0.371179 -0.008224 -0.117118 155 155 155
0.371355 -0.005480 -0.117075 155 155 155
0.371530 -0.002736 -0.117033 156 156 156
0.371671 0.000007 -0.116999 157 157 157
0.371621 0.002750 -0.117011 157 157 157
0.371573 0.005494 -0.117023 157 157 157
0.371527 0.008237 -0.117034 156 156 156
0.371413 0.010981 -0.117061 156 156 156
0.371221 0.013725 -0.117108 156 156 156
0.371027 0.016470 -0.117155 156 156 156
0.370828 0.019215 -0.117204 155 155 155
0.370620 0.021961 -0.117254 156 156 156
0.370369 0.024708 -0.117316 155 155 155
0.370137 0.027455 -0.117372 155 155 155
0.369905 0.030202 -0.117428 155 155 155
0.369626 0.032951 -0.117496 155 155 155
0.369226 0.035702 -0.117594 155 155 155
0.368765 0.038454 -0.117706 156 156 156
0.368282 0.041208 -0.117823 156 156 156
0.367777 0.043963 -0.117946 155 155 155
0.367138 0.046722 -0.118102 155 155 155
0.366455 0.049483 -0.118268 155 155 155
0.365804 0.052244 -0.118426 155 155 155
0.365296 0.055004 -0.118550 156 156 156
0.364768 0.057766 -0.118679 156 156 156
0.364244 0.060528 -0.118806 156 156 156
0.363850 0.063289 -0.118902 156 156 156
0.363455 0.066050 -0.118998 156 156 156
0.363059 0.068812 -0.119095 156 156 156
0.362659 0.071576 -0.119192 156 156 156
0.362259 0.074340 -0.119289 156 156 156
0.361875 0.077104 -0.119383 156 156 156
0.361590 0.079866 -0.119452 156 156 156
0.361286 0.082629 -0.119526 156 156 156
0.360955 0.085394 -0.119607 156 156 156
0.360624 0.088160 -0.119687 156 156 156
0.360288 0.090926 -0.119769 156 156 156
0.359636 0.093705 -0.119928 156 156 156
0.358938 0.096486 -0.120097 156 156 156
0.358226 0.099270 -0.120271 156 156 156
0.357408 0.102059 -0.120470 155 155 155
0.356234 0.104864 -0.120756 155 155 155
0.354852 0.107680 -0.121092 154 154 154
0.353092 0.110515 -0.121520 154 154 154
0.351328 0.113353 -0.121949 153 153 153
0.349502 0.116199 -0.122394 154 154 154
0.347785 0.119043 -0.122812 154 154 154
0.346095 0.121889 -0.123223 154 154 154
0.344416 0.124739 -0.123632 154 154 154
0.342849 0.127586 -0.124013 154 154 154
0.341289 0.130437 -0.124393 154 154 154
0.339727 0.133290 -0.124773 153 153 153
0.337953 0.136159 -0.125205 153 153 153
0.336049 0.139037 -0.125668 153 153 153
0.334143 0.141920 -0.126132 153 153 153
0.332249 0.144806 -0.126593 153 153 153
0.330363 0.147696 -0.127052 153 153 153
0.328581 0.150583 -0.127486 153 153 153
0.326889 0.153470 -0.127897 153 153 153
0.325195 0.156360 -0.128310 153 153 153
0.323547 0.159250 -0.128711 153 153 153
0.322029 0.162137 -0.129080 153 153 153
0.320510 0.165026 -0.129450 153 153 153
0.319066 0.167914 -0.129801 153 153 153
0.317651 0.170803 -0.130146 153 153 153
0.316247 0.173695 -0.130487 154 154 154
0.314854 0.176588 -0.130826 154 154 154
0.313510 0.179482 -0.131154 154 154 154
0.312136 0.182380 -0.131488 155 155 155
0.310746 0.185282 -0.131826 156 156 156
0.309452 0.188180 -0.132141 156 156 156
0.308156 0.191081 -0.132457 156 156 156
0.306787 0.193991 -0.132790 156 156 156
0.305129 0.196924 -0.133193 157 157 157
0.303470 0.199861 -0.133597 157 157 157
0.301893 0.202795 -0.133981 158 158 158
0.300227 0.205739 -0.134386 158 158 158
0.298592 0.208685 -0.134784 158 158 158
0.296940 0.211635 -0.135186 158 158 158
0.295288 0.214588 -0.135588 158 158 158
0.293586 0.217550 -0.136002 157 157 157
0.291843 0.220518 -0.136427 156 156 156
0.290056 0.223493 -0.136861 155 155 155
0.288347 0.226466 -0.137278 156 156 156
0.286691 0.229437 -0.137681 156 156 156
0.285033 0.232413 -0.138084 155 155 155
0.283374 0.235392 -0.138488 154 154 154
0.281628 0.238382 -0.138913 152 152 152
0.279915 0.241372 -0.139330 151 151 151
0.278216 0.244366 -0.139743 150 150 150
0.276515 0.247363 -0.140157 149 149 149
0.274746 0.250369 -0.140588 149 149 149
0.272876 0.253389 -0.141043 146 146 146
0.270858 0.256427 -0.141534 143 143 143
0.268853 0.259468 -0.142022 140 140 140
0.267018 0.262497 -0.142468 138 138 138
0.265181 0.265529 -0.142916 138 138 138
0.263138 0.268586 -0.143413 138 138 138
0.260450 0.271712 -0.144067 138 138 138
0.257732 0.274846 -0.144728 138 138 138
0.255298 0.277957 -0.145321 138 138 138
0.252831 0.281076 -0.145921 138 138 138
0.248496 0.284396 -0.146976 138 138 138
0.244893 0.287647 -0.147853 138 138 138
0.242186 0.290810 -0.148512 138 138 138
0.238585 0.294076 -0.149388 138 138 138
0.234256 0.297427 -0.150442 138 138 138
0.228534 0.300940 -0.151834 138 138 138
0.223495 0.304390 -0.153061 140 140 140
0.218493 0.307846 -0.154278 145 145 145
0.214205 0.311232 -0.155322 148 148 148
0.210214 0.314594 -0.156293 147 147 147
0.206386 0.317945 -0.157225 147 147 147
0.202506 0.321311 -0.158169 144 144 144
0.198600 0.324687 -0.159119 143 143 143
0.195074 0.328027 -0.159978 143 143 143
0.191396 0.331393 -0.160873 140 140 140
0.187687 0.334769 -0.161775 138 138 138
0.184310 0.338114 -0.162597 138 138 138
0.179770 0.341608 -0.163702 138 138 138
0.174170 0.345241 -0.165065 138 138 138
0.169825 0.348731 -0.166122 138 138 138
0.126009 0.357165 -0.176786 138 138 138
0.030377 -0.341251 -0.203244 100 100 100
0.040877 -0.336946 -0.200677 138 138 138
0.049579 -0.332867 -0.198550 138 138 138
0.114303 -0.322506 -0.182728 138 138 138
0.135697 -0.317108 -0.177498 138 138 138
0.150380 -0.312496 -0.173909 138 138 138
0.159693 -0.308502 -0.171633 138 138 138
0.167707 -0.304668 -0.169674 138 138 138
0.178245 -0.300580 -0.167098 138 138 138
0.190517 -0.296331 -0.164098 138 138 138
0.199853 -0.292415 -0.161815 138 138 138
0.207108 -0.288736 -0.160042 138 138 138
0.213619 -0.285149 -0.158450 138 138 138
0.219092 -0.281681 -0.157113 138 138 138
0.223034 -0.278380 -0.156149 138 138 138
0.226934 -0.275090 -0.155196 139 139 139
0.229518 -0.271939 -0.154564 139 139 139
0.232273 -0.268777 -0.153890 139 139 139
0.234819 -0.265641 -0.153268 139 139 139
0.237751 -0.262473 -0.152551 139 139 139
0.241112 -0.259270 -0.151730 139 139 139
0.244662 -0.256058 -0.150862 138 138 138
0.248205 -0.252853 -0.149996 138 138 138
0.252064 -0.249626 -0.149053 138 138 138
0.256171 -0.246386 -0.148049 138 138 138
0.260266 -0.243155 -0.147048 138 138 138
0.268461 -0.239571 -0.145044 138 138 138
0.276057 -0.236056 -0.143187 138 138 138
0.282046 -0.232696 -0.141723 138 138 138
0.287663 -0.229380 -0.140350 138 138 138
0.292700 -0.226124 -0.139119 138 138 138
0.297003 -0.222940 -0.138067 138 138 138
0.299617 -0.219904 -0.137428 138 138 138
0.302224 -0.216874 -0.136791 138 138 138
0.304826 -0.213849 -0.136155 138 138 138
0.306911 -0.210871 -0.135645 138 138 138
0.308665 -0.207923 -0.135217 138 138 138
0.310789 -0.204950 -0.134697 138 138 138
0.313653 -0.201926 -0.133997 138 138 138
0.316193 -0.198931 -0.133376 138 138 138
0.319105 -0.195915 -0.132664 138 138 138
0.322109 -0.192899 -0.131930 138 138 138
0.325065 -0.189892 -0.131207 138 138 138
0.327846 -0.186903 -0.130528 138 138 138
0.330651 -0.183919 -0.129842 138 138 138
0.333450 -0.180941 -0.129158 138 138 138
0.336244 -0.177969 -0.128475 138 138 138
0.339194 -0.174993 -0.127754 138 138 138
0.340835 -0.172108 -0.127352 138 138 138
0.342796 -0.169206 -0.126873 138 138 138
0.344702 -0.166312 -0.126407 138 138 138
0.346149 -0.163450 -0.126053 138 138 138
0.346795 -0.160641 -0.125896 138 138 138
0.347369 -0.157837 -0.125755 138 138 138
0.347844 -0.155039 -0.125639 138 138 138
0.348606 -0.152227 -0.125453 138 138 138
0.350007 -0.149379 -0.125110 138 138 138
0.350565 -0.146582 -0.124974 138 138 138
0.351123 -0.143785 -0.124838 138 138 138
0.351914 -0.140978 -0.124644 138 138 138
0.353124 -0.138150 -0.124348 139 139 139
0.354130 -0.135335 -0.124102 140 140 140
0.355136 -0.132522 -0.123857 140 140 140
0.356450 -0.129696 -0.123535 141 141 141
0.357648 -0.126879 -0.123243 146 146 146
0.358363 -0.124086 -0.123068 149 149 149
0.359695 -0.121267 -0.122742 149 149 149
0.360787 -0.118462 -0.122475 149 149 149
0.361886 -0.115658 -0.122207 150 150 150
0.363019 -0.112855 -0.121930 150 150 150
0.364153 -0.110055 -0.121652 150 150 150
0.365286 -0.107257 -0.121375 151 151 151
0.366214 -0.104469 -0.121149 153 153 153
0.367001 -0.101689 -0.120956 153 153 153
0.367786 -0.098911 -0.120764 153 153 153
0.368570 -0.096135 -0.120573 152 152 152
0.369252 -0.093363 -0.120406 151 151 151
0.369672 -0.090603 -0.120303 151 151 151
0.370175 -0.087840 -0.120180 150 150 150
0.370677 -0.085078 -0.120058 149 149 149
0.371001 -0.082323 -0.119978 148 148 148
0.371299 -0.079570 -0.119906 146 146 146
0.371701 -0.076814 -0.119807 145 145 145
0.372078 -0.074060 -0.119715 144 144 144
0.372246 -0.071312 -0.119674 143 143 143
0.372341 -0.068566 -0.119651 143 143 143
0.372174 -0.065828 -0.119692 142 142 142
0.371850 -0.063092 -0.119771 142 142 142
0.371469 -0.060358 -0.119864 143 143 143
0.371086 -0.057622 -0.119958 143 143 143
0.370287 -0.054895 -0.120153 144 144 144
0.369719 -0.052161 -0.120292 146 146 146
0.369156 -0.049426 -0.120429 147 147 147
0.368593 -0.046690 -0.120567 148 148 148
0.368194 -0.043950 -0.120665 150 150 150
0.367823 -0.041208 -0.120755 151 151 151
0.367487 -0.038466 -0.120837 152 152 152
0.367247 -0.035721 -0.120896 153 153 153
0.367288 -0.032972 -0.120886 152 152 152
0.367494 -0.030221 -0.120836 152 152 152
0.367699 -0.027471 -0.120786 152 152 152
0.367849 -0.024722 -0.120749 152 152 152
0.368035 -0.021973 -0.120704 151 151 151
0.368584 -0.019221 -0.120569 152 152 152
0.369156 -0.016471 -0.120429 153 153 153
0.369727 -0.013721 -0.120290 154 154 154
0.370285 -0.010973 -0.120154 155 155 155
0.370519 -0.008228 -0.120096 156 156 156
0.370708 -0.005482 -0.120050 156 156 156
0.370898 -0.002737 -0.120004 157 157 157
0.371022 0.000007 -0.119973 157 157 157
0.370988 0.002751 -0.119982 157 157 157
0.370942 0.005496 -0.119993 157 157 157
0.370877 0.008240 -0.120009 156 156 156
0.370721 0.010986 -0.120047 156 156 156
0.370541 0.013731 -0.120091 156 156 156
0.370347 0.016477 -0.120138 156 156 156
0.370140 0.019224 -0.120189 156 156 156
0.369931 0.021971 -0.120240 156 156 156
0.369689 0.024719 -0.120299 156 156 156
0.369443 0.027467 -0.120359 155 155 155
0.369160 0.030216 -0.120428 156 156 156
0.368848 0.032966 -0.120505 156 156 156
0.368475 0.035718 -0.120596 155 155 155
0.367977 0.038472 -0.120718 155 155 155
0.367479 0.041228 -0.120839 155 155 155
0.366919 0.043985 -0.120976 155 155 155
0.366311 0.046745 -0.121125 155 155 155
0.365626 0.049507 -0.121292 155 155 155
0.365071 0.052268 -0.121428 155 155 155
0.364562 0.055029 -0.121553 155 155 155
0.364052 0.057792 -0.121677 156 156 156
0.363601 0.060554 -0.121787 156 156 156
0.363099 0.063318 -0.121910 156 156 156
0.362597 0.066083 -0.122033 156 156 156
0.362240 0.068846 -0.122120 156 156 156
0.361855 0.071610 -0.122214 156 156 156
0.361455 0.074375 -0.122312 156 156 156
0.361135 0.077139 -0.122390 156 156 156
0.360848 0.079903 -0.122460 156 156 156
0.360587 0.082666 -0.122524 156 156 156
0.360256 0.085432 -0.122605 156 156 156
0.359915 0.088199 -0.122689 156 156 156
0.359560 0.090967 -0.122775 155 155 155
0.358967 0.093745 -0.122920 155 155 155
0.358150 0.096532 -0.123120 155 155 155
0.357332 0.099321 -0.123320 155 155 155
0.356513 0.102111 -0.123520 155 155 155
0.355496 0.104911 -0.123769 155 155 155
0.353993 0.107734 -0.124136 154 154 154
0.352235 0.110570 -0.124566 155 155 155
0.350562 0.113406 -0.124975 155 155 155
0.348877 0.116246 -0.125387 155 155 155
0.347246 0.119088 -0.125785 155 155 155
0.345558 0.121935 -0.126198 155 155 155
0.343871 0.124786 -0.126611 155 155 155
0.342273 0.127636 -0.127001 155 155 155
0.340712 0.130488 -0.127383 153 153 153
0.338962 0.133352 -0.127811 153 153 153
0.337067 0.136228 -0.128274 153 153 153
0.335152 0.139108 -0.128742 153 153 153
0.333244 0.141993 -0.129208 153 153 153
0.331340 0.144881 -0.129674 153 153 153
0.329487 0.147770 -0.130127 153 153 153
0.327802 0.150654 -0.130539 153 153 153
0.326155 0.153539 -0.130941 153 153 153
0.324505 0.156427 -0.131345 153 153 153
0.322810 0.159322 -0.131759 153 153 153
0.321325 0.162208 -0.132122 154 154 154
0.319904 0.165092 -0.132469 154 154 154
0.318482 0.167980 -0.132817 154 154 154
0.317059 0.170871 -0.133165 154 154 154
0.315654 0.173763 -0.133508 154 154 154
0.314248 0.176659 -0.133852 155 155 155
0.312839 0.179558 -0.134196 155 155 155
0.311452 0.182458 -0.134535 155 155 155
0.310188 0.185353 -0.134844 155 155 155
0.308898 0.188252 -0.135160 156 156 156
0.307601 0.191154 -0.135477 156 156 156
0.306271 0.194061 -0.135802 156 156 156
0.304612 0.196996 -0.136207 157 157 157
0.303002 0.199930 -0.136601 157 157 157
0.301357 0.202870 -0.137003 157 157 157
0.299696 0.205815 -0.137409 157 157 157
0.298061 0.208762 -0.137809 157 157 157
0.296425 0.211712 -0.138209 158 158 158
0.294787 0.214665 -0.138609 157 157 157
0.293034 0.217632 -0.139038 156 156 156
0.291250 0.220604 -0.139474 155 155 155
0.289463 0.223581 -0.139911 155 155 155
0.287746 0.226555 -0.140330 156 156 156
0.286087 0.229528 -0.140736 156 156 156
0.284386 0.232509 -0.141152 155 155 155
0.282650 0.235495 -0.141576 153 153 153
0.280845 0.238492 -0.142017 150 150 150
0.279094 0.241488 -0.142445 149 149 149
0.277340 0.244487 -0.142874 148 148 148
0.275584 0.247490 -0.143303 147 147 147
0.273544 0.250524 -0.143802 145 145 145
0.271530 0.253559 -0.144294 141 141 141
0.269509 0.256599 -0.144788 138 138 138
0.267485 0.259644 -0.145283 138 138 138
0.265614 0.262678 -0.145741 138 138 138
0.262791 0.265809 -0.146431 138 138 138
0.259854 0.268957 -0.147149 138 138 138
0.257520 0.272051 -0.147719 142 142 142
0.254870 0.275182 -0.148367 138 138 138
0.251478 0.278394 -0.149196 138 138 138
0.248924 0.281527 -0.149820 138 138 138
0.245104 0.284798 -0.150754 138 138 138
0.242345 0.287964 -0.151429 138 138 138
0.239508 0.291145 -0.152122 138 138 138
0.236316 0.294370 -0.152902 138 138 138
0.232073 0.297715 -0.153940 138 138 138
0.227462 0.301109 -0.155067 139 139 139
0.222679 0.304533 -0.156236 141 141 141
0.217992 0.307955 -0.157382 145 145 145
0.213953 0.311314 -0.158369 148 148 148
0.210006 0.314672 -0.159334 148 148 148
0.206213 0.318020 -0.160261 146 146 146
