ply
format ascii 1.0
element vertex 1217
property float x
property float y
property float z
property uchar red
property uchar green
property uchar blue
end_header
0.419238 0.045355 0.033502 158 158 158
0.419401 0.048706 0.033841 158 158 158
0.419558 0.052049 0.034179 158 158 158
0.419749 0.055410 0.034523 158 158 158
0.419985 0.058797 0.034878 158 158 158
0.420194 0.062160 0.035226 158 158 158
0.420144 0.065349 0.035515 158 158 158
0.419968 0.068449 0.035776 158 158 158
0.419791 0.071547 0.036037 158 158 158
0.419614 0.074641 0.036297 158 158 158
0.419417 0.077718 0.036552 158 158 158
0.419216 0.080790 0.036807 157 157 157
0.419015 0.083858 0.037061 157 157 157
0.418811 0.086920 0.037314 157 157 157
0.418368 0.089825 0.037513 156 156 156
0.417677 0.092566 0.037657 155 155 155
0.416986 0.095306 0.037801 155 155 155
0.416201 0.097984 0.037925 154 154 154
0.414876 0.100313 0.037928 154 154 154
0.413551 0.102642 0.037931 153 153 153
0.412226 0.104972 0.037934 153 153 153
0.410902 0.107301 0.037937 153 153 153
0.409448 0.109549 0.037912 153 153 153
0.407899 0.111736 0.037866 153 153 153
0.406314 0.113901 0.037812 153 153 153
0.404759 0.116085 0.037764 153 153 153
0.403230 0.118287 0.037723 153 153 153
0.401469 0.120344 0.037630 152 152 152
0.399656 0.122369 0.037526 152 152 152
0.397869 0.124411 0.037427 152 152 152
0.396093 0.126463 0.037332 152 152 152
0.394317 0.128515 0.037236 152 152 152
0.392689 0.130660 0.037173 152 152 152
0.391130 0.132849 0.037126 151 151 151
0.389593 0.135052 0.037083 151 151 151
0.388055 0.137255 0.037040 151 151 151
0.386517 0.139459 0.036997 151 151 151
0.385164 0.141777 0.036994 151 151 151
0.383602 0.143967 0.036946 152 152 152
0.382007 0.146137 0.036891 152 152 152
0.380300 0.148240 0.036811 152 152 152
0.378611 0.150354 0.036735 153 153 153
0.377047 0.152545 0.036687 153 153 153
0.375471 0.154731 0.036636 154 154 154
0.373895 0.156916 0.036586 154 154 154
0.372319 0.159102 0.036535 154 154 154
0.370843 0.161350 0.036506 155 155 155
0.369580 0.163725 0.036523 155 155 155
0.368317 0.166100 0.036541 155 155 155
0.367054 0.168474 0.036558 155 155 155
0.365877 0.170900 0.036594 156 156 156
0.364650 0.173296 0.036620 156 156 156
0.363432 0.175696 0.036647 156 156 156
0.362218 0.178098 0.036675 156 156 156
0.361003 0.180500 0.036703 157 157 157
0.359824 0.182923 0.036738 157 157 157
0.358657 0.185351 0.036776 158 158 158
0.357505 0.187788 0.036817 158 158 158
0.356379 0.190240 0.036864 158 158 158
0.355283 0.192709 0.036917 158 158 158
0.354211 0.195191 0.036976 158 158 158
0.353135 0.197671 0.037033 158 158 158
0.352020 0.200126 0.037082 158 158 158
0.350853 0.202551 0.037120 158 158 158
0.349617 0.204936 0.037143 158 158 158
0.348382 0.207321 0.037166 158 158 158
0.347113 0.209687 0.037181 157 157 157
0.345822 0.212039 0.037192 158 158 158
0.344452 0.214346 0.037186 157 157 157
0.342850 0.216522 0.037130 157 157 157
0.341247 0.218697 0.037074 156 156 156
0.339704 0.220908 0.037031 156 156 156
0.338202 0.223142 0.036997 155 155 155
0.336627 0.225335 0.036947 155 155 155
0.334919 0.227454 0.036868 154 154 154
0.333210 0.229574 0.036790 154 154 154
0.331445 0.231663 0.036700 153 153 153
0.329617 0.233718 0.036596 154 154 154
0.327756 0.235756 0.036485 153 153 153
0.325870 0.237782 0.036369 153 153 153
0.324022 0.239830 0.036262 153 153 153
0.322057 0.241815 0.036129 153 153 153
0.320139 0.243828 0.036007 154 154 154
0.318104 0.245777 0.035860 155 155 155
0.315807 0.247585 0.035657 155 155 155
0.313508 0.249395 0.035455 156 156 156
0.311207 0.251206 0.035252 157 157 157
0.309048 0.253096 0.035079 158 158 158
0.306933 0.255014 0.034916 159 159 159
0.304720 0.256879 0.034732 160 160 160
0.302979 0.259003 0.034649 161 161 161
0.301243 0.261129 0.034567 161 161 161
0.299507 0.263257 0.034485 161 161 161
0.297845 0.265427 0.034418 162 162 162
0.296395 0.267709 0.034397 162 162 162
0.294958 0.270000 0.034378 162 162 162
0.293521 0.272290 0.034360 163 163 163
0.292114 0.274597 0.034348 163 163 163
0.290793 0.276949 0.034354 163 163 163
0.289560 0.279348 0.034378 163 163 163
0.288399 0.281784 0.034418 163 163 163
0.287237 0.284220 0.034458 163 163 163
0.286076 0.286655 0.034497 163 163 163
0.285049 0.289160 0.034565 163 163 163
0.283748 0.291522 0.034575 162 162 162
0.282448 0.293883 0.034585 161 161 161
0.281158 0.296250 0.034598 161 161 161
0.279926 0.298647 0.034622 160 160 160
0.278729 0.301061 0.034654 159 159 159
0.277366 0.303389 0.034651 159 159 159
0.275788 0.305608 0.034603 158 158 158
0.274211 0.307827 0.034555 158 158 158
0.272746 0.310104 0.034531 157 157 157
0.271326 0.312404 0.034516 157 157 157
0.269907 0.314704 0.034501 157 157 157
0.268511 0.317017 0.034491 156 156 156
0.267140 0.319343 0.034487 156 156 156
0.265826 0.321697 0.034494 155 155 155
0.264567 0.324079 0.034513 155 155 155
0.263351 0.326483 0.034541 155 155 155
0.262136 0.328886 0.034569 155 155 155
0.260997 0.331327 0.034613 154 154 154
0.259884 0.333780 0.034661 154 154 154
0.258770 0.336233 0.034710 153 153 153
0.257672 0.338692 0.034762 153 153 153
0.256660 0.341194 0.034832 153 153 153
0.255780 0.343760 0.034930 153 153 153
0.254908 0.346329 0.035028 153 153 153
0.254037 0.348896 0.035127 153 153 153
0.253131 0.351446 0.035219 153 153 153
0.252046 0.353906 0.035273 154 154 154
0.250960 0.356366 0.035327 154 154 154
0.249875 0.358826 0.035381 155 155 155
0.248777 0.361279 0.035433 155 155 155
0.247228 0.363513 0.035391 156 156 156
0.245519 0.365671 0.035316 154 154 154
0.243810 0.367829 0.035241 154 154 154
0.242100 0.369989 0.035166 153 153 153
0.240389 0.372148 0.035091 153 153 153
0.238506 0.374227 0.034981 155 155 155
0.236331 0.376168 0.034810 156 156 156
0.234048 0.378060 0.034618 156 156 156
0.231730 0.379938 0.034418 157 157 157
0.229410 0.381817 0.034218 157 157 157
0.226759 0.383543 0.033951 158 158 158
0.224634 0.385520 0.033792 159 159 159
0.222652 0.387565 0.033662 159 159 159
0.220666 0.389609 0.033532 160 160 160
0.218652 0.391643 0.033396 159 159 159
0.216435 0.393583 0.033219 158 158 158
0.214130 0.395485 0.033024 158 158 158
0.211819 0.397387 0.032828 157 157 157
0.209511 0.399293 0.032632 157 157 157
0.207204 0.401201 0.032437 157 157 157
0.204639 0.402994 0.032190 157 157 157
0.201822 0.404675 0.031891 157 157 157
0.198981 0.406348 0.031588 157 157 157
0.196057 0.407988 0.031268 156 156 156
0.192819 0.409489 0.030885 154 154 154
0.189498 0.410958 0.030485 152 152 152
0.185901 0.412307 0.030029 151 151 151
0.182201 0.413616 0.029553 149 149 149
0.178497 0.414928 0.029077 147 147 147
0.174683 0.416197 0.028578 146 146 146
0.170801 0.417442 0.028067 146 146 146
0.166991 0.418725 0.027571 144 144 144
0.162874 0.419879 0.027013 141 141 141
0.158977 0.421136 0.026500 139 139 139
0.155237 0.422468 0.026019 138 138 138
0.151929 0.423997 0.025627 139 139 139
0.148797 0.425606 0.025271 140 140 140
0.145510 0.427153 0.024884 140 140 140
0.142226 0.428705 0.024498 140 140 140
0.139001 0.430288 0.024124 139 139 139
0.136126 0.432026 0.023821 138 138 138
0.133297 0.433788 0.023528 139 139 139
0.130243 0.435457 0.023190 138 138 138
0.126967 0.437035 0.022808 138 138 138
0.123615 0.438585 0.022411 138 138 138
0.120176 0.440102 0.021996 138 138 138
0.116029 0.441323 0.021439 138 138 138
0.110912 0.442139 0.020688 138 138 138
0.106345 0.443197 0.020049 138 138 138
0.100002 0.443513 0.019052 138 138 138
0.088630 0.441725 0.017046 138 138 138
0.060832 0.433070 0.011743 138 138 138
0.051411 0.432166 0.010135 138 138 138
0.043390 0.431866 0.008810 138 138 138
0.035602 0.431678 0.007533 138 138 138
0.027940 0.431558 0.006283 138 138 138
0.019227 0.431018 0.004824 138 138 138
0.009421 0.430045 0.003147 138 138 138
-0.007231 0.426277 0.000103 138 138 138
-0.046257 0.413374 -0.007413 138 138 138
-0.054492 0.413146 -0.008766 138 138 138
-0.064064 0.412389 -0.010384 138 138 138
-0.134794 0.386799 -0.024211 138 138 138
0.333144 -0.274040 -0.013238 183 183 183
0.340382 -0.264665 -0.011181 176 176 176
0.346224 -0.256410 -0.009456 173 173 173
0.350337 -0.249527 -0.008140 170 170 170
0.353968 -0.243037 -0.006941 168 168 168
0.358017 -0.236239 -0.005644 166 166 166
0.361437 -0.229947 -0.004497 165 165 165
0.364837 -0.223686 -0.003356 166 166 166
0.368340 -0.217362 -0.002193 166 166 166
0.372019 -0.210918 -0.000989 166 166 166
0.375827 -0.204392 0.000243 166 166 166
0.379939 -0.197649 0.001544 166 166 166
0.385821 -0.189571 0.003259 168 168 168
0.391815 -0.181431 0.004998 167 167 167
0.397233 -0.173753 0.006601 171 171 171
0.401658 -0.166852 0.007968 173 173 173
0.408304 -0.158286 0.009853 174 174 174
0.413274 -0.151015 0.011344 172 172 172
0.416637 -0.144978 0.012458 171 171 171
0.419422 -0.139392 0.013435 170 170 170
0.421084 -0.134663 0.014150 170 170 170
0.422061 -0.130459 0.014703 168 168 168
0.423257 -0.126099 0.015307 167 167 167
0.424024 -0.122067 0.015810 166 166 166
0.424568 -0.118209 0.016261 166 166 166
0.425111 -0.114357 0.016711 166 166 166
0.425365 -0.110727 0.017093 166 166 166
0.425435 -0.107238 0.017432 166 166 166
0.425505 -0.103753 0.017771 166 166 166
0.425557 -0.100287 0.018105 166 166 166
0.425718 -0.096744 0.018464 165 165 165
0.425879 -0.093207 0.018822 165 165 165
0.425991 -0.089710 0.019168 165 165 165
0.426180 -0.086163 0.019532 165 165 165
0.426399 -0.082597 0.019903 165 165 165
0.426607 -0.079045 0.020270 165 165 165
0.426746 -0.075549 0.020621 165 165 165
0.426905 -0.072042 0.020976 165 165 165
0.427073 -0.068534 0.021333 165 165 165
0.427279 -0.065003 0.021698 165 165 165
0.427488 -0.061475 0.022063 165 165 165
0.427706 -0.057946 0.022430 165 165 165
0.427974 -0.054386 0.022808 165 165 165
0.428321 -0.050774 0.023203 165 165 165
0.428653 -0.047178 0.023595 165 165 165
0.428847 -0.043686 0.023954 165 165 165
0.428946 -0.040266 0.024291 165 165 165
0.429027 -0.036864 0.024624 165 165 165
0.429007 -0.033538 0.024933 164 164 164
0.428742 -0.030389 0.025186 164 164 164
0.428428 -0.027278 0.025427 164 164 164
0.428119 -0.024167 0.025668 164 164 164
0.427866 -0.021019 0.025923 163 163 163
0.427441 -0.017995 0.026138 163 163 163
0.426999 -0.014987 0.026348 163 163 163
0.426559 -0.011979 0.026559 163 163 163
0.426032 -0.009036 0.026750 162 162 162
0.425519 -0.006085 0.026943 162 162 162
0.425003 -0.003138 0.027136 162 162 162
0.424435 -0.000230 0.027317 162 162 162
0.423839 0.002656 0.027491 162 162 162
0.423274 0.005561 0.027672 161 161 161
0.422710 0.008464 0.027853 161 161 161
0.422287 0.011462 0.028065 160 160 160
0.421923 0.014497 0.028291 160 160 160
0.421399 0.017420 0.028480 160 160 160
0.420877 0.020341 0.028670 160 160 160
0.420440 0.023319 0.028878 159 159 159
0.420017 0.026302 0.029089 159 159 159
0.419595 0.029283 0.029301 159 159 159
0.419251 0.032314 0.029529 160 160 160
0.419022 0.035420 0.029784 159 159 159
0.418793 0.038523 0.030038 159 159 159
0.418599 0.041644 0.030299 159 159 159
0.418642 0.044922 0.030614 159 159 159
0.418806 0.048275 0.030956 159 159 159
0.418941 0.051605 0.031290 158 158 158
0.419073 0.054928 0.031624 158 158 158
0.419311 0.058317 0.031981 158 158 158
0.419437 0.061628 0.032312 158 158 158
0.419440 0.064852 0.032615 158 158 158
0.419295 0.067977 0.032885 158 158 158
0.419119 0.071076 0.033147 158 158 158
0.418950 0.074177 0.033411 158 158 158
0.418772 0.077268 0.033672 157 157 157
0.418551 0.080328 0.033924 157 157 157
0.418331 0.083385 0.034175 157 157 157
0.418111 0.086438 0.034426 156 156 156
0.417638 0.089325 0.034620 156 156 156
0.416939 0.092063 0.034763 155 155 155
0.416240 0.094800 0.034907 155 155 155
0.415542 0.097535 0.035050 154 154 154
0.414411 0.099990 0.035097 154 154 154
0.413026 0.102282 0.035087 153 153 153
0.411641 0.104575 0.035077 153 153 153
0.410297 0.106893 0.035076 153 153 153
0.408966 0.109220 0.035078 153 153 153
0.407416 0.111408 0.035031 153 153 153
0.405917 0.113629 0.034996 153 153 153
0.404384 0.115828 0.034953 153 153 153
0.402859 0.118034 0.034912 153 153 153
0.401221 0.120169 0.034846 152 152 152
0.399408 0.122194 0.034742 152 152 152
0.397594 0.124221 0.034637 152 152 152
0.395779 0.126248 0.034532 152 152 152
0.393963 0.128277 0.034427 152 152 152
0.392165 0.130318 0.034326 152 152 152
0.390603 0.132506 0.034278 152 152 152
0.389056 0.134704 0.034233 151 151 151
0.387518 0.136908 0.034189 151 151 151
0.385979 0.139113 0.034146 151 151 151
0.384516 0.141365 0.034120 151 151 151
0.382966 0.143564 0.034074 151 151 151
0.381413 0.145761 0.034028 152 152 152
0.379805 0.147925 0.033970 152 152 152
0.378139 0.150055 0.033899 153 153 153
0.376550 0.152233 0.033845 153 153 153
0.375040 0.154459 0.033808 154 154 154
0.373530 0.156686 0.033772 154 154 154
0.372021 0.158913 0.033735 155 155 155
0.370458 0.161109 0.033687 155 155 155
0.369148 0.163457 0.033695 155 155 155
0.367971 0.165884 0.033731 155 155 155
0.366793 0.168311 0.033768 156 156 156
0.365616 0.170737 0.033804 156 156 156
0.364416 0.173150 0.033835 156 156 156
0.363182 0.175542 0.033859 156 156 156
0.361947 0.177933 0.033883 157 157 157
0.360712 0.180324 0.033907 157 157 157
0.359497 0.182726 0.033934 157 157 157
0.358345 0.185164 0.033976 158 158 158
0.357256 0.187640 0.034031 157 157 157
0.356177 0.190120 0.034089 157 157 157
0.355098 0.192600 0.034146 158 158 158
0.354024 0.195081 0.034204 158 158 158
0.352942 0.197558 0.034261 158 158 158
0.351828 0.200014 0.034311 158 158 158
0.350585 0.202396 0.034332 157 157 157
0.349343 0.204779 0.034354 157 157 157
0.348110 0.207166 0.034377 157 157 157
0.346843 0.209533 0.034394 157 157 157
0.345480 0.211846 0.034389 156 156 156
0.344044 0.214116 0.034369 156 156 156
0.342500 0.216326 0.034325 156 156 156
0.340912 0.218511 0.034272 155 155 155
0.339410 0.220745 0.034238 155 155 155
0.337909 0.222981 0.034203 154 154 154
0.336406 0.225216 0.034169 153 153 153
0.334707 0.227341 0.034092 153 153 153
0.332880 0.229395 0.033988 153 153 153
0.331052 0.231450 0.033883 153 153 153
0.329222 0.233505 0.033779 153 153 153
0.327393 0.235562 0.033674 153 153 153
0.325510 0.237591 0.033559 152 152 152
0.323663 0.239640 0.033451 153 153 153
0.321814 0.241690 0.033343 153 153 153
0.319863 0.243685 0.033213 153 153 153
0.317926 0.245690 0.033086 155 155 155
0.315732 0.247556 0.032904 156 156 156
0.313433 0.249365 0.032700 156 156 156
0.311194 0.251211 0.032510 157 157 157
0.309081 0.253127 0.032346 158 158 158
0.307055 0.255093 0.032201 159 159 159
0.305028 0.257060 0.032056 161 161 161
0.303195 0.259133 0.031952 161 161 161
0.301433 0.261246 0.031864 162 162 162
0.299695 0.263374 0.031782 162 162 162
0.298012 0.265531 0.031710 162 162 162
0.296506 0.267785 0.031677 163 163 163
0.295079 0.270081 0.031661 163 163 163
0.293714 0.272410 0.031657 163 163 163
0.292360 0.274745 0.031656 164 164 164
0.291008 0.277081 0.031656 164 164 164
0.289754 0.279470 0.031676 164 164 164
0.288508 0.281861 0.031698 163 163 163
0.287262 0.284253 0.031720 163 163 163
0.286072 0.286674 0.031754 163 163 163
0.284935 0.289122 0.031799 163 163 163
0.283642 0.291488 0.031810 163 163 163
0.282384 0.293872 0.031830 162 162 162
0.281127 0.296256 0.031849 161 161 161
0.279872 0.298641 0.031869 161 161 161
0.278674 0.301056 0.031901 160 160 160
0.277248 0.303352 0.031885 160 160 160
0.275670 0.305571 0.031836 159 159 159
0.274066 0.307777 0.031783 159 159 159
0.272487 0.309997 0.031734 159 159 159
0.270985 0.312256 0.031702 158 158 158
0.269597 0.314573 0.031694 157 157 157
0.268208 0.316890 0.031686 157 157 157
0.266818 0.319207 0.031677 157 157 157
0.265489 0.321555 0.031682 156 156 156
0.264174 0.323910 0.031689 156 156 156
0.262859 0.326264 0.031696 155 155 155
0.261544 0.328619 0.031703 155 155 155
0.260305 0.331011 0.031726 155 155 155
0.259215 0.333478 0.031781 154 154 154
0.258125 0.335943 0.031835 154 154 154
0.257036 0.338409 0.031889 153 153 153
0.255947 0.340873 0.031943 153 153 153
0.255038 0.343427 0.032035 152 152 152
0.254149 0.345988 0.032131 152 152 152
0.253261 0.348549 0.032227 152 152 152
0.252390 0.351117 0.032327 152 152 152
0.251374 0.353613 0.032396 152 152 152
0.250287 0.356074 0.032450 153 153 153
0.249090 0.358480 0.032482 153 153 153
0.247852 0.360867 0.032504 153 153 153
0.246516 0.363206 0.032507 153 153 153
0.244885 0.365402 0.032448 152 152 152
0.243254 0.367600 0.032389 152 152 152
0.241622 0.369797 0.032330 151 151 151
0.239924 0.371964 0.032257 150 150 150
0.238135 0.374089 0.032165 152 152 152
0.236069 0.376083 0.032017 154 154 154
0.233968 0.378062 0.031861 155 155 155
0.231661 0.379945 0.031662 155 155 155
0.229340 0.381825 0.031462 156 156 156
0.226906 0.383654 0.031237 156 156 156
0.224778 0.385629 0.031077 157 157 157
0.222784 0.387669 0.030944 157 157 157
0.220780 0.389705 0.030809 157 157 157
0.218660 0.391689 0.030651 157 157 157
0.216727 0.393762 0.030531 157 157 157
0.214460 0.395682 0.030343 157 157 157
0.212156 0.397588 0.030147 157 157 157
0.209837 0.399488 0.029948 156 156 156
0.207457 0.401363 0.029737 156 156 156
0.204972 0.403193 0.029505 156 156 156
0.202127 0.404861 0.029199 156 156 156
0.199239 0.406513 0.028884 156 156 156
0.196289 0.408141 0.028558 156 156 156
0.192978 0.409610 0.028157 154 154 154
0.189627 0.411065 0.027749 152 152 152
0.186113 0.412452 0.027307 151 151 151
0.182378 0.413745 0.026822 149 149 149
0.178594 0.415022 0.026326 148 148 148
0.174719 0.416265 0.025813 147 147 147
0.170837 0.417510 0.025298 147 147 147
0.166954 0.418761 0.024784 146 146 146
0.163043 0.420006 0.024265 143 143 143
0.159254 0.421311 0.023771 141 141 141
0.155488 0.422633 0.023283 140 140 140
0.151876 0.424027 0.022827 141 141 141
0.148654 0.425598 0.022450 141 141 141
0.145375 0.427149 0.022062 140 140 140
0.142091 0.428702 0.021674 140 140 140
0.138801 0.430257 0.021285 140 140 140
0.135717 0.431906 0.020938 139 139 139
0.132622 0.433554 0.020590 138 138 138
0.129400 0.435152 0.020216 138 138 138
0.126051 0.436700 0.019817 138 138 138
0.122696 0.438250 0.019417 138 138 138
0.119031 0.439673 0.018954 138 138 138
0.114187 0.440599 0.018253 138 138 138
0.109063 0.441415 0.017497 138 138 138
0.104873 0.442635 0.016930 138 138 138
0.095716 0.441766 0.015359 138 138 138
0.081111 0.438624 0.012689 138 138 138
0.060687 0.433073 0.008846 138 138 138
0.051097 0.432099 0.007195 138 138 138
0.042772 0.431673 0.005801 138 138 138
0.034686 0.431363 0.004457 138 138 138
0.026024 0.430829 0.002998 138 138 138
0.016374 0.429905 0.001342 138 138 138
0.003971 0.427866 -0.000866 138 138 138
-0.033584 0.415512 -0.008134 138 138 138
-0.043851 0.414430 -0.009905 138 138 138
-0.052544 0.414013 -0.011358 138 138 138
-0.063466 0.412704 -0.013257 138 138 138
-0.133920 0.387228 -0.027106 138 138 138
0.332588 -0.274564 -0.016378 182 182 182
0.339945 -0.265094 -0.014281 175 175 175
0.344636 -0.257736 -0.012819 172 172 172
0.349338 -0.250390 -0.011356 169 169 169
0.352739 -0.244077 -0.010204 168 168 168
0.356277 -0.237673 -0.009021 166 166 166
0.359771 -0.231319 -0.007849 166 166 166
0.363295 -0.224959 -0.006672 166 166 166
0.366728 -0.218685 -0.005519 167 167 167
0.370401 -0.212243 -0.004310 167 167 167
0.374162 -0.205749 -0.003081 167 167 167
0.378103 -0.199134 -0.001812 167 167 167
0.383093 -0.191734 -0.000297 168 168 168
0.389624 -0.183178 0.001579 168 168 168
0.395647 -0.175036 0.003333 171 171 171
0.400435 -0.167856 0.004793 172 172 172
0.407109 -0.159265 0.006696 173 173 173
0.412518 -0.151659 0.008299 172 172 172
0.416180 -0.145394 0.009490 170 170 170
0.418600 -0.140081 0.010387 168 168 168
0.420503 -0.135170 0.011162 167 167 167
0.421558 -0.130906 0.011737 166 166 166
0.422798 -0.126511 0.012355 166 166 166
0.423801 -0.122301 0.012916 165 165 165
0.424326 -0.118456 0.013365 165 165 165
0.424824 -0.114637 0.013807 165 165 165
0.425032 -0.111039 0.014181 165 165 165
0.425130 -0.107528 0.014528 165 165 165
0.425227 -0.104023 0.014875 165 165 165
0.425294 -0.100544 0.015215 164 164 164
0.425455 -0.097000 0.015576 164 164 164
0.425580 -0.093489 0.015928 164 164 164
0.425667 -0.090010 0.016270 164 164 164
0.425843 -0.086470 0.016633 163 163 163
0.426016 -0.082937 0.016995 163 163 163
0.426181 -0.079415 0.017355 163 163 163
0.426264 -0.075958 0.017695 163 163 163
0.426592 -0.072327 0.018091 164 164 164
0.426776 -0.068807 0.018454 164 164 164
0.426967 -0.065285 0.018818 164 164 164
0.427177 -0.061756 0.019185 164 164 164
0.427402 -0.058220 0.019556 164 164 164
0.427616 -0.054697 0.019924 164 164 164
0.427919 -0.051116 0.020311 164 164 164
0.428276 -0.047501 0.020711 164 164 164
0.428568 -0.043938 0.021095 164 164 164
0.428650 -0.040529 0.021430 164 164 164
0.428731 -0.037126 0.021765 164 164 164
0.428812 -0.033727 0.022099 164 164 164
0.428562 -0.030567 0.022357 163 163 163
0.428248 -0.027455 0.022599 163 163 163
0.427934 -0.024346 0.022841 163 163 163
0.427600 -0.021254 0.023079 163 163 163
0.427140 -0.018254 0.023287 163 163 163
0.426674 -0.015261 0.023493 163 163 163
0.426252 -0.012240 0.023709 163 163 163
0.425791 -0.009249 0.023916 163 163 163
0.425278 -0.006297 0.024111 162 162 162
0.424749 -0.003359 0.024302 162 162 162
0.424200 -0.000437 0.024488 163 163 163
0.423603 0.002450 0.024663 162 162 162
0.423004 0.005332 0.024837 162 162 162
0.422415 0.008220 0.025014 162 162 162
0.421891 0.011149 0.025205 161 161 161
0.421456 0.014137 0.025416 161 161 161
0.420933 0.017062 0.025606 161 161 161
0.420407 0.019982 0.025796 160 160 160
0.419913 0.022922 0.025993 160 160 160
0.419512 0.025922 0.026210 160 160 160
0.419149 0.028944 0.026436 160 160 160
0.418785 0.031963 0.026662 160 160 160
0.418522 0.035047 0.026910 160 160 160
0.418293 0.038151 0.027166 160 160 160
0.418129 0.041294 0.027436 160 160 160
0.418046 0.044488 0.027724 160 160 160
0.418209 0.047843 0.028067 159 159 159
0.418323 0.051160 0.028399 159 159 159
0.418422 0.054463 0.028727 158 158 158
0.418634 0.057837 0.029080 159 159 159
0.418679 0.061095 0.029395 159 159 159
0.418682 0.064322 0.029701 158 158 158
0.418623 0.067504 0.029991 158 158 158
0.418451 0.070607 0.030256 158 158 158
0.418288 0.073713 0.030523 158 158 158
0.418124 0.076815 0.030789 157 157 157
0.417895 0.079872 0.031040 157 157 157
0.417657 0.082919 0.031289 157 157 157
0.417420 0.085963 0.031537 156 156 156
0.417066 0.088928 0.031760 156 156 156
0.416238 0.091585 0.031875 156 156 156
0.415487 0.094289 0.032008 155 155 155
0.414789 0.097025 0.032152 155 155 155
0.414014 0.099711 0.032279 154 154 154
0.412628 0.102003 0.032268 154 154 154
0.411243 0.104297 0.032258 153 153 153
0.409857 0.106590 0.032248 153 153 153
0.408478 0.108887 0.032240 153 153 153
0.407058 0.111159 0.032222 153 153 153
0.405590 0.113401 0.032194 153 153 153
0.404044 0.115593 0.032148 153 153 153
0.402489 0.117780 0.032100 153 153 153
0.400962 0.119986 0.032058 153 153 153
0.399159 0.122020 0.031956 152 152 152
0.397344 0.124047 0.031850 152 152 152
0.395540 0.126082 0.031747 152 152 152
0.393696 0.128094 0.031636 152 152 152
0.391843 0.130101 0.031522 152 152 152
0.390167 0.132220 0.031448 152 152 152
0.388604 0.134409 0.031399 152 152 152
0.387041 0.136599 0.031350 151 151 151
0.385477 0.138790 0.031302 151 151 151
0.383913 0.140980 0.031253 151 151 151
0.382408 0.143208 0.031217 151 151 151
0.380917 0.145445 0.031184 152 152 152
0.379326 0.147621 0.031129 152 152 152
0.377684 0.149766 0.031063 152 152 152
0.375997 0.151886 0.030988 153 153 153
0.374487 0.154113 0.030951 154 154 154
0.372977 0.156341 0.030914 154 154 154
0.371477 0.158576 0.030880 155 155 155
0.370073 0.160868 0.030867 155 155 155
0.368876 0.163285 0.030900 155 155 155
0.367708 0.165719 0.030938 156 156 156
0.366533 0.168148 0.030975 156 156 156
0.365355 0.170575 0.031012 156 156 156
0.364179 0.173002 0.031049 156 156 156
0.362947 0.175396 0.031073 157 157 157
0.361711 0.177788 0.031097 157 157 157
0.360477 0.180180 0.031121 157 157 157
0.359302 0.182607 0.031158 157 157 157
0.358167 0.185056 0.031204 157 157 157
0.357072 0.187529 0.031258 157 157 157
0.355993 0.190010 0.031316 157 157 157
0.354914 0.192490 0.031374 157 157 157
0.353837 0.194971 0.031432 157 157 157
0.352750 0.197445 0.031488 157 157 157
0.351560 0.199859 0.031521 157 157 157
0.350316 0.202241 0.031542 157 157 157
0.349030 0.204599 0.031555 156 156 156
0.347663 0.206910 0.031549 156 156 156
0.346299 0.209223 0.031545 156 156 156
0.344935 0.211536 0.031540 155 155 155
0.343572 0.213850 0.031536 155 155 155
0.342151 0.216130 0.031519 155 155 155
0.340619 0.218348 0.031477 154 154 154
0.339088 0.220568 0.031437 153 153 153
0.337504 0.222757 0.031384 152 152 152
0.335885 0.224927 0.031324 152 152 152
0.334206 0.227065 0.031252 152 152 152
0.332414 0.229140 0.031154 152 152 152
0.330621 0.231215 0.031057 152 152 152
0.328827 0.233292 0.030960 152 152 152
0.326997 0.235350 0.030855 152 152 152
0.325151 0.237400 0.030747 152 152 152
0.323237 0.239413 0.030624 152 152 152
0.321307 0.241420 0.030498 152 152 152
0.319568 0.243533 0.030413 153 153 153
0.317614 0.245529 0.030282 154 154 154
0.315657 0.247525 0.030150 156 156 156
0.313358 0.249336 0.029945 157 157 157
0.311228 0.251241 0.029777 158 158 158
0.309261 0.253238 0.029643 159 159 159
0.307306 0.255242 0.029513 160 160 160
0.305347 0.257246 0.029382 161 161 161
0.303438 0.259279 0.029261 161 161 161
0.301670 0.261389 0.029172 162 162 162
0.299901 0.263500 0.029082 162 162 162
0.298178 0.265637 0.029002 163 163 163
0.296679 0.267894 0.028969 163 163 163
0.295313 0.270223 0.028966 164 164 164
0.293960 0.272558 0.028965 164 164 164
0.292606 0.274894 0.028964 164 164 164
0.291253 0.277230 0.028964 165 165 165
0.289963 0.279598 0.028976 164 164 164
0.288716 0.281990 0.028998 164 164 164
0.287469 0.284382 0.029020 164 164 164
0.286230 0.286777 0.029044 164 164 164
0.284973 0.289163 0.029063 164 164 164
0.283612 0.291493 0.029061 163 163 163
0.282354 0.293878 0.029080 163 163 163
0.281097 0.296263 0.029100 162 162 162
0.279839 0.298647 0.029119 161 161 161
0.278619 0.301051 0.029147 161 161 161
0.277130 0.303316 0.029117 160 160 160
0.275530 0.305524 0.029064 160 160 160
0.273954 0.307744 0.029016 160 160 160
0.272423 0.309989 0.028977 160 160 160
0.270953 0.312265 0.028952 159 159 159
0.269417 0.314508 0.028912 158 158 158
0.267905 0.316763 0.028878 158 158 158
0.266515 0.319081 0.028870 157 157 157
0.265153 0.321413 0.028867 156 156 156
0.263838 0.323769 0.028874 156 156 156
0.262523 0.326125 0.028882 157 157 157
0.261204 0.328478 0.028888 156 156 156
0.259868 0.330823 0.028891 156 156 156
0.258667 0.333235 0.028923 155 155 155
0.257512 0.335669 0.028964 154 154 154
0.256400 0.338125 0.029014 154 154 154
0.255310 0.340591 0.029068 153 153 153
0.254306 0.343098 0.029141 153 153 153
0.253416 0.345661 0.029237 152 152 152
0.252527 0.348222 0.029334 152 152 152
0.251600 0.350764 0.029422 151 151 151
0.250538 0.353240 0.029482 150 150 150
0.249282 0.355619 0.029501 150 150 150
0.248043 0.358007 0.029524 150 150 150
0.246804 0.360395 0.029547 150 150 150
0.245565 0.362783 0.029570 150 150 150
0.244053 0.365039 0.029536 150 150 150
0.242421 0.367237 0.029476 149 149 149
0.240788 0.369436 0.029417 148 148 148
0.239041 0.371581 0.029334 148 148 148
0.237298 0.373729 0.029251 147 147 147
0.235260 0.375738 0.029108 150 150 150
0.233148 0.377713 0.028949 152 152 152
0.231044 0.379694 0.028792 152 152 152
0.228939 0.381677 0.028635 153 153 153
0.226832 0.383660 0.028477 154 154 154
0.224709 0.385638 0.028317 154 154 154
0.222537 0.387595 0.028147 155 155 155
0.220364 0.389554 0.027976 155 155 155
0.218305 0.391567 0.027830 155 155 155
0.216643 0.393767 0.027766 155 155 155
0.214724 0.395849 0.027648 156 156 156
0.212469 0.397777 0.027461 156 156 156
0.210090 0.399650 0.027249 156 156 156
0.207709 0.401525 0.027037 155 155 155
0.205214 0.403350 0.026801 155 155 155
0.202514 0.405084 0.026523 155 155 155
0.199611 0.406730 0.026204 156 156 156
0.196454 0.408264 0.025832 155 155 155
0.193129 0.409726 0.025427 153 153 153
0.189755 0.411172 0.025011 152 152 152
0.186241 0.412559 0.024568 151 151 151
0.182636 0.413911 0.024106 150 150 150
0.178726 0.415132 0.023582 148 148 148
0.174850 0.416374 0.023065 148 148 148
0.170966 0.417619 0.022547 147 147 147
0.167097 0.418877 0.022033 147 147 147
0.163326 0.420184 0.021540 146 146 146
0.159537 0.421489 0.021044 144 144 144
0.155746 0.422800 0.020547 141 141 141
0.152056 0.424161 0.020073 141 141 141
0.148460 0.425568 0.019617 140 140 140
0.145185 0.427121 0.019228 140 140 140
0.141904 0.428676 0.018839 140 140 140
0.138618 0.430234 0.018448 139 139 139
0.135073 0.431684 0.018005 138 138 138
0.131795 0.433255 0.017618 138 138 138
0.128486 0.434816 0.017224 138 138 138
0.124975 0.436297 0.016790 138 138 138
0.120879 0.437531 0.016236 138 138 138
0.116313 0.438572 0.015588 138 138 138
0.111899 0.439685 0.014971 138 138 138
0.107290 0.440723 0.014315 138 138 138
0.100373 0.440792 0.013191 138 138 138
0.092724 0.440566 0.011918 138 138 138
0.077693 0.437249 0.009147 138 138 138
0.060542 0.433075 0.005948 138 138 138
0.050279 0.431821 0.004151 138 138 138
0.041849 0.431353 0.002728 138 138 138
0.032300 0.430436 0.001080 138 138 138
0.022625 0.429486 -0.000592 138 138 138
0.010020 0.427345 -0.002856 138 138 138
-0.000110 0.426250 -0.004616 138 138 138
-0.030626 0.416797 -0.010499 138 138 138
-0.041483 0.415471 -0.012400 138 138 138
-0.050464 0.414934 -0.013919 138 138 138
-0.062184 0.413298 -0.015991 138 138 138
-0.133046 0.387657 -0.030001 138 138 138
-0.149307 0.384301 -0.032977 100 100 100
0.240460 -0.350816 -0.041771 138 138 138
0.246348 -0.342329 -0.039997 183 183 183
0.338971 -0.265943 -0.017511 175 175 175
0.343131 -0.258997 -0.016167 171 171 171
0.347975 -0.251537 -0.014662 168 168 168
0.351350 -0.245241 -0.013509 167 167 167
0.354497 -0.239137 -0.012412 166 166 166
0.358026 -0.232754 -0.011226 166 166 166
0.361672 -0.226295 -0.010013 166 166 166
0.365178 -0.219961 -0.008835 167 167 167
0.368799 -0.213555 -0.007631 167 167 167
0.372589 -0.207036 -0.006389 167 167 167
0.376435 -0.200490 -0.005135 167 167 167
0.380248 -0.193987 -0.003890 168 168 168
0.386812 -0.185401 -0.001995 169 169 169
0.393432 -0.176798 -0.000090 171 171 171
0.399210 -0.168861 0.001614 172 172 172
0.405835 -0.160305 0.003516 172 172 172
0.411426 -0.152558 0.005171 171 171 171
0.415515 -0.145968 0.006469 169 169 169
0.417778 -0.140771 0.007335 167 167 167
0.419648 -0.135883 0.008107 166 166 166
0.421097 -0.131321 0.008778 166 166 166
0.422338 -0.126924 0.009400 165 165 165
0.423576 -0.122537 0.010020 165 165 165
0.424084 -0.118703 0.010468 163 163 163
0.424392 -0.115025 0.010868 163 163 163
0.424617 -0.111413 0.011247 163 163 163
0.424665 -0.107938 0.011585 163 163 163
0.424700 -0.104477 0.011920 163 163 163
0.424723 -0.101029 0.012251 163 163 163
0.424767 -0.097570 0.012586 163 163 163
0.424838 -0.094096 0.012928 162 162 162
0.424967 -0.090584 0.013283 162 162 162
0.425157 -0.087032 0.013651 163 163 163
0.425331 -0.083497 0.014016 162 162 162
0.425533 -0.079947 0.014386 162 162 162
0.425780 -0.076368 0.014766 162 162 162
0.426077 -0.072759 0.015158 163 163 163
0.426478 -0.069079 0.015573 163 163 163
0.426654 -0.065568 0.015936 163 163 163
0.426864 -0.062037 0.016305 163 163 163
0.427099 -0.058493 0.016680 163 163 163
0.427332 -0.054955 0.017055 163 163 163
0.427512 -0.051461 0.017416 163 163 163
0.427864 -0.047848 0.017817 163 163 163
0.428189 -0.044261 0.018211 163 163 163
0.428320 -0.040816 0.018560 163 163 163
0.428418 -0.037399 0.018900 163 163 163
0.428515 -0.033988 0.019240 163 163 163
0.428371 -0.030752 0.019524 163 163 163
0.427962 -0.027706 0.019746 163 163 163
0.427553 -0.024662 0.019968 163 163 163
0.427235 -0.021558 0.020210 163 163 163
0.426779 -0.018555 0.020420 163 163 163
0.426312 -0.015561 0.020628 163 163 163
0.425936 -0.012507 0.020856 163 163 163
0.425549 -0.009463 0.021081 163 163 163
0.425036 -0.006510 0.021277 163 163 163
0.424495 -0.003579 0.021467 163 163 163
0.423946 -0.000657 0.021654 163 163 163
0.423369 0.002245 0.021834 163 163 163
0.422770 0.005129 0.022010 163 163 163
0.422172 0.008011 0.022185 163 163 163
0.421592 0.010903 0.022364 162 162 162
0.421067 0.013830 0.022556 162 162 162
0.420560 0.016767 0.022751 161 161 161
0.420028 0.019684 0.022941 161 161 161
0.419480 0.022588 0.023126 161 161 161
0.419068 0.025582 0.023343 161 161 161
0.418705 0.028606 0.023570 160 160 160
0.418342 0.031627 0.023798 160 160 160
0.418021 0.034673 0.024034 160 160 160
0.417800 0.037783 0.024293 160 160 160
0.417659 0.040944 0.024570 160 160 160
0.417519 0.044101 0.024847 160 160 160
0.417605 0.047405 0.025174 160 160 160
0.417705 0.050715 0.025505 159 159 159
0.417805 0.054020 0.025835 159 159 159
0.417917 0.057329 0.026168 159 159 159
0.417921 0.060562 0.026476 159 159 159
0.417927 0.063792 0.026783 159 159 159
0.417932 0.067018 0.027091 159 159 159
0.417768 0.070129 0.027359 158 158 158
0.417597 0.073231 0.027625 158 158 158
0.417415 0.076323 0.027889 157 157 157
0.417186 0.079381 0.028142 157 157 157
0.416949 0.082430 0.028392 157 157 157
0.416702 0.085469 0.028640 156 156 156
0.416423 0.088485 0.028881 156 156 156
0.415775 0.091259 0.029037 156 156 156
0.414947 0.093915 0.029154 155 155 155
0.414120 0.096570 0.029270 155 155 155
0.413337 0.099252 0.029395 155 155 155
0.412229 0.101724 0.029448 154 154 154
0.410850 0.104023 0.029439 154 154 154
0.409477 0.106325 0.029432 153 153 153
0.408104 0.108627 0.029425 153 153 153
0.406730 0.110929 0.029418 153 153 153
0.405262 0.113172 0.029389 153 153 153
0.403714 0.115364 0.029343 153 153 153
0.402157 0.117551 0.029294 153 153 153
0.400601 0.119740 0.029246 153 153 153
0.398915 0.121848 0.029169 152 152 152
0.397117 0.123886 0.029067 152 152 152
0.395272 0.125896 0.028954 152 152 152
0.393418 0.127903 0.028840 152 152 152
0.391565 0.129911 0.028726 152 152 152
0.389731 0.131933 0.028616 152 152 152
0.388168 0.134124 0.028567 152 152 152
0.386604 0.136315 0.028518 152 152 152
0.385033 0.138502 0.028467 152 152 152
0.383462 0.140689 0.028417 152 152 152
0.381912 0.142891 0.028371 152 152 152
0.380421 0.145128 0.028338 152 152 152
0.378818 0.147299 0.028281 152 152 152
0.377204 0.149463 0.028221 152 152 152
0.375552 0.151604 0.028152 153 153 153
0.373938 0.153770 0.028093 154 154 154
0.372536 0.156064 0.028080 154 154 154
0.371132 0.158358 0.028067 155 155 155
0.369725 0.160650 0.028053 155 155 155
0.368587 0.163103 0.028099 156 156 156
0.367423 0.165540 0.028139 156 156 156
0.366254 0.167974 0.028178 156 156 156
0.365086 0.170408 0.028216 156 156 156
0.363917 0.172841 0.028255 157 157 157
0.362711 0.175251 0.028286 157 157 157
0.361540 0.177681 0.028324 157 157 157
0.360370 0.180112 0.028362 157 157 157
0.359201 0.182543 0.028401 157 157 157
0.358037 0.184976 0.028441 157 157 157
0.356936 0.187446 0.028494 157 157 157
0.355835 0.189914 0.028547 157 157 157
0.354733 0.192383 0.028600 157 157 157
0.353651 0.194861 0.028658 157 157 157
0.352535 0.197319 0.028708 157 157 157
0.351241 0.199674 0.028718 156 156 156
0.349866 0.201982 0.028711 156 156 156
0.348492 0.204290 0.028705 155 155 155
0.347119 0.206599 0.028698 155 155 155
0.345754 0.208912 0.028693 155 155 155
0.344390 0.211227 0.028689 154 154 154
0.343026 0.213541 0.028684 154 154 154
0.341578 0.215807 0.028661 152 152 152
0.340050 0.218029 0.028621 150 150 150
0.338433 0.220200 0.028561 150 150 150
0.336812 0.222370 0.028500 150 150 150
0.335190 0.224541 0.028440 150 150 150
0.333568 0.226712 0.028379 150 150 150
0.331815 0.228810 0.028290 150 150 150
0.330021 0.230887 0.028192 150 150 150
0.328226 0.232964 0.028094 150 150 150
0.326393 0.235021 0.027988 150 150 150
0.324596 0.237100 0.027890 152 152 152
0.322709 0.239130 0.027772 152 152 152
0.320800 0.241149 0.027650 152 152 152
0.319085 0.243276 0.027570 153 153 153
0.317318 0.245377 0.027479 153 153 153
0.315465 0.247431 0.027369 156 156 156
0.313420 0.249381 0.027218 157 157 157
0.311467 0.251384 0.027087 158 158 158
0.309513 0.253388 0.026956 159 159 159
0.307559 0.255392 0.026825 160 160 160
0.305603 0.257398 0.026694 161 161 161
0.303681 0.259424 0.026570 162 162 162
0.301912 0.261534 0.026480 162 162 162
0.300203 0.263677 0.026402 163 163 163
0.298609 0.265883 0.026349 163 163 163
0.297027 0.268096 0.026299 164 164 164
0.295559 0.270371 0.026274 164 164 164
0.294206 0.272707 0.026273 165 165 165
0.292852 0.275042 0.026272 165 165 165
0.291498 0.277378 0.026271 165 165 165
0.290171 0.279727 0.026276 165 165 165
0.288924 0.282119 0.026298 165 165 165
0.287749 0.284549 0.026336 165 165 165
0.286484 0.286930 0.026354 165 165 165
0.285219 0.289312 0.026372 165 165 165
0.283879 0.291654 0.026374 164 164 164
0.282507 0.293980 0.026369 163 163 163
0.281136 0.296306 0.026364 163 163 163
0.279809 0.298655 0.026369 162 162 162
0.278564 0.301046 0.026392 161 161 161
0.277006 0.303275 0.026347 161 161 161
0.275475 0.305520 0.026308 161 161 161
0.273944 0.307764 0.026270 161 161 161
0.272413 0.310009 0.026231 161 161 161
0.270923 0.312276 0.026201 160 160 160
0.269387 0.314519 0.026161 159 159 159
0.267850 0.316763 0.026122 159 159 159
0.266314 0.319007 0.026082 158 158 158
0.264826 0.321276 0.026053 157 157 157
0.263510 0.323632 0.026060 158 158 158
0.262182 0.325982 0.026065 157 157 157
0.260853 0.328331 0.026069 157 157 157
0.259521 0.330680 0.026073 156 156 156
0.258213 0.333039 0.026082 155 155 155
0.257058 0.335475 0.026124 155 155 155
0.255903 0.337910 0.026165 154 154 154
0.254748 0.340345 0.026206 153 153 153
0.253593 0.342779 0.026247 153 153 153
0.252541 0.345263 0.026310 152 152 152
0.251518 0.347761 0.026379 151 151 151
0.250496 0.350258 0.026448 150 150 150
0.249474 0.352755 0.026517 150 150 150
0.248303 0.355178 0.026555 149 149 149
0.247042 0.357557 0.026573 148 148 148
0.245781 0.359936 0.026592 147 147 147
0.244520 0.362315 0.026610 146 146 146
0.243220 0.364674 0.026620 146 146 146
0.241478 0.366821 0.026538 146 146 146
0.239663 0.368935 0.026440 146 146 146
0.237851 0.371051 0.026343 146 146 146
0.236156 0.373223 0.026270 144 144 144
0.234393 0.375365 0.026184 145 145 145
0.232327 0.377363 0.026034 148 148 148
0.230222 0.379346 0.025876 149 149 149
0.227975 0.381263 0.025688 151 151 151
0.226091 0.383353 0.025577 152 152 152
0.224240 0.385460 0.025473 152 152 152
0.222067 0.387418 0.025301 153 153 153
0.219893 0.389377 0.025130 153 153 153
0.218166 0.391546 0.025052 153 153 153
0.216505 0.393747 0.024987 153 153 153
0.214700 0.395882 0.024893 154 154 154
0.212625 0.397893 0.024743 155 155 155
0.210343 0.399811 0.024550 155 155 155
0.207963 0.401687 0.024336 155 155 155
0.205454 0.403506 0.024097 155 155 155
0.202890 0.405303 0.023845 155 155 155
0.199754 0.406842 0.023476 154 154 154
0.196543 0.408352 0.023091 154 154 154
0.193280 0.409843 0.022696 153 153 153
0.189883 0.411278 0.022274 152 152 152
0.186339 0.412653 0.021821 151 151 151
0.182728 0.414002 0.021356 150 150 150
0.178922 0.415270 0.020850 148 148 148
0.175045 0.416512 0.020330 148 148 148
0.171172 0.417762 0.019812 147 147 147
0.167358 0.419045 0.019307 146 146 146
0.163610 0.420362 0.018815 147 147 147
0.159821 0.421668 0.018316 145 145 145
0.155998 0.422965 0.017811 143 143 143
0.152032 0.424204 0.017276 140 140 140
0.148237 0.425525 0.016777 139 139 139
0.144945 0.427072 0.016383 138 138 138
0.141664 0.428627 0.015991 139 139 139
0.138094 0.430062 0.015540 138 138 138
0.134455 0.431473 0.015075 138 138 138
0.130791 0.432879 0.014606 138 138 138
0.127064 0.434263 0.014125 138 138 138
0.122727 0.435390 0.013519 138 138 138
0.118060 0.436384 0.012845 138 138 138
0.113587 0.437468 0.012213 138 138 138
0.108969 0.438499 0.011551 138 138 138
0.102985 0.438957 0.010610 138 138 138
0.096108 0.439049 0.009488 138 138 138
0.087860 0.438576 0.008087 138 138 138
0.074992 0.436175 0.005743 138 138 138
0.060396 0.433078 0.003048 138 138 138
0.049383 0.431511 0.001088 138 138 138
0.040776 0.430970 -0.000379 138 138 138
0.029514 0.429343 -0.002385 138 138 138
0.016764 0.427122 -0.004693 138 138 138
0.004872 0.425283 -0.006824 138 138 138
-0.006887 0.423525 -0.008924 138 138 138
-0.026878 0.418407 -0.012698 138 138 138
-0.038912 0.416594 -0.014849 138 138 138
-0.048671 0.415737 -0.016536 138 138 138
-0.060162 0.414193 -0.018572 138 138 138
-0.132021 0.388147 -0.032863 138 138 138
-0.146348 0.385574 -0.035464 138 138 138
0.242212 -0.349530 -0.044486 135 135 135
0.248013 -0.341112 -0.042723 180 180 180
0.336714 -0.267796 -0.021053 175 175 175
0.342430 -0.259630 -0.019328 171 171 171
0.346588 -0.252703 -0.017979 168 168 168
0.349874 -0.246473 -0.016841 166 166 166
0.352782 -0.240552 -0.015795 166 166 166
0.356469 -0.234042 -0.014563 166 166 166
0.360186 -0.227525 -0.013326 166 166 166
0.363689 -0.221190 -0.012142 167 167 167
0.367501 -0.214634 -0.010886 168 168 168
0.371027 -0.208314 -0.009699 168 168 168
0.374881 -0.201759 -0.008436 168 168 168
0.378421 -0.195462 -0.007249 168 168 168
0.383834 -0.187750 -0.005617 169 169 169
0.391032 -0.178701 -0.003563 172 172 172
0.397797 -0.170009 -0.001614 172 172 172
0.404412 -0.161458 0.000296 172 172 172
0.409982 -0.153723 0.001956 169 169 169
0.413944 -0.147225 0.003232 168 168 168
0.416834 -0.141553 0.004251 166 166 166
0.418673 -0.136686 0.005020 165 165 165
0.420202 -0.132062 0.005714 164 164 164
0.421437 -0.127667 0.006338 163 163 163
0.422693 -0.123265 0.006966 163 163 163
0.423412 -0.119271 0.007467 162 162 162
0.423644 -0.115647 0.007851 162 162 162
0.423853 -0.112046 0.008229 162 162 162
0.423979 -0.108511 0.008588 162 162 162
0.424015 -0.105047 0.008924 162 162 162
0.424021 -0.101610 0.009254 162 162 162
0.424024 -0.098180 0.009582 161 161 161
0.424096 -0.094703 0.009926 161 161 161
0.424267 -0.091158 0.010292 161 161 161
0.424472 -0.087594 0.010666 162 162 162
0.424647 -0.084057 0.011033 161 161 161
0.424931 -0.080444 0.011425 161 161 161
0.425272 -0.076796 0.011830 161 161 161
0.425561 -0.073191 0.012222 161 161 161
0.425977 -0.069500 0.012643 162 162 162
0.426349 -0.065845 0.013054 162 162 162
0.426560 -0.062312 0.013426 162 162 162
0.426794 -0.058768 0.013803 162 162 162
0.427029 -0.055228 0.014180 163 163 163
0.427228 -0.051718 0.014548 163 163 163
0.427413 -0.048224 0.014912 162 162 162
0.427680 -0.044677 0.015295 162 162 162
0.427848 -0.041204 0.015654 162 162 162
0.427892 -0.037824 0.015984 162 162 162
0.427936 -0.034449 0.016314 162 162 162
0.427863 -0.031161 0.016616 162 162 162
0.427454 -0.028113 0.016839 162 162 162
0.427046 -0.025068 0.017062 162 162 162
0.426781 -0.021926 0.017319 163 163 163
0.426417 -0.018856 0.017551 163 163 163
0.425952 -0.015860 0.017761 163 163 163
0.425621 -0.012773 0.018000 163 163 163
0.425289 -0.009690 0.018240 163 163 163
0.424790 -0.006726 0.018441 163 163 163
0.424241 -0.003800 0.018629 163 163 163
0.423691 -0.000877 0.018817 163 163 163
0.423154 0.002053 0.019008 164 164 164
0.422618 0.004981 0.019199 162 162 162
0.422042 0.007879 0.019381 162 162 162
0.421490 0.010791 0.019567 162 162 162
0.420879 0.013661 0.019740 162 162 162
0.420296 0.016546 0.019919 162 162 162
0.419748 0.019454 0.020107 162 162 162
0.419201 0.022360 0.020293 161 161 161
0.418730 0.025314 0.020498 161 161 161
0.418316 0.028305 0.020715 161 161 161
0.417903 0.031293 0.020932 161 161 161
0.417535 0.034310 0.021159 161 161 161
0.417329 0.037431 0.021423 161 161 161
0.417189 0.040593 0.021702 161 161 161
0.417056 0.043757 0.021982 160 160 160
0.416981 0.046955 0.022275 160 160 160
0.417079 0.050265 0.022607 160 160 160
0.417176 0.053570 0.022939 160 160 160
0.417274 0.056870 0.023270 159 159 159
0.417301 0.060120 0.023585 159 159 159
0.417325 0.063364 0.023898 159 159 159
0.417219 0.066518 0.024182 158 158 158
0.417070 0.069640 0.024455 158 158 158
0.416899 0.072744 0.024724 158 158 158
0.416698 0.075825 0.024984 157 157 157
0.416474 0.078888 0.025240 157 157 157
0.416239 0.081940 0.025492 157 157 157
0.415978 0.084972 0.025739 156 156 156
0.415699 0.087989 0.025981 156 156 156
0.415311 0.090933 0.026198 155 155 155
0.414483 0.093590 0.026314 155 155 155
0.413656 0.096246 0.026431 155 155 155
0.412762 0.098858 0.026533 154 154 154
0.411825 0.101441 0.026625 154 154 154
0.410467 0.103755 0.026621 154 154 154
0.409102 0.106063 0.026616 154 154 154
0.407729 0.108366 0.026608 153 153 153
0.406355 0.110669 0.026601 153 153 153
0.404935 0.112943 0.026583 153 153 153
0.403384 0.115135 0.026536 153 153 153
0.401823 0.117321 0.026487 153 153 153
0.400220 0.119481 0.026428 153 153 153
0.398614 0.121640 0.026368 152 152 152
0.396824 0.123684 0.026267 152 152 152
0.394973 0.125692 0.026153 152 152 152
0.393120 0.127700 0.026038 152 152 152
0.391267 0.129710 0.025924 152 152 152
0.389413 0.131720 0.025809 152 152 152
0.387725 0.133834 0.025732 152 152 152
0.386154 0.136022 0.025681 152 152 152
0.384582 0.138209 0.025630 152 152 152
0.383009 0.140398 0.025579 152 152 152
0.381437 0.142586 0.025528 152 152 152
0.379924 0.144812 0.025490 152 152 152
0.378310 0.146977 0.025430 152 152 152
0.376696 0.149142 0.025369 152 152 152
0.375159 0.151355 0.025327 153 153 153
0.373603 0.153557 0.025280 154 154 154
0.372191 0.155846 0.025265 155 155 155
0.370783 0.158138 0.025251 155 155 155
0.369392 0.160441 0.025240 156 156 156
0.368277 0.162909 0.025292 156 156 156
0.367138 0.165362 0.025337 156 156 156
0.365969 0.167796 0.025377 157 157 157
0.364795 0.170228 0.025415 157 157 157
0.363569 0.172627 0.025441 157 157 157
0.362433 0.175080 0.025487 157 157 157
0.361370 0.177576 0.025550 157 157 157
0.360270 0.180048 0.025604 156 156 156
0.359100 0.182479 0.025643 156 156 156
0.357931 0.184910 0.025681 156 156 156
0.356806 0.187367 0.025730 156 156 156
0.355705 0.189836 0.025784 156 156 156
0.354603 0.192305 0.025837 157 157 157
0.353413 0.194721 0.025871 157 157 157
0.352098 0.197064 0.025877 156 156 156
0.350705 0.199363 0.025866 156 156 156
0.349328 0.201671 0.025859 155 155 155
0.347953 0.203980 0.025852 154 154 154
0.346577 0.206288 0.025845 154 154 154
0.345209 0.208601 0.025839 153 153 153
0.343844 0.210917 0.025835 153 153 153
0.342372 0.213170 0.025807 150 150 150
0.340810 0.215374 0.025759 149 149 149
0.339241 0.217573 0.025709 148 148 148
0.337662 0.219768 0.025658 148 148 148
0.336075 0.221959 0.025604 148 148 148
0.334488 0.224150 0.025551 148 148 148
0.332872 0.226326 0.025492 148 148 148
0.331216 0.228481 0.025423 148 148 148
0.329407 0.230550 0.025322 148 148 148
0.327510 0.232572 0.025201 150 150 150
0.325612 0.234594 0.025080 150 150 150
0.323904 0.236724 0.025001 151 151 151
0.322181 0.238846 0.024919 152 152 152
0.320292 0.240878 0.024801 152 152 152
0.318576 0.243006 0.024720 153 153 153
0.316860 0.245136 0.024640 153 153 153
0.315152 0.247270 0.024561 155 155 155
0.313345 0.249352 0.024461 157 157 157
0.311482 0.251404 0.024349 158 158 158
0.309617 0.253457 0.024236 160 160 160
0.307753 0.255511 0.024124 161 161 161
0.305855 0.257548 0.024005 161 161 161
0.303923 0.259569 0.023878 162 162 162
0.302307 0.261762 0.023820 163 163 163
0.300735 0.263978 0.023772 163 163 163
0.299161 0.266195 0.023723 164 164 164
0.297588 0.268413 0.023675 165 165 165
0.296074 0.270662 0.023639 165 165 165
0.294633 0.272951 0.023620 165 165 165
0.293191 0.275240 0.023600 166 166 166
0.291749 0.277529 0.023580 166 166 166
0.290462 0.279900 0.023593 166 166 166
0.289249 0.282310 0.023623 166 166 166
0.287985 0.284692 0.023641 166 166 166
0.286720 0.287075 0.023660 165 165 165
0.285455 0.289456 0.023678 165 165 165
0.284156 0.291820 0.023689 164 164 164
0.282785 0.294146 0.023684 164 164 164
0.281413 0.296472 0.023679 163 163 163
0.280042 0.298798 0.023674 163 163 163
0.278633 0.301105 0.023662 162 162 162
0.277052 0.303323 0.023612 162 162 162
0.275465 0.305539 0.023561 162 162 162
0.273934 0.307784 0.023522 161 161 161
0.272402 0.310029 0.023483 161 161 161
0.270880 0.312280 0.023447 161 161 161
0.269356 0.314530 0.023409 160 160 160
0.267820 0.316774 0.023370 160 160 160
0.266286 0.319020 0.023330 160 160 160
0.264711 0.321246 0.023283 159 159 159
0.263211 0.323510 0.023251 159 159 159
0.261831 0.325835 0.023244 158 158 158
0.260502 0.328185 0.023249 158 158 158
0.259173 0.330535 0.023253 157 157 157
0.257787 0.332857 0.023246 156 156 156
0.256604 0.335280 0.023282 155 155 155
0.255453 0.337718 0.023324 155 155 155
0.254314 0.340162 0.023369 154 154 154
0.253047 0.342542 0.023387 153 153 153
0.251785 0.344924 0.023406 151 151 151
0.250599 0.347343 0.023440 151 151 151
