ply
format ascii 1.0
element vertex 1218
property float x
property float y
property float z
property uchar red
property uchar green
property uchar blue
end_header
0.405727 0.014237 0.215798 186 186 186
0.404517 0.018618 0.216146 185 185 185
0.403593 0.023657 0.216573 184 184 184
0.402664 0.028663 0.216996 184 184 184
0.401836 0.033886 0.217445 183 183 183
0.400867 0.038757 0.217853 183 183 183
0.399454 0.042577 0.218138 183 183 183
0.398175 0.046693 0.218458 183 183 183
0.396994 0.051022 0.218803 182 182 182
0.395899 0.055534 0.219170 182 182 182
0.394891 0.060228 0.219560 182 182 182
0.394028 0.065235 0.219987 181 181 181
0.393122 0.070127 0.220400 181 181 181
0.391613 0.073621 0.220649 180 180 180
0.390003 0.076874 0.220869 180 180 180
0.388435 0.080212 0.221099 180 180 180
0.386777 0.083336 0.221304 180 180 180
0.385060 0.086317 0.221492 180 180 180
0.383414 0.089449 0.221699 180 180 180
0.381786 0.092613 0.221910 180 180 180
0.380135 0.095716 0.222113 179 179 179
0.378487 0.098816 0.222317 179 179 179
0.376890 0.102019 0.222533 179 179 179
0.375282 0.105190 0.222745 178 178 178
0.373652 0.108301 0.222950 177 177 177
0.371869 0.111065 0.223115 176 176 176
0.370056 0.113755 0.223270 176 176 176
0.368262 0.116480 0.223430 175 175 175
0.366495 0.119257 0.223596 175 175 175
0.364729 0.122031 0.223763 175 175 175
0.362982 0.124837 0.223933 175 175 175
0.361254 0.127675 0.224107 175 175 175
0.359508 0.130469 0.224276 175 175 175
0.357802 0.133340 0.224455 175 175 175
0.356345 0.136740 0.224697 175 175 175
0.354797 0.139935 0.224915 175 175 175
0.353249 0.143119 0.225132 175 175 175
0.351688 0.146267 0.225344 175 175 175
0.350144 0.149439 0.225560 176 176 176
0.348601 0.152607 0.225776 176 176 176
0.347023 0.155690 0.225982 175 175 175
0.345400 0.158669 0.226175 175 175 175
0.343775 0.161634 0.226367 175 175 175
0.342152 0.164596 0.226559 175 175 175
0.340516 0.167522 0.226746 175 175 175
0.338827 0.170328 0.226919 175 175 175
0.337153 0.173158 0.227096 175 175 175
0.335427 0.175875 0.227259 175 175 175
0.333670 0.178518 0.227413 175 175 175
0.331946 0.181223 0.227575 175 175 175
0.330326 0.184136 0.227762 175 175 175
0.328588 0.186798 0.227919 175 175 175
0.326816 0.189383 0.228067 176 176 176
0.325046 0.191965 0.228215 176 176 176
0.323265 0.194519 0.228359 176 176 176
0.321453 0.197003 0.228495 175 175 175
0.319763 0.199730 0.228661 176 176 176
0.318036 0.202376 0.228817 176 176 176
0.316312 0.205019 0.228973 176 176 176
0.314550 0.207580 0.229120 176 176 176
0.312712 0.209983 0.229247 176 176 176
0.311003 0.212639 0.229405 175 175 175
0.309331 0.215361 0.229571 175 175 175
0.307649 0.218057 0.229734 175 175 175
0.305921 0.220656 0.229886 175 175 175
0.304153 0.223166 0.230027 175 175 175
0.302450 0.225802 0.230183 174 174 174
0.300875 0.228683 0.230370 174 174 174
0.299316 0.231589 0.230560 174 174 174
0.297734 0.234441 0.230744 174 174 174
0.296143 0.237267 0.230924 174 174 174
0.294540 0.240063 0.231101 173 173 173
0.292927 0.242832 0.231275 173 173 173
0.291227 0.245426 0.231428 172 172 172
0.289461 0.247883 0.231564 172 172 172
0.287558 0.250070 0.231667 171 171 171
0.285657 0.252257 0.231770 171 171 171
0.283740 0.254407 0.231869 171 171 171
0.281811 0.256532 0.231965 171 171 171
0.279789 0.258473 0.232038 170 170 170
0.277721 0.260324 0.232100 170 170 170
0.275616 0.262103 0.232154 170 170 170
0.273496 0.263851 0.232203 170 170 170
0.271377 0.265598 0.232253 170 170 170
0.269206 0.267244 0.232290 171 171 171
0.266905 0.268642 0.232296 171 171 171
0.264603 0.270040 0.232303 172 172 172
0.262324 0.271479 0.232315 172 172 172
0.260178 0.273169 0.232357 174 174 174
0.257999 0.274794 0.232392 175 175 175
0.255867 0.276506 0.232438 177 177 177
0.254027 0.278761 0.232551 177 177 177
0.252233 0.281095 0.232674 178 178 178
0.250526 0.283587 0.232816 179 179 179
0.248821 0.286077 0.232959 181 181 181
0.247291 0.288884 0.233141 182 182 182
0.245732 0.291628 0.233315 181 181 181
0.244208 0.294433 0.233498 181 181 181
0.242741 0.297333 0.233692 181 181 181
0.241142 0.299986 0.233856 181 181 181
0.239526 0.302599 0.234015 181 181 181
0.237866 0.305127 0.234164 181 181 181
0.236211 0.307660 0.234313 181 181 181
0.234520 0.310119 0.234453 180 180 180
0.232757 0.312445 0.234577 180 180 180
0.230996 0.314770 0.234701 179 179 179
0.229237 0.317092 0.234825 178 178 178
0.227247 0.318998 0.234896 177 177 177
0.225226 0.320844 0.234961 176 176 176
0.223206 0.322690 0.235025 176 176 176
0.221188 0.324536 0.235090 175 175 175
0.219117 0.326286 0.235142 174 174 174
0.216807 0.327611 0.235141 172 172 172
0.214461 0.328873 0.235132 170 170 170
0.212131 0.330163 0.235127 169 169 169
0.209733 0.331334 0.235107 168 168 168
0.207184 0.332242 0.235054 168 168 168
0.204634 0.333150 0.235000 167 167 167
0.202090 0.334069 0.234948 166 166 166
0.199592 0.335070 0.234906 166 166 166
0.197143 0.336159 0.234876 166 166 166
0.194756 0.337357 0.234859 167 167 167
0.192369 0.338555 0.234841 167 167 167
0.189982 0.339753 0.234824 167 167 167
0.187599 0.340958 0.234808 168 168 168
0.185314 0.342333 0.234814 168 168 168
0.183140 0.343898 0.234843 169 169 169
0.181183 0.345831 0.234919 170 170 170
0.179434 0.348116 0.235040 170 170 170
0.177667 0.350367 0.235156 171 171 171
0.175872 0.352566 0.235266 171 171 171
0.174160 0.354900 0.235394 172 172 172
0.172873 0.357949 0.235612 172 172 172
0.171552 0.360931 0.235822 172 172 172
0.170173 0.363808 0.236019 172 172 172
0.168800 0.366688 0.236217 171 171 171
0.167364 0.369454 0.236400 170 170 170
0.165914 0.372191 0.236580 169 169 169
0.164465 0.374924 0.236760 168 168 168
0.162870 0.377407 0.236908 167 167 167
0.161278 0.379891 0.237056 165 165 165
0.159586 0.382203 0.237182 165 165 165
0.157835 0.384413 0.237296 163 163 163
0.155895 0.386307 0.237369 162 162 162
0.153637 0.387680 0.237375 161 161 161
0.151380 0.389051 0.237382 160 160 160
0.149137 0.390446 0.237391 159 159 159
0.146909 0.391866 0.237404 158 158 158
0.144622 0.393188 0.237404 157 157 157
0.142024 0.394005 0.237340 155 155 155
0.139278 0.394586 0.237244 152 152 152
0.136237 0.394694 0.237088 150 150 150
0.133231 0.394865 0.236940 148 148 148
0.130085 0.394814 0.236763 147 147 147
0.126877 0.394672 0.236575 146 146 146
0.123666 0.394530 0.236386 145 145 145
0.120462 0.394406 0.236199 146 146 146
0.117141 0.394104 0.235989 148 148 148
0.113583 0.393431 0.235730 150 150 150
0.110486 0.393498 0.235567 154 154 154
0.107580 0.393875 0.235444 156 156 156
0.104348 0.393739 0.235255 159 159 159
0.101692 0.394518 0.235183 160 160 160
0.098878 0.395051 0.235080 161 161 161
0.096155 0.395732 0.234996 162 162 162
0.093704 0.396840 0.234966 162 162 162
0.091272 0.397979 0.234941 164 164 164
0.088857 0.399144 0.234920 167 167 167
0.086553 0.400483 0.234920 168 168 168
0.084190 0.401732 0.234910 167 167 167
0.081779 0.402906 0.234889 168 168 168
0.079290 0.403960 0.234853 167 167 167
0.076727 0.404902 0.234802 165 165 165
0.074087 0.405726 0.234735 163 163 163
0.071440 0.406543 0.234668 161 161 161
0.068792 0.407360 0.234601 159 159 159
0.065845 0.407724 0.234474 156 156 156
0.062670 0.407744 0.234302 152 152 152
0.059252 0.407402 0.234083 148 148 148
0.055984 0.407294 0.233894 146 146 146
0.052500 0.406865 0.233663 142 142 142
0.048874 0.406230 0.233405 138 138 138
0.045146 0.405452 0.233127 138 138 138
0.041340 0.404564 0.232835 138 138 138
0.037534 0.403687 0.232544 138 138 138
0.033732 0.402826 0.232255 138 138 138
0.029933 0.401978 0.231967 138 138 138
0.026161 0.401181 0.231685 138 138 138
0.021969 0.399769 0.231322 138 138 138
0.016861 0.397011 0.230782 138 138 138
0.009638 0.391143 0.229832 138 138 138
0.003706 0.387212 0.229135 138 138 138
-0.003085 0.382039 0.228274 138 138 138
-0.009316 0.377718 0.227524 138 138 138
-0.014216 0.375374 0.227034 138 138 138
-0.019025 0.373179 0.226564 138 138 138
-0.023369 0.371678 0.226184 138 138 138
-0.027472 0.370540 0.225852 138 138 138
-0.031735 0.369182 0.225491 138 138 138
-0.035892 0.367989 0.225150 138 138 138
-0.039637 0.367404 0.224890 138 138 138
-0.043606 0.366503 0.224588 139 139 139
-0.047520 0.365691 0.224297 144 144 144
-0.051443 0.364878 0.224006 149 149 149
-0.055175 0.364346 0.223751 153 153 153
-0.058744 0.364058 0.223529 155 155 155
-0.062318 0.363768 0.223306 156 156 156
-0.065276 0.364364 0.223201 156 156 156
-0.068061 0.365210 0.223129 155 155 155
-0.070817 0.366098 0.223062 153 153 153
-0.073529 0.367052 0.223004 151 151 151
-0.076140 0.368150 0.222965 148 148 148
-0.078752 0.369248 0.222927 146 146 146
-0.081269 0.370480 0.222906 144 144 144
-0.083631 0.371931 0.222914 140 140 140
-0.085993 0.373383 0.222922 140 140 140
-0.088354 0.374834 0.222930 144 144 144
-0.090947 0.375963 0.222896 149 149 149
-0.093827 0.376693 0.222807 153 153 153
-0.096671 0.377475 0.222726 157 157 157
-0.099406 0.378411 0.222665 161 161 161
-0.102157 0.379327 0.222601 163 163 163
-0.104947 0.380191 0.222531 164 164 164
-0.108354 0.380207 0.222346 161 161 161
-0.111637 0.380402 0.222185 157 157 157
-0.115176 0.380248 0.221977 153 153 153
-0.118873 0.379886 0.221740 150 150 150
-0.122575 0.379524 0.221504 146 146 146
-0.126373 0.379040 0.221250 145 145 145
-0.130180 0.378551 0.220996 144 144 144
-0.133987 0.378069 0.220742 142 142 142
-0.137918 0.377429 0.220467 140 140 140
-0.142052 0.376522 0.220155 139 139 139
-0.146195 0.375613 0.219842 138 138 138
-0.151291 0.373432 0.219357 138 138 138
-0.156889 0.370592 0.218782 138 138 138
-0.164048 0.365679 0.217926 138 138 138
-0.172134 0.359554 0.216904 141 141 141
-0.178896 0.355226 0.216124 149 149 149
-0.184862 0.351983 0.215491 156 156 156
-0.190537 0.349146 0.214912 156 156 156
-0.196902 0.345412 0.214211 153 153 153
-0.202966 0.342098 0.213566 155 155 155
-0.208213 0.339881 0.213069 157 157 157
-0.213249 0.337959 0.212612 158 158 158
-0.217918 0.336533 0.212221 158 158 158
-0.222573 0.335137 0.211835 158 158 158
-0.227351 0.333592 0.211427 159 159 159
-0.232661 0.331365 0.210926 160 160 160
-0.238436 0.328546 0.210343 159 159 159
-0.245612 0.323924 0.209513 155 155 155
-0.253298 0.318666 0.208596 158 158 158
-0.263401 0.310305 0.207252 156 156 156
-0.272109 0.303787 0.206158 152 152 152
-0.282873 0.294651 0.204705 152 152 152
-0.299819 0.277603 0.202164 138 138 138
-0.319981 0.256501 0.199064 138 138 138
-0.328224 0.250769 0.198071 138 138 138
-0.336567 0.244941 0.197063 138 138 138
0.394931 -0.117415 0.199761 195 195 195
0.405755 -0.083032 0.203644 195 195 195
0.407700 -0.070582 0.204941 190 190 190
0.407359 -0.063781 0.205573 190 190 190
0.407682 -0.055390 0.206392 191 191 191
0.408956 -0.044732 0.207481 193 193 193
0.411025 -0.032202 0.208793 193 193 193
0.412118 -0.022090 0.209820 189 189 189
0.412384 -0.014020 0.210606 187 187 187
0.411787 -0.008060 0.211143 186 186 186
0.411116 -0.002299 0.211656 186 186 186
0.410197 0.002842 0.212097 185 185 185
0.409210 0.007802 0.212517 185 185 185
0.408042 0.012310 0.212883 185 185 185
0.406835 0.016710 0.213237 184 184 184
0.405636 0.021113 0.213592 185 185 185
0.404692 0.026099 0.214016 184 184 184
0.403662 0.030863 0.214414 184 184 184
0.402834 0.036078 0.214867 183 183 183
0.401710 0.040585 0.215236 183 183 183
0.400298 0.044401 0.215523 183 183 183
0.398887 0.048210 0.215809 182 182 182
0.397734 0.052601 0.216165 182 182 182
0.396793 0.057464 0.216578 183 183 183
0.395697 0.061949 0.216946 182 182 182
0.394818 0.066920 0.217373 181 181 181
0.393878 0.071727 0.217780 181 181 181
0.392357 0.075192 0.218027 181 181 181
0.390761 0.078473 0.218253 180 180 180
0.389265 0.081973 0.218505 180 180 180
0.387585 0.085043 0.218706 180 180 180
0.385920 0.088138 0.218910 180 180 180
0.384292 0.091307 0.219123 180 180 180
0.382649 0.094433 0.219331 180 180 180
0.380967 0.097462 0.219527 179 179 179
0.379308 0.100535 0.219730 179 179 179
0.377663 0.103627 0.219934 179 179 179
0.376011 0.106697 0.220137 178 178 178
0.374277 0.109574 0.220316 177 177 177
0.372523 0.112401 0.220489 177 177 177
0.370699 0.115065 0.220643 176 176 176
0.368834 0.117630 0.220786 176 176 176
0.366999 0.120259 0.220936 175 175 175
0.365235 0.123032 0.221103 175 175 175
0.363491 0.125843 0.221276 175 175 175
0.361751 0.128655 0.221448 175 175 175
0.360057 0.131559 0.221633 176 176 176
0.358383 0.134498 0.221821 176 176 176
0.356904 0.137849 0.222060 176 176 176
0.355366 0.141064 0.222282 176 176 176
0.353818 0.144246 0.222501 176 176 176
0.352257 0.147391 0.222715 176 176 176
0.350696 0.150526 0.222929 176 176 176
0.349166 0.153719 0.223150 176 176 176
0.347533 0.156683 0.223343 176 176 176
0.345868 0.159572 0.223527 176 176 176
0.344243 0.162537 0.223721 176 176 176
0.342620 0.165497 0.223914 176 176 176
0.341020 0.168496 0.224112 175 175 175
0.339333 0.171306 0.224288 175 175 175
0.337646 0.174107 0.224463 175 175 175
0.335954 0.176892 0.224635 175 175 175
0.334230 0.179603 0.224799 175 175 175
0.332588 0.182477 0.224983 175 175 175
0.330975 0.185402 0.225174 175 175 175
0.329232 0.188049 0.225331 175 175 175
0.327460 0.190633 0.225480 175 175 175
0.325690 0.193214 0.225629 176 176 176
0.323910 0.195768 0.225775 175 175 175
0.322135 0.198326 0.225921 175 175 175
0.320435 0.201030 0.226086 175 175 175
0.318724 0.203705 0.226247 175 175 175
0.317000 0.206347 0.226405 175 175 175
0.315203 0.208834 0.226543 175 175 175
0.313370 0.211245 0.226672 175 175 175
0.311661 0.213899 0.226832 175 175 175
0.309955 0.216551 0.226991 174 174 174
0.308189 0.219078 0.227135 174 174 174
0.306419 0.221590 0.227278 174 174 174
0.304651 0.224100 0.227420 174 174 174
0.302911 0.226661 0.227569 173 173 173
0.301331 0.229530 0.227756 173 173 173
0.299772 0.232435 0.227947 173 173 173
0.298216 0.235336 0.228139 173 173 173
0.296640 0.238192 0.228325 172 172 172
0.295028 0.240969 0.228501 173 173 173
0.293332 0.243574 0.228657 172 172 172
0.291632 0.246166 0.228811 172 172 172
0.289889 0.248667 0.228953 171 171 171
0.287986 0.250855 0.229058 171 171 171
0.286086 0.253040 0.229162 170 170 170
0.284186 0.255224 0.229265 170 170 170
0.282292 0.257415 0.229370 170 170 170
0.280286 0.259386 0.229448 170 170 170
0.278217 0.261234 0.229510 170 170 170
0.276144 0.263072 0.229572 170 170 170
0.274059 0.264885 0.229630 171 171 171
0.271941 0.266632 0.229680 170 170 170
0.269774 0.268284 0.229718 171 171 171
0.267473 0.269681 0.229725 170 170 170
0.265246 0.271218 0.229749 172 172 172
0.263109 0.272924 0.229794 173 173 173
0.261065 0.274802 0.229861 174 174 174
0.258854 0.276365 0.229888 176 176 176
0.256812 0.278242 0.229955 178 178 178
0.255070 0.280674 0.230091 179 179 179
0.253330 0.283106 0.230228 180 180 180
0.251591 0.285534 0.230364 180 180 180
0.249976 0.288186 0.230528 181 181 181
0.248387 0.290879 0.230698 181 181 181
0.246828 0.293621 0.230874 181 181 181
0.245293 0.296400 0.231055 181 181 181
0.243821 0.299289 0.231250 181 181 181
0.242220 0.301934 0.231414 181 181 181
0.240616 0.304566 0.231577 181 181 181
0.239014 0.307195 0.231740 181 181 181
0.237312 0.309638 0.231880 180 180 180
0.235529 0.311929 0.232000 180 180 180
0.233748 0.314218 0.232121 179 179 179
0.231975 0.316517 0.232243 178 178 178
0.230182 0.318775 0.232359 178 178 178
0.228162 0.320623 0.232425 177 177 177
0.226189 0.322552 0.232500 177 177 177
0.224217 0.324480 0.232576 175 175 175
0.222078 0.326109 0.232613 173 173 173
0.219935 0.327729 0.232650 173 173 173
0.217572 0.328957 0.232637 172 172 172
0.215113 0.330018 0.232602 171 171 171
0.212768 0.331279 0.232594 170 170 170
0.210364 0.332438 0.232572 169 169 169
0.207816 0.333346 0.232518 168 168 168
0.205269 0.334257 0.232464 167 167 167
0.202723 0.335170 0.232411 167 167 167
0.200178 0.336090 0.232359 167 167 167
0.197727 0.337172 0.232327 167 167 167
0.195340 0.338369 0.232310 168 168 168
0.192952 0.339563 0.232292 168 168 168
0.190545 0.340725 0.232270 168 168 168
0.188214 0.342019 0.232265 168 168 168
0.185953 0.343433 0.232275 169 169 169
0.183734 0.344919 0.232295 170 170 170
0.181766 0.346833 0.232369 171 171 171
0.180017 0.349117 0.232491 171 171 171
0.178270 0.351399 0.232613 171 171 171
0.176524 0.353679 0.232734 172 172 172
0.174785 0.355967 0.232857 173 173 173
0.173427 0.358892 0.233062 173 173 173
0.172046 0.361772 0.233261 172 172 172
0.170667 0.364649 0.233460 172 172 172
0.169243 0.367442 0.233648 170 170 170
0.167800 0.370196 0.233832 170 170 170
0.166349 0.372931 0.234013 169 169 169
0.164732 0.375384 0.234158 168 168 168
0.163099 0.377802 0.234299 167 167 167
0.161533 0.380329 0.234454 165 165 165
0.159789 0.382555 0.234571 164 164 164
0.157939 0.384602 0.234664 163 163 163
0.156090 0.386648 0.234758 162 162 162
0.153885 0.388105 0.234776 161 161 161
0.151628 0.389477 0.234782 160 160 160
0.149370 0.390849 0.234789 159 159 159
0.147113 0.392221 0.234795 171 171 171
0.144826 0.393543 0.234795 156 156 156
0.142243 0.394384 0.234733 154 154 154
0.139499 0.394969 0.234638 151 151 151
0.136477 0.395108 0.234484 150 150 150
0.133422 0.395199 0.234324 148 148 148
0.130352 0.395270 0.234162 145 145 145
0.127149 0.395135 0.233972 144 144 144
0.123952 0.395017 0.233784 146 146 146
0.120756 0.394905 0.233597 148 148 148
0.117632 0.394916 0.233426 150 150 150
0.114142 0.394350 0.233179 152 152 152
0.111075 0.394465 0.233021 155 155 155
0.108171 0.394842 0.232897 158 158 158
0.105314 0.395298 0.232783 160 160 160
0.102640 0.396046 0.232707 160 160 160
0.099827 0.396579 0.232602 161 161 161
0.097071 0.397203 0.232510 163 163 163
0.094621 0.398311 0.232481 162 162 162
0.092171 0.399419 0.232451 163 163 163
0.089732 0.400546 0.232425 165 165 165
0.087322 0.401718 0.232404 166 166 166
0.084913 0.402892 0.232383 167 167 167
0.082503 0.404067 0.232362 167 167 167
0.080016 0.405122 0.232326 166 166 166
0.077455 0.406064 0.232274 165 165 165
0.074892 0.407006 0.232223 163 163 163
0.072259 0.407842 0.232158 161 161 161
0.069344 0.408249 0.232036 159 159 159
0.066230 0.408357 0.231874 156 156 156
0.062941 0.408203 0.231678 153 153 153
0.059594 0.407968 0.231471 148 148 148
0.056115 0.407539 0.231238 142 142 142
0.052640 0.407126 0.231007 138 138 138
0.048871 0.406276 0.230717 138 138 138
0.045173 0.405543 0.230443 138 138 138
0.041474 0.404816 0.230170 138 138 138
0.037767 0.404087 0.229895 138 138 138
0.033991 0.403265 0.229608 138 138 138
0.030258 0.402516 0.229331 138 138 138
0.026608 0.401901 0.229071 138 138 138
0.022360 0.400404 0.228693 138 138 138
0.016873 0.397085 0.228073 138 138 138
0.008789 0.389943 0.226944 138 138 138
-0.000212 0.381486 0.225639 138 138 138
-0.006399 0.377217 0.224890 138 138 138
-0.011236 0.374956 0.224407 138 138 138
-0.015882 0.372991 0.223963 138 138 138
-0.019943 0.371896 0.223634 138 138 138
-0.024056 0.370737 0.223296 138 138 138
-0.028162 0.369598 0.222961 138 138 138
-0.032396 0.368285 0.222602 138 138 138
-0.036291 0.367474 0.222309 138 138 138
-0.039815 0.367211 0.222090 138 138 138
-0.043291 0.367023 0.221880 144 144 144
-0.047137 0.366310 0.221600 149 149 149
-0.051009 0.365569 0.221315 153 153 153
-0.054923 0.364776 0.221023 157 157 157
-0.058414 0.364598 0.220814 159 159 159
-0.061330 0.365248 0.220715 158 158 158
-0.064249 0.365898 0.220616 157 157 157
-0.067167 0.366551 0.220517 156 156 156
-0.069923 0.367438 0.220450 153 153 153
-0.072611 0.368423 0.220396 151 151 151
-0.075215 0.369530 0.220358 148 148 148
-0.077534 0.371039 0.220374 143 143 143
-0.079733 0.372716 0.220413 139 139 139
-0.082328 0.373836 0.220377 139 139 139
-0.084830 0.375087 0.220358 140 140 140
-0.087190 0.376537 0.220367 144 144 144
-0.089932 0.377454 0.220303 148 148 148
-0.092670 0.378380 0.220241 153 153 153
-0.095632 0.378997 0.220136 157 157 157
-0.098640 0.379551 0.220023 160 160 160
-0.101390 0.380467 0.219959 162 162 162
-0.104173 0.381340 0.219889 163 163 163
-0.107579 0.381357 0.219702 161 161 161
-0.110989 0.381374 0.219516 156 156 156
-0.114611 0.381106 0.219290 152 152 152
-0.118306 0.380746 0.219052 149 149 149
-0.122007 0.380385 0.218813 145 145 145
-0.125747 0.379977 0.218568 141 141 141
-0.129553 0.379489 0.218311 139 139 139
-0.133444 0.378892 0.218040 138 138 138
-0.137510 0.378068 0.217736 138 138 138
-0.141669 0.377127 0.217417 138 138 138
-0.145821 0.376205 0.217100 138 138 138
-0.150327 0.374818 0.216719 138 138 138
-0.156226 0.371572 0.216083 138 138 138
-0.162451 0.367909 0.215389 138 138 138
-0.169030 0.363795 0.214633 138 138 138
-0.176375 0.358682 0.213739 144 144 144
-0.182728 0.354917 0.213028 151 151 151
-0.188316 0.352190 0.212459 155 155 155
-0.194425 0.348790 0.211797 154 154 154
-0.200797 0.345063 0.211089 153 153 153
-0.206291 0.342515 0.210543 155 155 155
-0.211302 0.340622 0.210085 157 157 157
-0.216284 0.338779 0.209634 157 157 157
-0.220846 0.337501 0.209260 157 157 157
-0.225569 0.336024 0.208859 155 155 155
-0.230501 0.334287 0.208420 155 155 155
-0.235730 0.332175 0.207930 155 155 155
-0.241891 0.328866 0.207274 153 153 153
-0.249632 0.323528 0.206336 152 152 152
-0.257835 0.317617 0.205319 155 155 155
-0.266898 0.310627 0.204151 155 155 155
-0.274816 0.305149 0.203190 151 151 151
-0.286901 0.294337 0.201490 155 155 155
-0.319521 0.257202 0.196140 138 138 138
-0.327239 0.252144 0.195231 138 138 138
-0.336094 0.245659 0.194123 138 138 138
0.393975 -0.127792 0.195724 143 143 143
0.397304 -0.111748 0.197457 197 197 197
0.407718 -0.078385 0.201256 192 192 192
0.408956 -0.067678 0.202358 190 190 190
0.408774 -0.060494 0.203041 190 190 190
0.409164 -0.051949 0.203887 191 191 191
0.411019 -0.039889 0.205153 193 193 193
0.413031 -0.027508 0.206460 190 190 190
0.413670 -0.018504 0.207364 188 188 188
0.413423 -0.011678 0.208009 187 187 187
0.412774 -0.005847 0.208535 186 186 186
0.412182 0.000097 0.209076 185 185 185
0.411385 0.005525 0.209555 185 185 185
0.410332 0.010321 0.209959 184 184 184
0.409079 0.014622 0.210304 184 184 184
0.407825 0.018906 0.210648 184 184 184
0.406784 0.023675 0.211050 184 184 184
0.405662 0.028237 0.211427 184 184 184
0.404665 0.033073 0.211838 183 183 183
0.403799 0.038196 0.212284 183 183 183
0.402552 0.042410 0.212621 183 183 183
0.401141 0.046225 0.212911 182 182 182
0.399742 0.050056 0.213203 183 183 183
0.398676 0.054644 0.213586 183 183 183
0.397565 0.059112 0.213955 183 183 183
0.396501 0.063669 0.214335 182 182 182
0.395592 0.068566 0.214757 182 182 182
0.394624 0.073306 0.215160 181 181 181
0.393100 0.076761 0.215409 181 181 181
0.391591 0.080237 0.215660 181 181 181
0.390113 0.083773 0.215919 180 180 180
0.388437 0.086849 0.216122 180 180 180
0.386797 0.089998 0.216335 180 180 180
0.385168 0.093161 0.216549 180 180 180
0.383511 0.096252 0.216755 180 180 180
0.381830 0.099278 0.216953 180 180 180
0.380150 0.102300 0.217151 179 179 179
0.378473 0.105318 0.217349 179 179 179
0.376778 0.108288 0.217541 178 178 178
0.374996 0.111056 0.217709 177 177 177
0.373214 0.113819 0.217876 177 177 177
0.371344 0.116377 0.218019 177 177 177
0.369469 0.118920 0.218160 176 176 176
0.367613 0.121499 0.218305 175 175 175
0.365772 0.124103 0.218454 175 175 175
0.364030 0.126916 0.218628 175 175 175
0.362335 0.129823 0.218814 176 176 176
0.360633 0.132709 0.218998 176 176 176
0.358963 0.135655 0.219189 176 176 176
0.357462 0.138956 0.219424 176 176 176
0.355926 0.142171 0.219649 176 176 176
0.354387 0.145373 0.219872 176 176 176
0.352826 0.148516 0.220088 176 176 176
0.351344 0.151819 0.220324 177 177 177
0.349825 0.155031 0.220549 177 177 177
0.348179 0.157967 0.220741 176 176 176
0.346495 0.160811 0.220921 176 176 176
0.344812 0.163651 0.221102 176 176 176
0.343119 0.166463 0.221279 176 176 176
0.341487 0.169394 0.221471 176 176 176
0.339842 0.172290 0.221658 175 175 175
0.338190 0.175163 0.221844 175 175 175
0.336515 0.177983 0.222022 175 175 175
0.334852 0.180817 0.222203 175 175 175
0.333237 0.183744 0.222395 175 175 175
0.331624 0.186666 0.222588 175 175 175
0.329874 0.189300 0.222744 175 175 175
0.328103 0.191882 0.222895 175 175 175
0.326322 0.194439 0.223042 175 175 175
0.324508 0.196920 0.223180 175 175 175
0.322727 0.199464 0.223327 175 175 175
0.320996 0.202103 0.223485 173 173 173
0.319293 0.204793 0.223649 173 173 173
0.317627 0.207551 0.223823 174 174 174
0.315855 0.210087 0.223969 175 175 175
0.314027 0.212506 0.224100 174 174 174
0.312256 0.215032 0.224245 174 174 174
0.310397 0.217375 0.224368 173 173 173
0.308627 0.219893 0.224512 173 173 173
0.306909 0.222507 0.224669 173 173 173
0.305149 0.225033 0.224814 173 173 173
0.303383 0.227540 0.224958 173 173 173
0.301787 0.230377 0.225143 172 172 172
0.300228 0.233280 0.225336 172 172 172
0.298626 0.236090 0.225518 171 171 171
0.297014 0.238874 0.225696 171 171 171
0.295395 0.241638 0.225873 172 172 172
0.293711 0.244265 0.226033 171 171 171
0.292028 0.246889 0.226192 171 171 171
0.290316 0.249451 0.226344 170 170 170
0.288423 0.251654 0.226451 170 170 170
0.286536 0.253867 0.226559 169 169 169
0.284622 0.256022 0.226661 168 168 168
0.282688 0.258134 0.226757 169 169 169
0.280698 0.260135 0.226839 170 170 170
0.278649 0.262020 0.226906 170 170 170
0.276600 0.263903 0.226974 170 170 170
0.274553 0.265786 0.227042 170 170 170
0.272499 0.267655 0.227108 170 170 170
0.270342 0.269323 0.227148 172 172 172
0.268166 0.270956 0.227185 172 172 172
0.266030 0.272662 0.227230 173 173 173
0.263894 0.274367 0.227276 173 173 173
0.261890 0.276318 0.227352 175 175 175
0.259743 0.277997 0.227395 177 177 177
0.257814 0.280083 0.227489 178 178 178
0.256049 0.282468 0.227620 179 179 179
0.254300 0.284880 0.227756 180 180 180
0.252722 0.287603 0.227930 180 180 180
0.251117 0.290270 0.228098 180 180 180
0.249515 0.292935 0.228266 181 181 181
0.247922 0.295611 0.228436 181 181 181
0.246376 0.298366 0.228615 181 181 181
0.244899 0.301241 0.228810 181 181 181
0.243297 0.303879 0.228976 181 181 181
0.241695 0.306512 0.229140 181 181 181
0.240107 0.309163 0.229308 180 180 180
0.238353 0.311507 0.229436 180 180 180
0.236570 0.313793 0.229557 179 179 179
0.234788 0.316078 0.229679 178 178 178
0.233016 0.318376 0.229802 178 178 178
0.231172 0.320539 0.229908 177 177 177
0.229214 0.322495 0.229987 176 176 176
0.227209 0.324364 0.230056 175 175 175
0.225067 0.325984 0.230093 174 174 174
0.222924 0.327603 0.230130 173 173 173
0.220782 0.329222 0.230166 173 173 173
0.218354 0.330334 0.230138 172 172 172
0.215895 0.331390 0.230103 171 171 171
0.213434 0.332446 0.230068 170 170 170
0.210995 0.333542 0.230038 169 169 169
0.208451 0.334454 0.229984 168 168 168
0.205906 0.335367 0.229931 168 168 168
0.203362 0.336282 0.229877 168 168 168
0.200817 0.337199 0.229824 168 168 168
0.198276 0.338124 0.229772 168 168 168
0.195870 0.339286 0.229750 168 168 168
0.193463 0.340447 0.229728 169 169 169
0.191190 0.341839 0.229735 169 169 169
0.188932 0.343256 0.229746 170 170 170
0.186674 0.344673 0.229757 170 170 170
0.184408 0.346077 0.229767 171 171 171
0.182305 0.347759 0.229812 172 172 172
0.180537 0.350008 0.229930 172 172 172
0.178769 0.352254 0.230048 173 173 173
0.177056 0.354590 0.230178 173 173 173
0.175468 0.357131 0.230335 173 173 173
0.173920 0.359735 0.230500 173 173 173
0.172540 0.362614 0.230701 173 173 173
0.171161 0.365490 0.230901 173 173 173
0.169686 0.368196 0.231080 170 170 170
0.168235 0.370937 0.231264 170 170 170
0.166668 0.373477 0.231422 169 169 169
0.164986 0.375820 0.231554 168 168 168
0.163307 0.378163 0.231687 166 166 166
0.161715 0.380646 0.231837 165 165 165
0.159932 0.382808 0.231947 163 163 163
0.158048 0.384800 0.232034 163 163 163
0.156194 0.386837 0.232127 162 162 162
0.154132 0.388531 0.232176 160 160 160
0.151875 0.389903 0.232182 159 159 159
0.149618 0.391275 0.232189 157 157 157
0.147294 0.392537 0.232181 155 155 155
0.144936 0.393744 0.232167 155 155 155
0.142403 0.394669 0.232115 153 153 153
0.139716 0.395345 0.232030 150 150 150
0.136737 0.395553 0.231884 149 149 149
0.133673 0.395630 0.231721 147 147 147
0.130601 0.395698 0.231557 145 145 145
0.127438 0.395628 0.231374 146 146 146
0.124246 0.395515 0.231185 147 147 147
0.121050 0.395404 0.230996 149 149 149
0.117920 0.395404 0.230822 151 151 151
0.114700 0.395269 0.230629 153 153 153
0.111664 0.395431 0.230476 157 157 157
0.108818 0.395899 0.230363 159 159 159
0.105988 0.396396 0.230253 161 161 161
0.103435 0.397333 0.230201 161 161 161
0.100776 0.398105 0.230128 161 161 161
0.097985 0.398673 0.230027 162 162 162
0.095537 0.399781 0.229997 163 163 163
0.093076 0.400869 0.229965 163 163 163
0.090535 0.401834 0.229917 164 164 164
0.088066 0.402913 0.229883 165 165 165
0.085636 0.404052 0.229858 166 166 166
0.083227 0.405226 0.229837 167 167 167
0.080742 0.406283 0.229801 166 166 166
0.078181 0.407225 0.229749 164 164 164
0.075602 0.408140 0.229693 163 163 163
0.072731 0.408609 0.229579 161 161 161
0.069765 0.408938 0.229445 158 158 158
0.066684 0.409095 0.229289 156 156 156
0.063368 0.408900 0.229085 153 153 153
0.060048 0.408704 0.228882 152 152 152
0.056452 0.408097 0.228623 142 142 142
0.052781 0.407387 0.228350 138 138 138
0.049089 0.406654 0.228073 138 138 138
0.045394 0.405925 0.227797 138 138 138
0.041694 0.405198 0.227521 138 138 138
0.037987 0.404469 0.227244 138 138 138
0.034335 0.403832 0.226979 138 138 138
0.030753 0.403308 0.226729 138 138 138
0.027056 0.402622 0.226457 138 138 138
0.022751 0.401040 0.226065 138 138 138
0.016886 0.397159 0.225364 147 147 147
0.001774 0.379623 0.222830 138 138 138
-0.003457 0.376755 0.222262 138 138 138
-0.008301 0.374474 0.221772 138 138 138
-0.012832 0.372669 0.221346 138 138 138
-0.016554 0.372064 0.221080 138 138 138
-0.020392 0.371300 0.220793 138 138 138
-0.024623 0.369970 0.220429 138 138 138
-0.028853 0.368654 0.220066 138 138 138
-0.032949 0.367543 0.219731 138 138 138
-0.036380 0.367409 0.219527 138 138 138
-0.039767 0.367345 0.219332 140 140 140
-0.043158 0.367280 0.219137 147 147 147
-0.046889 0.366734 0.218876 152 152 152
-0.050742 0.366019 0.218593 156 156 156
-0.054420 0.365565 0.218344 160 160 160
-0.057487 0.365994 0.218215 161 161 161
-0.060333 0.366742 0.218128 160 160 160
-0.063223 0.367430 0.218034 159 159 159
-0.066142 0.368080 0.217934 157 157 157
-0.069029 0.368778 0.217840 154 154 154
-0.071657 0.369847 0.217797 152 152 152
-0.073879 0.371490 0.217832 146 146 146
-0.076077 0.373166 0.217871 140 140 140
-0.078274 0.374842 0.217910 138 138 138
-0.080718 0.376170 0.217902 139 139 139
-0.083351 0.377234 0.217858 141 141 141
-0.085974 0.378314 0.217816 143 143 143
-0.088465 0.379578 0.217800 147 147 147
-0.091495 0.380094 0.217681 151 151 151
-0.094547 0.380581 0.217558 156 156 156
-0.097602 0.381069 0.217435 160 160 160
-0.100624 0.381606 0.217318 162 162 162
-0.103399 0.382489 0.217249 163 163 163
-0.106803 0.382506 0.217061 160 160 160
-0.110113 0.382659 0.216891 156 156 156
-0.113784 0.382323 0.216654 150 150 150
-0.117576 0.381828 0.216395 147 147 147
-0.121375 0.381332 0.216136 143 143 143
-0.125143 0.380885 0.215883 138 138 138
-0.129020 0.380299 0.215610 138 138 138
-0.133056 0.379504 0.215309 138 138 138
-0.137101 0.378708 0.215007 138 138 138
-0.141230 0.377807 0.214690 138 138 138
-0.145398 0.376865 0.214367 138 138 138
-0.149723 0.375720 0.214015 138 138 138
-0.155764 0.372282 0.213347 138 138 138
-0.161109 0.369798 0.212810 138 138 138
-0.167728 0.365627 0.212039 138 138 138
-0.174313 0.361525 0.211276 139 139 139
-0.180995 0.357317 0.210498 147 147 147
-0.186460 0.354750 0.209946 152 152 152
-0.191935 0.352185 0.209394 155 155 155
-0.198241 0.348539 0.208691 153 153 153
-0.204501 0.344976 0.207998 152 152 152
-0.209577 0.342992 0.207524 154 154 154
-0.214467 0.341265 0.207085 156 156 156
-0.219322 0.339599 0.206654 156 156 156
-0.224140 0.337995 0.206231 153 153 153
-0.228897 0.336483 0.205820 152 152 152
-0.233935 0.334616 0.205360 151 151 151
-0.239007 0.332720 0.204894 150 150 150
-0.247387 0.326544 0.203831 144 144 144
-0.254507 0.322032 0.203000 153 153 153
-0.262430 0.316508 0.202025 153 153 153
-0.270366 0.310995 0.201052 152 152 152
-0.276762 0.307493 0.200357 152 152 152
-0.317380 0.260062 0.193519 138 138 138
-0.325921 0.253944 0.192453 138 138 138
-0.335362 0.246708 0.191229 138 138 138
0.395898 -0.123222 0.193284 194 194 194
0.401742 -0.100992 0.195777 200 200 200
0.409610 -0.073911 0.198856 190 190 190
0.410225 -0.064743 0.199783 189 189 189
0.409956 -0.057777 0.200446 189 189 189
0.410512 -0.048835 0.201348 191 191 191
0.413046 -0.035131 0.202825 193 193 193
0.414710 -0.023605 0.204041 188 188 188
0.414735 -0.016096 0.204773 187 187 187
0.414367 -0.009565 0.205388 186 186 186
0.413941 -0.003203 0.205984 185 185 185
0.413246 0.002489 0.206499 184 184 184
0.412456 0.007928 0.206984 184 184 184
0.411323 0.012528 0.207368 184 184 184
0.410072 0.016828 0.207717 184 184 184
0.408828 0.021131 0.208066 184 184 184
0.407766 0.025846 0.208465 184 184 184
0.406631 0.030371 0.208842 183 183 183
0.405673 0.035294 0.209268 183 183 183
0.404696 0.040153 0.209686 183 183 183
0.403401 0.044252 0.210012 183 183 183
0.401999 0.048085 0.210306 183 183 183
0.400600 0.051912 0.210600 183 183 183
0.399499 0.056415 0.210977 183 183 183
0.398337 0.060759 0.211335 183 183 183
0.397291 0.065356 0.211723 182 182 182
0.396366 0.070211 0.212144 182 182 182
0.395368 0.074881 0.212543 182 182 182
0.393937 0.078545 0.212819 181 181 181
0.392475 0.082124 0.213085 181 181 181
0.390954 0.085560 0.213334 181 181 181
0.389313 0.088710 0.213549 181 181 181
0.387674 0.091856 0.213763 180 180 180
0.386044 0.095014 0.213979 180 180 180
0.384373 0.098069 0.214182 180 180 180
0.382692 0.101092 0.214382 180 180 180
0.380965 0.104005 0.214569 179 179 179
0.379261 0.106960 0.214761 178 178 178
0.377509 0.109799 0.214939 178 178 178
0.375722 0.112554 0.215106 177 177 177
0.373879 0.115179 0.215258 177 177 177
0.371983 0.117678 0.215395 177 177 177
0.370110 0.120223 0.215538 176 176 176
0.368235 0.122758 0.215679 176 176 176
0.366362 0.125289 0.215820 176 176 176
0.364614 0.128087 0.215994 176 176 176
0.362911 0.130975 0.216180 176 176 176
0.361209 0.133859 0.216365 176 176 176
0.359543 0.136811 0.216559 176 176 176
0.358020 0.140064 0.216790 176 176 176
0.356484 0.143277 0.217016 176 176 176
0.355001 0.146595 0.217256 177 177 177
0.353524 0.149917 0.217497 177 177 177
0.352016 0.153161 0.217728 177 177 177
0.350483 0.156342 0.217951 178 178 178
0.348826 0.159250 0.218141 176 176 176
0.347141 0.162092 0.218323 176 176 176
0.345446 0.164903 0.218502 176 176 176
0.343661 0.167519 0.218656 176 176 176
0.342104 0.170607 0.218869 176 176 176
0.340468 0.173521 0.219061 176 176 176
0.338782 0.176320 0.219239 176 176 176
0.337117 0.179156 0.219421 175 175 175
0.335500 0.182085 0.219615 175 175 175
0.333885 0.185010 0.219809 175 175 175
0.332267 0.187920 0.220002 175 175 175
0.330517 0.190550 0.220159 175 175 175
0.328728 0.193094 0.220307 175 175 175
0.326911 0.195575 0.220446 175 175 175
0.325097 0.198055 0.220586 175 175 175
0.323318 0.200601 0.220733 173 173 173
0.321587 0.203238 0.220893 173 173 173
0.319858 0.205874 0.221052 172 172 172
0.318152 0.208549 0.221217 172 172 172
0.316391 0.211104 0.221367 172 172 172
0.314534 0.213462 0.221492 173 173 173
0.312676 0.215813 0.221616 173 173 173
0.310817 0.218157 0.221740 172 172 172
0.309032 0.220644 0.221882 172 172 172
0.307314 0.223257 0.222040 172 172 172
0.305597 0.225867 0.222197 171 171 171
0.303880 0.228471 0.222354 171 171 171
0.302231 0.231202 0.222528 171 171 171
0.300615 0.233991 0.222708 171 171 171
0.299001 0.236778 0.222889 171 171 171
0.297390 0.239561 0.223069 171 171 171
0.295762 0.242306 0.223245 171 171 171
0.294078 0.244933 0.223406 171 171 171
0.292395 0.247557 0.223567 170 170 170
0.290677 0.250106 0.223719 169 169 169
0.288861 0.252459 0.223846 168 168 168
0.286953 0.254628 0.223950 168 168 168
0.285018 0.256741 0.224047 169 169 169
0.283083 0.258852 0.224143 169 169 169
0.281110 0.260885 0.224230 169 169 169
0.279061 0.262769 0.224299 169 169 169
0.277013 0.264652 0.224367 169 169 169
0.274966 0.266534 0.224435 168 168 168
0.272942 0.268458 0.224509 171 171 171
0.270982 0.270500 0.224597 172 172 172
0.268948 0.272400 0.224668 173 173 173
0.266813 0.274105 0.224714 173 173 173
0.264678 0.275809 0.224760 174 174 174
0.262664 0.277737 0.224834 175 175 175
0.260631 0.279629 0.224904 177 177 177
0.258826 0.281942 0.225028 178 178 178
0.257054 0.284312 0.225159 179 179 179
0.255282 0.286677 0.225290 180 180 180
0.253709 0.289405 0.225467 180 180 180
0.252149 0.292152 0.225647 180 180 180
0.250604 0.294919 0.225829 180 180 180
0.249032 0.297629 0.226005 181 181 181
0.247458 0.300329 0.226179 181 181 181
0.245976 0.303191 0.226375 181 181 181
0.244381 0.305837 0.226543 181 181 181
0.242791 0.308488 0.226711 180 180 180
0.241176 0.311087 0.226874 179 179 179
0.239392 0.313373 0.226996 179 179 179
0.237620 0.315675 0.227120 178 178 178
0.235856 0.317990 0.227247 178 178 178
0.234095 0.320303 0.227373 178 178 178
0.232190 0.322353 0.227465 176 176 176
0.230158 0.324173 0.227528 175 175 175
0.228072 0.325893 0.227578 175 175 175
0.225911 0.327477 0.227611 174 174 174
0.223769 0.329096 0.227648 173 173 173
0.221594 0.330654 0.227678 172 172 172
0.219136 0.331709 0.227642 171 171 171
0.216678 0.332765 0.227607 170 170 170
0.214242 0.333863 0.227577 170 170 170
0.211714 0.334799 0.227526 169 169 169
0.209120 0.335622 0.227460 169 169 169
0.206554 0.336495 0.227401 169 169 169
0.204010 0.337411 0.227347 168 168 168
0.201466 0.338327 0.227293 168 168 168
0.198924 0.339249 0.227240 169 169 169
0.196422 0.340242 0.227196 170 170 170
0.194165 0.341660 0.227208 170 170 170
0.191907 0.343076 0.227219 170 170 170
0.189649 0.344493 0.227230 171 171 171
0.187392 0.345909 0.227241 171 171 171
0.185132 0.347321 0.227251 172 172 172
0.183053 0.349042 0.227302 173 173 173
0.181113 0.350996 0.227383 174 174 174
0.179371 0.353285 0.227508 174 174 174
0.177769 0.355807 0.227663 173 173 173
0.176178 0.358342 0.227821 173 173 173
0.174543 0.360795 0.227968 173 173 173
0.173033 0.363456 0.228142 173 173 173
0.171654 0.366330 0.228344 173 173 173
0.170123 0.368941 0.228512 170 170 170
0.168605 0.371569 0.228683 169 169 169
0.166937 0.373940 0.228820 168 168 168
0.165241 0.376260 0.228951 167 167 167
0.163501 0.378501 0.229071 165 165 165
0.161896 0.380963 0.229220 164 164 164
0.160077 0.383066 0.229323 163 163 163
0.158194 0.385058 0.229411 162 162 162
0.156311 0.387049 0.229499 161 161 161
0.154379 0.388957 0.229576 160 160 160
0.152096 0.390285 0.229577 158 158 158
0.149762 0.391531 0.229567 155 155 155
0.147427 0.392776 0.229557 154 154 154
0.145013 0.393893 0.229530 153 153 153
0.142481 0.394818 0.229478 152 152 152
0.139933 0.395721 0.229423 150 150 150
0.136997 0.395998 0.229285 148 148 148
0.133918 0.396049 0.229116 146 146 146
0.130809 0.396059 0.228943 147 147 147
0.127685 0.396051 0.228766 147 147 147
0.124539 0.396014 0.228586 149 149 149
0.121344 0.395903 0.228395 150 150 150
0.118207 0.395892 0.228218 152 152 152
0.115153 0.396019 0.228059 153 153 153
0.112325 0.396511 0.227948 157 157 157
0.109487 0.396989 0.227835 160 160 160
0.106661 0.397492 0.227725 162 162 162
0.104110 0.398429 0.227673 162 162 162
0.101557 0.399367 0.227620 161 161 161
0.098913 0.400164 0.227549 162 162 162
0.096410 0.401182 0.227508 163 163 163
0.093856 0.402123 0.227456 163 163 163
0.091327 0.403106 0.227409 164 164 164
0.088859 0.404184 0.227376 165 165 165
0.086391 0.405263 0.227342 166 166 166
0.083950 0.406385 0.227314 166 166 166
0.081467 0.407444 0.227277 166 166 166
0.078850 0.408296 0.227213 164 164 164
0.076150 0.409025 0.227132 163 163 163
0.073253 0.409453 0.227011 161 161 161
0.070186 0.409626 0.226856 158 158 158
0.067138 0.409833 0.226704 155 155 155
0.063823 0.409638 0.226499 153 153 153
0.060319 0.409163 0.226256 145 145 145
0.056788 0.408655 0.226008 142 142 142
0.053147 0.407990 0.225738 138 138 138
0.049327 0.407061 0.225433 138 138 138
0.045614 0.406306 0.225151 138 138 138
0.041915 0.405580 0.224872 138 138 138
0.038315 0.405012 0.224615 138 138 138
0.034807 0.404590 0.224377 138 138 138
0.031248 0.404099 0.224129 138 138 138
0.027504 0.403342 0.223844 138 138 138
0.023186 0.401742 0.223446 138 138 138
0.015249 0.394788 0.222323 138 138 138
-0.000354 0.376532 0.219668 138 138 138
-0.005216 0.374216 0.219169 138 138 138
-0.009644 0.372554 0.218758 138 138 138
-0.013361 0.371951 0.218491 138 138 138
-0.017085 0.371346 0.218222 138 138 138
-0.020841 0.370704 0.217949 138 138 138
-0.025074 0.369373 0.217581 138 138 138
-0.029272 0.368105 0.217222 138 138 138
-0.032747 0.367900 0.217006 138 138 138
-0.036240 0.367676 0.216788 138 138 138
-0.039719 0.367478 0.216573 143 143 143
-0.043111 0.367414 0.216377 150 150 150
-0.046641 0.367157 0.216153 154 154 154
-0.050230 0.366823 0.215919 158 158 158
-0.053411 0.367079 0.215765 161 161 161
-0.056592 0.367342 0.215612 162 162 162
-0.059639 0.367802 0.215485 162 162 162
-0.062486 0.368550 0.215398 160 160 160
-0.065334 0.369299 0.215311 158 158 158
-0.068103 0.370164 0.215239 156 156 156
-0.070220 0.371954 0.215295 150 150 150
-0.072345 0.373730 0.215348 145 145 145
-0.074622 0.375291 0.215372 142 142 142
-0.076818 0.376964 0.215412 139 139 139
-0.079112 0.378501 0.215432 138 138 138
-0.081742 0.379564 0.215388 140 140 140
-0.084213 0.380851 0.215374 143 143 143
-0.087002 0.381695 0.215300 146 146 146
-0.089899 0.382391 0.215205 150 150 150
-0.093090 0.382683 0.215054 154 154 154
-0.096284 0.382975 0.214902 158 158 158
-0.099481 0.383267 0.214751 161 161 161
-0.102626 0.383636 0.214610 162 162 162
-0.105918 0.383806 0.214442 159 159 159
-0.109211 0.383981 0.214274 156 156 156
-0.112853 0.383681 0.214040 150 150 150
-0.116669 0.383152 0.213774 144 144 144
-0.120465 0.382657 0.213512 139 139 139
-0.124500 0.381845 0.213206 138 138 138
-0.128649 0.380888 0.212880 138 138 138
-0.132675 0.380109 0.212578 138 138 138
-0.136713 0.379320 0.212274 138 138 138
-0.140791 0.378488 0.211964 138 138 138
-0.145120 0.377327 0.211607 138 138 138
-0.149729 0.375800 0.211199 138 138 138
-0.155303 0.372992 0.210613 138 138 138
-0.160589 0.370586 0.210081 138 138 138
-0.166469 0.367401 0.209441 138 138 138
-0.172789 0.363651 0.208720 138 138 138
-0.179457 0.359458 0.207937 144 144 144
-0.184547 0.357385 0.207449 148 148 148
-0.189907 0.354968 0.206912 152 152 152
-0.195987 0.351616 0.206244 153 153 153
-0.201976 0.348405 0.205595 152 152 152
-0.207982 0.345190 0.204944 151 151 151
-0.212883 0.343446 0.204499 153 153 153
-0.217853 0.341625 0.204042 153 153 153
-0.222697 0.339983 0.203610 151 151 151
-0.227536 0.338361 0.203180 150 150 150
-0.232328 0.336813 0.202760 149 149 149
-0.237834 0.334348 0.202210 146 146 146
-0.244625 0.330232 0.201428 138 138 138
-0.251997 0.325388 0.200542 138 138 138
-0.260004 0.319748 0.199543 148 148 148
-0.266547 0.316026 0.198812 151 151 151
-0.273729 0.311504 0.197968 152 152 152
-0.279214 0.309185 0.197434 152 152 152
-0.324606 0.255741 0.189679 138 138 138
-0.334393 0.248058 0.188380 138 138 138
0.396175 -0.130588 0.189586 143 143 143
0.398789 -0.116258 0.191143 199 199 199
0.407592 -0.086756 0.194541 201 201 201
0.411256 -0.070042 0.196392 189 189 189
0.411306 -0.062266 0.197158 189 189 189
0.411260 -0.054762 0.197893 189 189 189
0.412173 -0.044956 0.198909 190 190 190
0.414990 -0.030576 0.200481 191 191 191
0.415828 -0.021062 0.201464 187 187 187
0.415797 -0.013691 0.202186 186 186 186
0.415439 -0.007142 0.202810 185 185 185
0.415055 -0.000685 0.203422 184 184 184
0.414316 0.004893 0.203928 184 184 184
0.413536 0.010351 0.204420 183 183 183
0.412301 0.014703 0.204778 183 183 183
0.411059 0.019022 0.205132 184 184 184
0.409872 0.023453 0.205500 184 184 184
0.408731 0.027978 0.205880 183 183 183
0.407591 0.032487 0.206258 183 183 183
0.406614 0.037361 0.206682 183 183 183
0.405613 0.042160 0.207097 183 183 183
0.404263 0.046124 0.207410 184 184 184
0.402862 0.049956 0.207707 184 184 184
0.401577 0.054042 0.208035 184 184 184
0.400426 0.058425 0.208401 184 184 184
0.399295 0.062838 0.208770 183 183 183
0.398328 0.067611 0.209184 183 183 183
0.397434 0.072534 0.209617 183 183 183
0.396388 0.077087 0.210005 181 181 181
0.394910 0.080638 0.210270 181 181 181
0.393434 0.084183 0.210535 181 181 181
0.391867 0.087508 0.210773 181 181 181
0.390220 0.090642 0.210987 181 181 181
0.388560 0.093737 0.211197 180 180 180
0.386910 0.096844 0.211409 180 180 180
0.385212 0.099834 0.211606 180 180 180
0.383476 0.102732 0.211793 179 179 179
0.381743 0.105627 0.211979 179 179 179
0.380022 0.108542 0.212168 178 178 178
0.378230 0.111289 0.212336 178 178 178
0.376429 0.114010 0.212501 177 177 177
0.374512 0.116468 0.212634 177 177 177
0.372621 0.118977 0.212773 176 176 176
0.370739 0.121498 0.212914 177 177 177
0.368893 0.124095 0.213065 177 177 177
0.367028 0.126640 0.213209 176 176 176
0.365245 0.129360 0.213375 177 177 177
0.363493 0.132140 0.213549 177 177 177
0.361785 0.135007 0.213734 176 176 176
0.360117 0.137954 0.213929 177 177 177
0.358595 0.141206 0.214162 177 177 177
0.357149 0.144611 0.214414 177 177 177
0.355705 0.148012 0.214667 177 177 177
0.354209 0.151290 0.214904 177 177 177
0.352674 0.154473 0.215130 177 177 177
0.351141 0.157652 0.215355 178 178 178
0.349471 0.160532 0.215543 176 176 176
0.347773 0.163343 0.215723 176 176 176
0.346013 0.166016 0.215886 177 177 177
0.344341 0.168868 0.216071 177 177 177
0.342813 0.172013 0.216294 176 176 176
0.341135 0.174836 0.216476 176 176 176
0.339449 0.177633 0.216655 176 176 176
0.337780 0.180459 0.216838 175 175 175
0.336158 0.183376 0.217033 175 175 175
0.334539 0.186289 0.217227 175 175 175
0.332906 0.189167 0.217417 175 175 175
0.331134 0.191749 0.217570 174 174 174
0.329316 0.194231 0.217711 174 174 174
0.327500 0.196711 0.217852 174 174 174
0.325686 0.199190 0.217992 174 174 174
0.323909 0.201737 0.218142 172 172 172
0.322178 0.204373 0.218303 172 172 172
0.320449 0.207007 0.218463 172 172 172
0.318660 0.209511 0.218608 171 171 171
0.316774 0.211815 0.218727 170 170 170
0.314907 0.214152 0.218851 170 170 170
0.313061 0.216525 0.218980 170 170 170
0.311217 0.218897 0.219108 171 171 171
0.309403 0.221325 0.219244 171 171 171
0.307649 0.223866 0.219394 170 170 170
0.305897 0.226405 0.219544 169 169 169
0.304189 0.229026 0.219705 170 170 170
0.302538 0.231754 0.219879 170 170 170
0.300991 0.234679 0.220079 170 170 170
0.299377 0.237464 0.220261 170 170 170
0.297765 0.240246 0.220443 170 170 170
0.296129 0.242975 0.220618 170 170 170
0.294445 0.245600 0.220780 170 170 170
0.292727 0.248155 0.220934 168 168 168
0.290961 0.250611 0.221075 168 168 168
0.289149 0.252971 0.221204 168 168 168
0.287283 0.255221 0.221319 168 168 168
0.285413 0.257460 0.221433 168 168 168
0.283479 0.259571 0.221531 169 169 169
0.281522 0.261634 0.221623 169 169 169
0.279473 0.263518 0.221692 169 169 169
0.277428 0.265406 0.221761 170 170 170
0.275459 0.267436 0.221849 171 171 171
0.273504 0.269489 0.221940 171 171 171
0.271556 0.271552 0.222032 173 173 173
0.269547 0.273496 0.222109 173 173 173
0.267538 0.275439 0.222186 173 173 173
0.265462 0.277250 0.222246 174 174 174
0.263436 0.279154 0.222318 175 175 175
0.261596 0.281404 0.222435 177 177 177
0.259826 0.283778 0.222568 178 178 178
0.258053 0.286144 0.222700 178 178 178
0.256282 0.288507 0.222832 179 179 179
0.254683 0.291183 0.223004 180 180 180
0.253115 0.293913 0.223183 180 180 180
0.251574 0.296683 0.223368 180 180 180
0.250035 0.299449 0.223552 180 180 180
0.248490 0.302199 0.223735 180 180 180
0.246922 0.304901 0.223911 180 180 180
0.245377 0.307637 0.224093 180 180 180
0.243834 0.310369 0.224274 179 179 179
0.242242 0.313005 0.224442 179 179 179
0.240469 0.315309 0.224568 178 178 178
0.238699 0.317611 0.224694 178 178 178
0.236933 0.319916 0.224820 177 177 177
0.235163 0.322211 0.224945 177 177 177
0.233078 0.323934 0.224996 176 176 176
0.230992 0.325653 0.225047 175 175 175
0.228906 0.327371 0.225097 175 175 175
0.226815 0.329078 0.225146 174 174 174
0.224633 0.330622 0.225174 173 173 173
0.222379 0.332035 0.225185 172 172 172
0.219968 0.333173 0.225160 171 171 171
0.217522 0.334249 0.225127 170 170 170
0.215048 0.335276 0.225088 170 170 170
0.212528 0.336224 0.225038 169 169 169
0.209903 0.336990 0.224964 169 169 169
0.207305 0.337804 0.224897 169 169 169
0.204726 0.338656 0.224834 169 169 169
0.202146 0.339508 0.224772 168 168 168
0.199654 0.340515 0.224729 169 169 169
0.197245 0.341668 0.224706 170 170 170
