ply
format ascii 1.0
element vertex 1181
property float x
property float y
property float z
property uchar red
property uchar green
property uchar blue
end_header
-0.111379 0.337170 -0.153973 138 138 138
-0.114181 0.336759 -0.154077 138 138 138
-0.116983 0.336369 -0.154176 138 138 138
-0.119792 0.335838 -0.154311 138 138 138
-0.122628 0.334765 -0.154584 138 138 138
-0.125469 0.333605 -0.154879 138 138 138
-0.128306 0.332600 -0.155134 138 138 138
-0.131142 0.331639 -0.155379 138 138 138
-0.133982 0.330666 -0.155626 138 138 138
-0.136828 0.329592 -0.155899 138 138 138
-0.139672 0.328607 -0.156149 138 138 138
-0.142519 0.327607 -0.156403 138 138 138
-0.145381 0.326380 -0.156715 138 138 138
-0.148245 0.325143 -0.157030 138 138 138
-0.151113 0.323904 -0.157345 138 138 138
-0.153983 0.322661 -0.157661 138 138 138
-0.156889 0.320856 -0.158120 138 138 138
-0.159801 0.319007 -0.158589 138 138 138
-0.162715 0.317197 -0.159050 138 138 138
-0.165639 0.315277 -0.159537 138 138 138
-0.168599 0.312866 -0.160150 138 138 138
-0.171568 0.310394 -0.160779 138 138 138
-0.174542 0.307916 -0.161408 138 138 138
-0.177499 0.305772 -0.161953 138 138 138
-0.180437 0.303974 -0.162410 138 138 138
-0.183380 0.302174 -0.162868 138 138 138
-0.186326 0.300371 -0.163326 138 138 138
-0.189253 0.298891 -0.163703 138 138 138
-0.192181 0.297457 -0.164067 138 138 138
-0.195142 0.295589 -0.164542 138 138 138
-0.198125 0.293491 -0.165075 138 138 138
-0.201180 0.290487 -0.165838 138 138 138
-0.204529 0.283681 -0.167568 138 138 138
-0.208270 0.271958 -0.170548 138 138 138
-0.211923 0.261689 -0.173158 138 138 138
-0.215367 0.254341 -0.175026 138 138 138
-0.218639 0.249334 -0.176299 138 138 138
-0.222013 0.243194 -0.177859 138 138 138
-0.225473 0.236179 -0.179642 138 138 138
-0.229500 0.222509 -0.183117 138 138 138
-0.234568 0.196830 -0.189644 138 138 138
-0.238218 0.188411 -0.191784 138 138 138
-0.241596 0.183336 -0.193074 138 138 138
-0.244970 0.178448 -0.194316 138 138 138
-0.248380 0.173254 -0.195637 138 138 138
-0.251798 0.168106 -0.196945 138 138 138
-0.255247 0.162728 -0.198312 138 138 138
-0.258760 0.156776 -0.199825 138 138 138
-0.262784 0.145437 -0.202707 138 138 138
0.312157 0.103481 -0.216487 138 138 138
0.308284 0.111325 -0.214485 138 138 138
0.304525 0.118248 -0.212718 138 138 138
0.300641 0.126499 -0.210611 138 138 138
0.296888 0.133663 -0.208783 138 138 138
0.293087 0.141436 -0.206799 138 138 138
0.289280 0.149433 -0.204757 138 138 138
0.285462 0.157703 -0.202646 138 138 138
0.281678 0.165798 -0.200580 138 138 138
0.277841 0.174613 -0.198330 138 138 138
0.274035 0.183289 -0.196115 138 138 138
0.270167 0.192805 -0.193686 138 138 138
0.265406 0.211850 -0.188825 138 138 138
0.261506 0.222228 -0.186176 138 138 138
0.257647 0.232398 -0.183580 138 138 138
0.253994 0.240582 -0.181491 138 138 138
0.250326 0.249117 -0.179312 138 138 138
0.246833 0.255908 -0.177578 138 138 138
0.243300 0.263321 -0.175686 138 138 138
0.239589 0.272911 -0.173238 138 138 138
0.235849 0.283072 -0.170645 138 138 138
0.232394 0.290171 -0.168833 138 138 138
0.229004 0.296690 -0.167168 139 139 139
0.225781 0.301391 -0.165969 144 144 144
0.222629 0.305356 -0.164956 147 147 147
0.219528 0.308797 -0.164078 148 148 148
0.216500 0.311429 -0.163406 149 149 149
0.213473 0.314119 -0.162720 149 149 149
0.210451 0.316821 -0.162030 147 147 147
0.207434 0.319520 -0.161341 146 146 146
0.204433 0.322100 -0.160682 143 143 143
0.201437 0.324676 -0.160025 142 142 142
0.198409 0.327756 -0.159239 142 142 142
0.195391 0.330779 -0.158467 141 141 141
0.192300 0.334910 -0.157412 139 139 139
0.189205 0.339206 -0.156316 138 138 138
0.186139 0.343220 -0.155291 138 138 138
0.183114 0.346769 -0.154385 138 138 138
0.180054 0.350952 -0.153318 138 138 138
0.176971 0.355587 -0.152135 138 138 138
0.173942 0.359563 -0.151120 138 138 138
0.170940 0.363258 -0.150176 138 138 138
0.168035 0.365559 -0.149589 138 138 138
0.165142 0.367738 -0.149033 138 138 138
0.162255 0.369914 -0.148478 138 138 138
0.159395 0.371702 -0.148021 138 138 138
0.156572 0.372943 -0.147704 138 138 138
0.153774 0.373806 -0.147484 138 138 138
0.150990 0.374469 -0.147315 138 138 138
0.148231 0.374697 -0.147257 138 138 138
0.145506 0.374347 -0.147346 138 138 138
0.142780 0.373976 -0.147441 138 138 138
0.140054 0.373606 -0.147535 138 138 138
0.137339 0.373017 -0.147685 138 138 138
0.134633 0.372230 -0.147886 138 138 138
0.131940 0.371143 -0.148164 138 138 138
0.129245 0.370045 -0.148444 138 138 138
0.126536 0.369199 -0.148660 138 138 138
0.123819 0.368489 -0.148841 138 138 138
0.121079 0.368222 -0.148909 138 138 138
0.118337 0.368013 -0.148963 138 138 138
0.115594 0.367805 -0.149016 138 138 138
0.112851 0.367575 -0.149075 138 138 138
0.110101 0.367506 -0.149092 138 138 138
0.107341 0.367681 -0.149048 138 138 138
0.104574 0.368047 -0.148954 138 138 138
0.101809 0.368378 -0.148870 138 138 138
0.099050 0.368578 -0.148818 138 138 138
0.096277 0.369139 -0.148675 138 138 138
0.093516 0.369429 -0.148601 138 138 138
0.090755 0.369727 -0.148525 138 138 138
0.087992 0.370089 -0.148433 138 138 138
0.085228 0.370512 -0.148325 138 138 138
0.082469 0.370829 -0.148244 138 138 138
0.079721 0.370783 -0.148256 138 138 138
0.076973 0.370736 -0.148268 138 138 138
0.074225 0.370700 -0.148277 138 138 138
0.071477 0.370638 -0.148293 138 138 138
0.068729 0.370558 -0.148313 138 138 138
0.065992 0.370067 -0.148438 138 138 138
0.063251 0.369707 -0.148530 138 138 138
0.060508 0.369400 -0.148609 138 138 138
0.057761 0.369196 -0.148661 138 138 138
0.055019 0.368769 -0.148770 138 138 138
0.052276 0.368341 -0.148879 138 138 138
0.049533 0.367914 -0.148988 138 138 138
0.046788 0.367486 -0.149097 138 138 138
0.044042 0.367067 -0.149204 138 138 138
0.041298 0.366468 -0.149357 138 138 138
0.038553 0.365868 -0.149510 138 138 138
0.035807 0.365236 -0.149672 138 138 138
0.033062 0.364484 -0.149864 138 138 138
0.030315 0.363673 -0.150071 138 138 138
0.027567 0.362861 -0.150278 138 138 138
0.024827 0.361002 -0.150753 138 138 138
0.022080 0.359503 -0.151135 138 138 138
0.019331 0.357840 -0.151560 138 138 138
0.016579 0.356175 -0.151985 138 138 138
0.013823 0.354512 -0.152409 138 138 138
0.011061 0.353390 -0.152696 138 138 138
0.008297 0.352300 -0.152974 138 138 138
0.005530 0.351210 -0.153252 138 138 138
0.002761 0.350118 -0.153531 138 138 138
-0.000010 0.349324 -0.153733 138 138 138
-0.002782 0.349038 -0.153807 138 138 138
-0.005555 0.348751 -0.153880 138 138 138
-0.008328 0.348465 -0.153953 138 138 138
-0.011101 0.348395 -0.153970 138 138 138
-0.013874 0.348440 -0.153959 138 138 138
-0.016646 0.348514 -0.153940 138 138 138
-0.019419 0.348588 -0.153921 138 138 138
-0.022192 0.348466 -0.153953 138 138 138
-0.024974 0.347494 -0.154201 138 138 138
-0.027760 0.346420 -0.154475 138 138 138
-0.030547 0.345345 -0.154749 138 138 138
-0.033336 0.344329 -0.155008 138 138 138
-0.036147 0.341871 -0.155636 138 138 138
-0.038967 0.339101 -0.156343 138 138 138
-0.041794 0.336326 -0.157051 138 138 138
-0.044627 0.333485 -0.157776 138 138 138
-0.047455 0.331330 -0.158327 138 138 138
-0.050278 0.329618 -0.158764 138 138 138
-0.053104 0.327934 -0.159193 138 138 138
-0.055931 0.326382 -0.159590 138 138 138
-0.058752 0.325261 -0.159876 138 138 138
-0.061573 0.324260 -0.160131 138 138 138
-0.064395 0.323258 -0.160387 138 138 138
-0.067209 0.322699 -0.160530 138 138 138
-0.069998 0.323096 -0.160428 138 138 138
-0.072785 0.323558 -0.160310 138 138 138
-0.075570 0.324046 -0.160186 138 138 138
-0.078354 0.324534 -0.160061 138 138 138
-0.081132 0.325212 -0.159888 138 138 138
-0.083894 0.326334 -0.159602 138 138 138
-0.086645 0.327696 -0.159254 138 138 138
-0.089385 0.329334 -0.158836 138 138 138
-0.092121 0.330970 -0.158419 138 138 138
-0.094855 0.332556 -0.158014 138 138 138
-0.097603 0.333688 -0.157725 138 138 138
-0.100349 0.334820 -0.157436 138 138 138
-0.103095 0.335860 -0.157170 138 138 138
-0.105876 0.336007 -0.157133 138 138 138
-0.108660 0.336032 -0.157126 138 138 138
-0.111465 0.335600 -0.157237 138 138 138
-0.114268 0.335210 -0.157336 138 138 138
-0.117072 0.334821 -0.157436 138 138 138
-0.119877 0.334432 -0.157535 138 138 138
-0.122708 0.333482 -0.157777 138 138 138
-0.125548 0.332410 -0.158051 138 138 138
-0.128385 0.331429 -0.158301 138 138 138
-0.131234 0.330243 -0.158604 138 138 138
-0.134089 0.328993 -0.158923 138 138 138
-0.136946 0.327764 -0.159237 138 138 138
-0.139806 0.326535 -0.159551 138 138 138
-0.142643 0.325754 -0.159750 138 138 138
-0.145494 0.324778 -0.159999 138 138 138
-0.148359 0.323561 -0.160310 138 138 138
-0.151233 0.322244 -0.160646 138 138 138
-0.154096 0.321161 -0.160922 138 138 138
-0.156989 0.319615 -0.161317 138 138 138
-0.159903 0.317778 -0.161786 138 138 138
-0.162817 0.315986 -0.162243 138 138 138
-0.165738 0.314154 -0.162711 138 138 138
-0.168700 0.311737 -0.163328 138 138 138
-0.171671 0.309252 -0.163962 138 138 138
-0.174653 0.306682 -0.164618 138 138 138
-0.177597 0.304757 -0.165110 138 138 138
-0.180537 0.302955 -0.165570 138 138 138
-0.183480 0.301172 -0.166025 138 138 138
-0.186432 0.299310 -0.166500 138 138 138
-0.189375 0.297628 -0.166929 138 138 138
-0.192322 0.295948 -0.167358 138 138 138
-0.195322 0.293586 -0.167961 138 138 138
-0.198374 0.290577 -0.168729 138 138 138
-0.201724 0.283671 -0.170492 138 138 138
-0.205516 0.271132 -0.173693 138 138 138
-0.209184 0.260538 -0.176397 138 138 138
-0.212666 0.252627 -0.178416 138 138 138
-0.215992 0.246896 -0.179879 138 138 138
-0.219339 0.241062 -0.181369 138 138 138
-0.222762 0.234438 -0.183059 138 138 138
-0.226445 0.224814 -0.185516 138 138 138
-0.231543 0.198420 -0.192253 138 138 138
-0.235190 0.189923 -0.194422 138 138 138
-0.238715 0.183061 -0.196174 138 138 138
-0.242084 0.178173 -0.197421 138 138 138
-0.245411 0.173880 -0.198517 138 138 138
-0.248751 0.169553 -0.199622 138 138 138
-0.252180 0.164326 -0.200956 138 138 138
-0.255629 0.159001 -0.202315 138 138 138
-0.259301 0.151354 -0.204267 138 138 138
0.308906 0.106033 -0.218950 138 138 138
0.305109 0.113254 -0.217099 138 138 138
0.301324 0.120508 -0.215239 138 138 138
0.297433 0.128932 -0.213080 138 138 138
0.293731 0.135690 -0.211347 138 138 138
0.289898 0.143873 -0.209250 138 138 138
0.286139 0.151490 -0.207297 138 138 138
0.282404 0.159030 -0.205365 138 138 138
0.278609 0.167337 -0.203235 138 138 138
0.274767 0.176305 -0.200936 138 138 138
0.270919 0.185526 -0.198572 138 138 138
0.266766 0.198130 -0.195342 138 138 138
0.262423 0.213027 -0.191523 138 138 138
0.258722 0.221401 -0.189376 138 138 138
0.254912 0.231152 -0.186877 138 138 138
0.251048 0.241700 -0.184173 138 138 138
0.247333 0.250860 -0.181825 138 138 138
0.243737 0.258910 -0.179761 138 138 138
0.240119 0.267392 -0.177587 138 138 138
0.236314 0.278221 -0.174811 138 138 138
0.232735 0.286692 -0.172640 138 138 138
0.229301 0.293673 -0.170850 140 140 140
0.225916 0.300251 -0.169164 146 146 146
0.222766 0.304172 -0.168159 147 147 147
0.219585 0.308569 -0.167031 149 149 149
0.216553 0.311235 -0.166348 150 150 150
0.213521 0.313983 -0.165644 148 148 148
0.210496 0.316703 -0.164946 146 146 146
0.207486 0.319320 -0.164275 145 145 145
0.204484 0.321896 -0.163615 144 144 144
0.201487 0.324472 -0.162955 142 142 142
0.198483 0.327227 -0.162249 141 141 141
0.195479 0.330048 -0.161525 141 141 141
0.192446 0.333354 -0.160678 139 139 139
0.189395 0.337005 -0.159742 138 138 138
0.186318 0.341148 -0.158680 138 138 138
0.183294 0.344648 -0.157783 138 138 138
0.180247 0.348578 -0.156776 138 138 138
0.177135 0.353602 -0.155488 138 138 138
0.174099 0.357657 -0.154448 138 138 138
0.171141 0.360623 -0.153688 138 138 138
0.168172 0.363873 -0.152855 138 138 138
0.165261 0.366308 -0.152231 138 138 138
0.162365 0.368596 -0.151644 138 138 138
0.159486 0.370660 -0.151115 138 138 138
0.156638 0.372302 -0.150694 138 138 138
0.153852 0.372942 -0.150530 138 138 138
0.151091 0.373169 -0.150472 138 138 138
0.148331 0.373397 -0.150413 138 138 138
0.145588 0.373330 -0.150430 138 138 138
0.142865 0.372882 -0.150546 138 138 138
0.140138 0.372496 -0.150644 138 138 138
0.137421 0.371918 -0.150792 138 138 138
0.134712 0.371135 -0.150993 138 138 138
0.132019 0.370031 -0.151276 138 138 138
0.129306 0.369270 -0.151471 138 138 138
0.126593 0.368479 -0.151674 138 138 138
0.123881 0.367622 -0.151894 138 138 138
0.121136 0.367449 -0.151938 138 138 138
0.118394 0.367211 -0.151999 138 138 138
0.115651 0.366973 -0.152060 138 138 138
0.112907 0.366746 -0.152118 138 138 138
0.110149 0.366832 -0.152096 138 138 138
0.107380 0.367195 -0.152003 138 138 138
0.104613 0.367526 -0.151918 138 138 138
0.101847 0.367858 -0.151833 138 138 138
0.099086 0.368060 -0.151781 138 138 138
0.096321 0.368406 -0.151693 138 138 138
0.093558 0.368704 -0.151616 138 138 138
0.090792 0.369115 -0.151511 138 138 138
0.088023 0.369633 -0.151378 138 138 138
0.085255 0.370151 -0.151246 138 138 138
0.082492 0.370548 -0.151144 138 138 138
0.079742 0.370533 -0.151148 138 138 138
0.076994 0.370487 -0.151159 138 138 138
0.074243 0.370488 -0.151159 138 138 138
0.071491 0.370558 -0.151141 138 138 138
0.068746 0.370370 -0.151190 138 138 138
0.066004 0.370065 -0.151268 138 138 138
0.063261 0.369739 -0.151351 138 138 138
0.060518 0.369413 -0.151435 138 138 138
0.057774 0.369053 -0.151527 138 138 138
0.055032 0.368635 -0.151634 138 138 138
0.052288 0.368217 -0.151741 138 138 138
0.049543 0.367799 -0.151848 138 138 138
0.046801 0.367191 -0.152004 138 138 138
0.044057 0.366623 -0.152150 138 138 138
0.041312 0.366055 -0.152296 138 138 138
0.038566 0.365487 -0.152441 138 138 138
0.035826 0.364369 -0.152728 138 138 138
0.033080 0.363488 -0.152954 138 138 138
0.030332 0.362676 -0.153162 138 138 138
0.027593 0.360803 -0.153642 138 138 138
0.024851 0.358881 -0.154135 138 138 138
0.022104 0.357119 -0.154586 138 138 138
0.019352 0.355405 -0.155026 138 138 138
0.016597 0.353688 -0.155466 138 138 138
0.013838 0.352002 -0.155898 138 138 138
0.011073 0.350866 -0.156189 138 138 138
0.008306 0.349900 -0.156437 138 138 138
0.005536 0.348934 -0.156684 138 138 138
0.002764 0.348113 -0.156895 138 138 138
-0.000010 0.347444 -0.157066 138 138 138
-0.002785 0.346937 -0.157196 138 138 138
-0.005560 0.346621 -0.157277 138 138 138
-0.008336 0.346304 -0.157359 138 138 138
-0.011115 0.345588 -0.157542 138 138 138
-0.013892 0.345563 -0.157549 138 138 138
-0.016668 0.345507 -0.157563 138 138 138
-0.019447 0.345244 -0.157630 138 138 138
-0.022226 0.344910 -0.157716 138 138 138
-0.025010 0.344200 -0.157898 138 138 138
-0.027797 0.343298 -0.158129 138 138 138
-0.030586 0.342396 -0.158360 138 138 138
-0.033398 0.339835 -0.159017 138 138 138
-0.036225 0.336638 -0.159836 138 138 138
-0.039054 0.333649 -0.160603 138 138 138
-0.041874 0.331688 -0.161105 138 138 138
-0.044698 0.329724 -0.161609 138 138 138
-0.047523 0.327984 -0.162055 138 138 138
-0.050350 0.326292 -0.162488 138 138 138
-0.053178 0.324708 -0.162895 138 138 138
-0.056010 0.323121 -0.163301 138 138 138
-0.058841 0.321716 -0.163662 138 138 138
-0.061659 0.320982 -0.163850 138 138 138
-0.064473 0.320522 -0.163968 138 138 138
-0.067287 0.320061 -0.164086 138 138 138
-0.070086 0.320229 -0.164043 138 138 138
-0.072878 0.320629 -0.163940 138 138 138
-0.075669 0.321030 -0.163838 138 138 138
-0.078459 0.321430 -0.163735 138 138 138
-0.081247 0.321903 -0.163614 138 138 138
-0.084016 0.322930 -0.163350 138 138 138
-0.086783 0.323943 -0.163091 138 138 138
-0.089520 0.325784 -0.162619 138 138 138
-0.092255 0.327564 -0.162163 138 138 138
-0.094992 0.329203 -0.161743 138 138 138
-0.097741 0.330405 -0.161434 138 138 138
-0.100490 0.331538 -0.161144 138 138 138
-0.103237 0.332685 -0.160850 138 138 138
-0.105993 0.333519 -0.160636 138 138 138
-0.108753 0.334227 -0.160455 138 138 138
-0.111551 0.334015 -0.160509 138 138 138
-0.114356 0.333629 -0.160608 138 138 138
-0.117162 0.333244 -0.160707 138 138 138
-0.119969 0.332858 -0.160805 138 138 138
-0.122796 0.332037 -0.161016 138 138 138
-0.125674 0.330207 -0.161485 138 138 138
-0.128514 0.329214 -0.161740 138 138 138
-0.131379 0.327785 -0.162106 138 138 138
-0.134228 0.326711 -0.162381 138 138 138
-0.137088 0.325480 -0.162697 138 138 138
-0.139949 0.324276 -0.163005 138 138 138
-0.142769 0.323883 -0.163106 138 138 138
-0.145608 0.323156 -0.163293 138 138 138
-0.148494 0.321607 -0.163690 138 138 138
-0.151359 0.320500 -0.163973 138 138 138
-0.154213 0.319610 -0.164201 138 138 138
-0.157089 0.318373 -0.164519 138 138 138
-0.160003 0.316564 -0.164982 138 138 138
-0.162925 0.314680 -0.165465 138 138 138
-0.165851 0.312794 -0.165949 138 138 138
-0.168806 0.310509 -0.166534 138 138 138
-0.171786 0.307912 -0.167200 138 138 138
-0.174749 0.305672 -0.167775 138 138 138
-0.177695 0.303737 -0.168270 138 138 138
-0.180634 0.301978 -0.168721 138 138 138
-0.183578 0.300208 -0.169175 138 138 138
-0.186540 0.298226 -0.169683 138 138 138
-0.189501 0.296307 -0.170175 138 138 138
-0.192528 0.293542 -0.170884 138 138 138
-0.195555 0.290843 -0.171576 138 138 138
-0.198756 0.285864 -0.172852 138 138 138
-0.202383 0.275325 -0.175554 138 138 138
-0.206455 0.259216 -0.179683 138 138 138
-0.209916 0.251486 -0.181665 138 138 138
-0.213301 0.244953 -0.183339 138 138 138
-0.216550 0.240310 -0.184530 138 138 138
-0.219937 0.234062 -0.186131 138 138 138
-0.223400 0.227044 -0.187930 138 138 138
-0.228041 0.205860 -0.193360 138 138 138
-0.232087 0.192371 -0.196818 138 138 138
-0.235659 0.184839 -0.198749 138 138 138
-0.239152 0.178424 -0.200394 138 138 138
-0.242449 0.174430 -0.201417 138 138 138
-0.245768 0.170283 -0.202480 138 138 138
-0.249115 0.165921 -0.203598 138 138 138
-0.252558 0.160591 -0.204965 138 138 138
-0.256014 0.155231 -0.206339 138 138 138
-0.260488 0.138895 -0.210526 100 100 100
0.310519 0.091517 -0.225802 100 100 100
0.305677 0.108412 -0.221453 138 138 138
0.301900 0.115536 -0.219619 138 138 138
0.298116 0.122876 -0.217730 138 138 138
0.294218 0.131465 -0.215519 138 138 138
0.290476 0.138701 -0.213656 138 138 138
0.286653 0.146893 -0.211547 138 138 138
0.282977 0.153790 -0.209772 138 138 138
0.279265 0.161203 -0.207863 138 138 138
0.275412 0.170205 -0.205546 138 138 138
0.271440 0.180631 -0.202862 138 138 138
0.267652 0.189366 -0.200613 138 138 138
0.263376 0.203449 -0.196988 138 138 138
0.259569 0.212847 -0.194569 138 138 138
0.255759 0.222482 -0.192089 138 138 138
0.251882 0.233077 -0.189361 138 138 138
0.247993 0.244045 -0.186538 138 138 138
0.244319 0.252870 -0.184266 138 138 138
0.240643 0.261935 -0.181932 138 138 138
0.236826 0.272823 -0.179129 138 138 138
0.233111 0.282802 -0.176561 139 139 139
0.229598 0.290659 -0.174538 140 140 140
0.226204 0.297298 -0.172829 143 143 143
0.222903 0.302986 -0.171365 148 148 148
0.219689 0.307764 -0.170135 150 150 150
0.216607 0.311029 -0.169294 149 149 149
0.213577 0.313746 -0.168595 148 148 148
0.210550 0.316489 -0.167889 146 146 146
0.207528 0.319236 -0.167182 145 145 145
0.204527 0.321796 -0.166523 144 144 144
0.201531 0.324350 -0.165865 142 142 142
0.198554 0.326728 -0.165253 141 141 141
0.195575 0.329210 -0.164614 140 140 140
0.192586 0.331886 -0.163925 139 139 139
0.189549 0.335312 -0.163043 138 138 138
0.186497 0.339067 -0.162077 138 138 138
0.183469 0.342578 -0.161173 138 138 138
0.180444 0.346164 -0.160250 138 138 138
0.177369 0.350586 -0.159112 138 138 138
0.174306 0.354980 -0.157980 138 138 138
0.171341 0.358012 -0.157200 138 138 138
0.168378 0.361128 -0.156398 138 138 138
0.165405 0.364489 -0.155533 138 138 138
0.162497 0.366915 -0.154908 138 138 138
0.159611 0.369073 -0.154353 138 138 138
0.156806 0.369950 -0.154127 138 138 138
0.154020 0.370546 -0.153973 138 138 138
0.151235 0.371131 -0.153823 138 138 138
0.148452 0.371716 -0.153672 138 138 138
0.145670 0.372301 -0.153521 138 138 138
0.142947 0.371842 -0.153640 138 138 138
0.140223 0.371364 -0.153763 138 138 138
0.137505 0.370777 -0.153914 138 138 138
0.134799 0.369915 -0.154136 138 138 138
0.132091 0.369052 -0.154358 138 138 138
0.129382 0.368191 -0.154580 138 138 138
0.126671 0.367328 -0.154802 138 138 138
0.123933 0.366977 -0.154892 138 138 138
0.121183 0.366892 -0.154914 138 138 138
0.118439 0.366654 -0.154975 138 138 138
0.115688 0.366579 -0.154994 138 138 138
0.112933 0.366582 -0.154994 138 138 138
0.110178 0.366589 -0.154992 138 138 138
0.107419 0.366706 -0.154962 138 138 138
0.104652 0.367007 -0.154884 138 138 138
0.101885 0.367338 -0.154799 138 138 138
0.099123 0.367542 -0.154747 138 138 138
0.096364 0.367689 -0.154709 138 138 138
0.093592 0.368195 -0.154579 138 138 138
0.090821 0.368713 -0.154445 138 138 138
0.088052 0.369232 -0.154312 138 138 138
0.085283 0.369750 -0.154178 138 138 138
0.082516 0.370232 -0.154054 138 138 138
0.079764 0.370284 -0.154041 138 138 138
0.077013 0.370278 -0.154042 138 138 138
0.074260 0.370370 -0.154019 138 138 138
0.071507 0.370434 -0.154002 138 138 138
0.068759 0.370334 -0.154028 138 138 138
0.066016 0.370049 -0.154101 138 138 138
0.063272 0.369723 -0.154185 138 138 138
0.060527 0.369451 -0.154255 138 138 138
0.057781 0.369213 -0.154316 138 138 138
0.055038 0.368795 -0.154424 138 138 138
0.052296 0.368254 -0.154563 138 138 138
0.049556 0.367584 -0.154736 138 138 138
0.046814 0.366914 -0.154908 138 138 138
0.044070 0.366306 -0.155065 138 138 138
0.041324 0.365738 -0.155211 138 138 138
0.038580 0.364950 -0.155414 138 138 138
0.035842 0.363599 -0.155762 138 138 138
0.033098 0.362490 -0.156047 138 138 138
0.030360 0.360690 -0.156511 138 138 138
0.027619 0.358782 -0.157002 138 138 138
0.024875 0.356871 -0.157494 138 138 138
0.022125 0.355043 -0.157964 138 138 138
0.019370 0.353398 -0.158388 138 138 138
0.016612 0.351800 -0.158799 138 138 138
0.013850 0.350200 -0.159211 138 138 138
0.011084 0.348849 -0.159559 138 138 138
0.008313 0.347978 -0.159783 138 138 138
0.005541 0.347175 -0.159990 138 138 138
0.002766 0.346371 -0.160197 138 138 138
-0.000010 0.345605 -0.160394 138 138 138
-0.002787 0.344863 -0.160585 138 138 138
-0.005566 0.344546 -0.160666 138 138 138
-0.008345 0.343968 -0.160815 138 138 138
-0.011128 0.343089 -0.161042 138 138 138
-0.013909 0.342722 -0.161136 138 138 138
-0.016690 0.342459 -0.161204 138 138 138
-0.019472 0.342195 -0.161272 138 138 138
-0.022255 0.341931 -0.161340 138 138 138
-0.025041 0.341364 -0.161486 138 138 138
-0.027832 0.340460 -0.161718 138 138 138
-0.030645 0.337776 -0.162409 138 138 138
-0.033461 0.335328 -0.163039 138 138 138
-0.036280 0.333020 -0.163633 138 138 138
-0.039104 0.330735 -0.164222 138 138 138
-0.041932 0.328522 -0.164791 138 138 138
-0.044762 0.326423 -0.165332 138 138 138
-0.047591 0.324648 -0.165789 138 138 138
-0.050420 0.323061 -0.166197 138 138 138
-0.053248 0.321647 -0.166561 138 138 138
-0.056078 0.320335 -0.166899 138 138 138
-0.058901 0.319440 -0.167129 138 138 138
-0.061722 0.318718 -0.167315 138 138 138
-0.064538 0.318264 -0.167432 138 138 138
-0.067356 0.317809 -0.167549 138 138 138
-0.070172 0.317402 -0.167654 138 138 138
-0.072974 0.317569 -0.167611 138 138 138
-0.075776 0.317735 -0.167568 138 138 138
-0.078574 0.318004 -0.167499 138 138 138
-0.081371 0.318286 -0.167427 138 138 138
-0.084144 0.319321 -0.167160 138 138 138
-0.086912 0.320444 -0.166871 138 138 138
-0.089681 0.321469 -0.166607 138 138 138
-0.092410 0.323558 -0.166069 138 138 138
-0.095137 0.325616 -0.165539 138 138 138
-0.097868 0.327417 -0.165076 138 138 138
-0.100631 0.328283 -0.164853 138 138 138
-0.103393 0.329148 -0.164630 138 138 138
-0.106152 0.330012 -0.164408 138 138 138
-0.108913 0.330804 -0.164204 138 138 138
-0.111703 0.330849 -0.164192 138 138 138
-0.114508 0.330573 -0.164264 138 138 138
-0.117312 0.330297 -0.164335 138 138 138
-0.120126 0.329852 -0.164449 138 138 138
-0.122978 0.328580 -0.164777 138 138 138
-0.125843 0.327094 -0.165159 138 138 138
-0.128682 0.326223 -0.165383 138 138 138
-0.131523 0.325321 -0.165616 138 138 138
-0.134383 0.324105 -0.165929 138 138 138
-0.137230 0.323191 -0.166164 138 138 138
-0.140072 0.322402 -0.166367 138 138 138
-0.142906 0.321785 -0.166526 138 138 138
-0.145752 0.320970 -0.166736 138 138 138
-0.148618 0.319837 -0.167027 138 138 138
-0.151473 0.318947 -0.167256 138 138 138
-0.154335 0.317967 -0.167509 138 138 138
-0.157203 0.316913 -0.167780 138 138 138
-0.160128 0.314941 -0.168288 138 138 138
-0.163062 0.312906 -0.168811 138 138 138
-0.166000 0.310867 -0.169336 138 138 138
-0.168922 0.309142 -0.169780 138 138 138
-0.171899 0.306626 -0.170428 138 138 138
-0.174842 0.304703 -0.170923 138 138 138
-0.177786 0.302832 -0.171405 138 138 138
-0.180729 0.301038 -0.171867 138 138 138
-0.183684 0.299126 -0.172359 138 138 138
-0.186666 0.296875 -0.172938 138 138 138
-0.189680 0.294242 -0.173616 138 138 138
-0.192727 0.291217 -0.174395 138 138 138
-0.195967 0.285643 -0.175830 138 138 138
-0.199251 0.279609 -0.177383 138 138 138
-0.203497 0.260893 -0.182201 138 138 138
-0.207153 0.250479 -0.184882 138 138 138
-0.210493 0.244458 -0.186432 138 138 138
-0.213747 0.239708 -0.187655 138 138 138
-0.217073 0.234158 -0.189083 138 138 138
-0.220480 0.227756 -0.190731 138 138 138
-0.224175 0.217959 -0.193253 138 138 138
-0.228915 0.195699 -0.198984 138 138 138
-0.232564 0.187120 -0.201192 138 138 138
-0.236078 0.180346 -0.202936 138 138 138
-0.239445 0.175477 -0.204189 138 138 138
-0.242750 0.171430 -0.205231 138 138 138
-0.246081 0.167186 -0.206324 138 138 138
-0.249496 0.162106 -0.207631 138 138 138
-0.252945 0.156751 -0.209010 138 138 138
-0.256751 0.147588 -0.211369 100 100 100
0.306289 0.103154 -0.225926 138 138 138
0.302411 0.111181 -0.223851 138 138 138
0.298640 0.118341 -0.222000 138 138 138
0.294817 0.126154 -0.219981 138 138 138
0.290981 0.134255 -0.217886 138 138 138
0.287161 0.142364 -0.215790 138 138 138
0.283494 0.149117 -0.214045 138 138 138
0.279725 0.157046 -0.211995 138 138 138
0.275887 0.165841 -0.209721 138 138 138
0.272019 0.175147 -0.207316 138 138 138
0.268151 0.184650 -0.204859 138 138 138
0.264277 0.194430 -0.202331 138 138 138
0.260150 0.207123 -0.199050 138 138 138
0.256304 0.217079 -0.196476 138 138 138
0.252552 0.226244 -0.194107 138 138 138
0.248754 0.236118 -0.191554 138 138 138
0.244942 0.246387 -0.188899 138 138 138
0.241101 0.257229 -0.186097 138 138 138
0.237313 0.267722 -0.183384 140 140 140
0.233453 0.279313 -0.180388 142 142 142
0.229941 0.287108 -0.178373 143 143 143
0.226500 0.294249 -0.176527 144 144 144
0.223046 0.301726 -0.174594 146 146 146
0.219806 0.306798 -0.173283 149 149 149
0.216665 0.310781 -0.172253 149 149 149
0.213634 0.313499 -0.171550 148 148 148
0.210602 0.316284 -0.170830 147 147 147
0.207575 0.319092 -0.170104 146 146 146
0.204574 0.321645 -0.169444 144 144 144
0.201592 0.324006 -0.168834 142 142 142
0.198618 0.326341 -0.168231 141 141 141
0.195651 0.328633 -0.167638 139 139 139
0.192680 0.331049 -0.167014 139 139 139
0.189671 0.334071 -0.166232 138 138 138
0.186680 0.336934 -0.165492 138 138 138
0.183660 0.340297 -0.164623 138 138 138
0.180667 0.343361 -0.163831 138 138 138
0.177685 0.346366 -0.163054 138 138 138
0.174615 0.350787 -0.161911 138 138 138
0.171559 0.355137 -0.160786 138 138 138
0.168584 0.358375 -0.159950 138 138 138
0.165607 0.361744 -0.159079 138 138 138
0.162688 0.364301 -0.158418 138 138 138
0.159818 0.366135 -0.157943 138 138 138
0.156988 0.367382 -0.157621 138 138 138
0.154198 0.367977 -0.157467 138 138 138
0.151408 0.368608 -0.157304 138 138 138
0.148619 0.369240 -0.157141 138 138 138
0.145832 0.369866 -0.156979 138 138 138
0.143088 0.369725 -0.157015 138 138 138
0.140382 0.368871 -0.157236 138 138 138
0.137616 0.369107 -0.157175 138 138 138
0.134881 0.368766 -0.157263 138 138 138
0.132172 0.367902 -0.157487 138 138 138
0.129461 0.367040 -0.157710 138 138 138
0.126738 0.366385 -0.157879 138 138 138
0.123985 0.366331 -0.157893 138 138 138
0.121235 0.366229 -0.157919 138 138 138
0.118471 0.366399 -0.157875 138 138 138
0.115714 0.366445 -0.157864 138 138 138
0.112958 0.366451 -0.157862 138 138 138
0.110203 0.366457 -0.157860 138 138 138
0.107447 0.366481 -0.157854 138 138 138
0.104684 0.366670 -0.157805 138 138 138
0.101921 0.366859 -0.157756 138 138 138
0.099154 0.367194 -0.157670 138 138 138
0.096384 0.367601 -0.157565 138 138 138
0.093615 0.368028 -0.157454 138 138 138
0.090846 0.368472 -0.157339 138 138 138
0.088077 0.368916 -0.157225 138 138 138
0.085310 0.369359 -0.157110 138 138 138
0.082542 0.369867 -0.156979 138 138 138
0.079784 0.370068 -0.156927 138 138 138
0.077031 0.370133 -0.156910 138 138 138
0.074277 0.370197 -0.156894 138 138 138
0.071524 0.370261 -0.156877 138 138 138
0.068772 0.370298 -0.156868 138 138 138
0.066027 0.370033 -0.156936 138 138 138
0.063283 0.369719 -0.157017 138 138 138
0.060537 0.369506 -0.157072 138 138 138
0.057790 0.369232 -0.157143 138 138 138
0.055050 0.368647 -0.157294 138 138 138
0.052311 0.367981 -0.157466 138 138 138
0.049570 0.367311 -0.157640 138 138 138
0.046827 0.366640 -0.157813 138 138 138
0.044083 0.365989 -0.157981 138 138 138
0.041336 0.365420 -0.158128 138 138 138
0.038598 0.364180 -0.158449 138 138 138
0.035860 0.362734 -0.158823 138 138 138
0.033122 0.361064 -0.159255 138 138 138
0.030383 0.359175 -0.159743 138 138 138
0.027640 0.357283 -0.160232 138 138 138
0.024894 0.355307 -0.160743 138 138 138
0.022144 0.353243 -0.161276 138 138 138
0.019387 0.351643 -0.161690 138 138 138
0.016626 0.350041 -0.162104 138 138 138
0.013861 0.348521 -0.162497 138 138 138
0.011093 0.347226 -0.162832 138 138 138
0.008320 0.346327 -0.163064 138 138 138
0.005545 0.345431 -0.163296 138 138 138
0.002769 0.344626 -0.163504 138 138 138
-0.000010 0.343821 -0.163712 138 138 138
-0.002790 0.343019 -0.163919 138 138 138
-0.005571 0.342451 -0.164066 138 138 138
-0.008354 0.341749 -0.164248 138 138 138
-0.011137 0.341233 -0.164381 138 138 138
-0.013922 0.340694 -0.164520 138 138 138
-0.016708 0.340129 -0.164666 138 138 138
-0.019495 0.339564 -0.164813 138 138 138
-0.022284 0.338999 -0.164959 138 138 138
-0.025072 0.338520 -0.165082 138 138 138
-0.027876 0.336742 -0.165542 138 138 138
-0.030687 0.334669 -0.166078 138 138 138
-0.033504 0.332420 -0.166659 138 138 138
-0.036326 0.330134 -0.167250 138 138 138
-0.039153 0.327882 -0.167832 138 138 138
-0.041984 0.325664 -0.168406 138 138 138
-0.044817 0.323608 -0.168937 138 138 138
-0.047648 0.321894 -0.169380 138 138 138
-0.050477 0.320501 -0.169741 138 138 138
-0.053301 0.319469 -0.170007 138 138 138
-0.056127 0.318468 -0.170266 138 138 138
-0.058954 0.317524 -0.170510 138 138 138
-0.061781 0.316654 -0.170735 138 138 138
-0.064603 0.316083 -0.170883 138 138 138
-0.067426 0.315495 -0.171035 138 138 138
-0.070254 0.314768 -0.171223 138 138 138
-0.073057 0.315015 -0.171159 138 138 138
-0.075855 0.315417 -0.171055 138 138 138
-0.078661 0.315519 -0.171028 138 138 138
-0.081472 0.315458 -0.171044 138 138 138
-0.084267 0.315897 -0.170931 138 138 138
-0.087043 0.316904 -0.170670 138 138 138
-0.089816 0.317910 -0.170410 138 138 138
-0.092577 0.319235 -0.170068 138 138 138
-0.095320 0.320960 -0.169622 138 138 138
-0.098077 0.322217 -0.169297 138 138 138
-0.100840 0.323246 -0.169031 138 138 138
-0.103582 0.324759 -0.168640 138 138 138
-0.106313 0.326466 -0.168199 138 138 138
-0.109074 0.327331 -0.167975 138 138 138
-0.111858 0.327633 -0.167897 138 138 138
-0.114668 0.327323 -0.167977 138 138 138
-0.117497 0.326578 -0.168170 138 138 138
-0.120328 0.325832 -0.168362 138 138 138
-0.123172 0.324845 -0.168618 138 138 138
-0.126013 0.323972 -0.168843 138 138 138
-0.128856 0.323086 -0.169072 138 138 138
-0.131708 0.322053 -0.169339 138 138 138
-0.134562 0.321030 -0.169604 138 138 138
-0.137412 0.320115 -0.169840 138 138 138
-0.140269 0.319124 -0.170097 138 138 138
-0.143124 0.318190 -0.170338 138 138 138
-0.145935 0.318093 -0.170363 138 138 138
-0.148783 0.317352 -0.170555 138 138 138
-0.151639 0.316491 -0.170777 138 138 138
-0.154497 0.315630 -0.171000 138 138 138
-0.157357 0.314768 -0.171223 138 138 138
-0.160290 0.312716 -0.171753 138 138 138
-0.163237 0.310505 -0.172325 138 138 138
-0.166136 0.309142 -0.172677 138 138 138
-0.169038 0.307774 -0.173031 138 138 138
-0.171989 0.305679 -0.173572 138 138 138
-0.174931 0.303809 -0.174056 138 138 138
-0.177876 0.301937 -0.174540 138 138 138
-0.180838 0.299879 -0.175072 138 138 138
-0.183828 0.297488 -0.175690 138 138 138
-0.186833 0.294939 -0.176349 138 138 138
-0.189887 0.291766 -0.177169 138 138 138
-0.193077 0.286806 -0.178451 138 138 138
-0.196293 0.281617 -0.179793 138 138 138
-0.200489 0.263293 -0.184529 138 138 138
-0.204245 0.251370 -0.187612 138 138 138
-0.207593 0.245156 -0.189218 138 138 138
-0.210850 0.240284 -0.190477 138 138 138
-0.214088 0.235803 -0.191636 138 138 138
-0.217418 0.230275 -0.193065 138 138 138
-0.220823 0.223947 -0.194701 138 138 138
-0.225454 0.202673 -0.200200 138 138 138
-0.229363 0.190733 -0.203287 138 138 138
-0.232964 0.182791 -0.205340 138 138 138
-0.236358 0.177515 -0.206704 138 138 138
-0.239736 0.172543 -0.207989 138 138 138
-0.243063 0.168294 -0.209087 138 138 138
-0.246453 0.163420 -0.210348 138 138 138
-0.249878 0.158270 -0.211679 138 138 138
-0.253685 0.148977 -0.214081 100 100 100
0.302898 0.107062 -0.228033 138 138 138
0.299101 0.114421 -0.226122 138 138 138
0.295409 0.120919 -0.224436 138 138 138
0.291513 0.129546 -0.222196 138 138 138
0.287690 0.137627 -0.220098 138 138 138
0.283881 0.145740 -0.217992 138 138 138
0.280121 0.153535 -0.215969 138 138 138
0.276377 0.161324 -0.213947 139 139 139
0.272583 0.169810 -0.211744 140 140 140
0.268674 0.179682 -0.209181 140 140 140
0.264840 0.188976 -0.206768 138 138 138
0.260805 0.200625 -0.203744 138 138 138
0.256851 0.211664 -0.200879 138 138 138
0.253151 0.220187 -0.198666 138 138 138
0.249348 0.230041 -0.196108 139 139 139
0.245426 0.241463 -0.193143 139 139 139
0.241535 0.252799 -0.190200 139 139 139
0.237769 0.262978 -0.187558 141 141 141
0.233966 0.273836 -0.184739 144 144 144
0.230238 0.284086 -0.182079 144 144 144
0.226748 0.291775 -0.180083 145 145 145
0.223304 0.299102 -0.178181 145 145 145
0.219924 0.305832 -0.176433 149 149 149
0.216734 0.310399 -0.175248 149 149 149
0.213690 0.313259 -0.174505 149 149 149
0.210655 0.316078 -0.173774 147 147 147
0.207642 0.318704 -0.173092 146 146 146
0.204640 0.321248 -0.172432 144 144 144
0.201656 0.323628 -0.171814 142 142 142
0.198681 0.325953 -0.171210 141 141 141
0.195716 0.328205 -0.170626 139 139 139
0.192749 0.330565 -0.170013 138 138 138
0.189784 0.332957 -0.169392 138 138 138
0.186831 0.335243 -0.168799 138 138 138
0.183878 0.337618 -0.168182 138 138 138
0.180882 0.340671 -0.167390 138 138 138
0.177896 0.343689 -0.166606 138 138 138
0.174920 0.346649 -0.165838 138 138 138
0.171862 0.350959 -0.164719 138 138 138
0.168823 0.355105 -0.163643 138 138 138
0.165902 0.357528 -0.163013 138 138 138
0.162996 0.359799 -0.162424 138 138 138
0.160094 0.362066 -0.161836 138 138 138
0.157198 0.364329 -0.161248 138 138 138
0.154376 0.365413 -0.160967 138 138 138
0.151585 0.366000 -0.160814 138 138 138
0.148793 0.366633 -0.160650 138 138 138
0.146016 0.367022 -0.160549 138 138 138
0.143257 0.367084 -0.160533 138 138 138
0.140521 0.366721 -0.160627 138 138 138
0.137752 0.366981 -0.160560 138 138 138
0.134994 0.367040 -0.160544 138 138 138
0.132253 0.366751 -0.160619 138 138 138
0.129541 0.365887 -0.160844 138 138 138
0.126792 0.365718 -0.160887 138 138 138
0.124054 0.365328 -0.160989 138 138 138
0.121284 0.365620 -0.160913 138 138 138
0.118516 0.365871 -0.160848 138 138 138
0.115754 0.365985 -0.160818 138 138 138
0.112993 0.366098 -0.160789 138 138 138
0.110232 0.366212 -0.160759 138 138 138
0.107472 0.366325 -0.160730 138 138 138
0.104711 0.366451 -0.160697 138 138 138
0.101947 0.366662 -0.160642 138 138 138
0.099176 0.367063 -0.160538 138 138 138
0.096404 0.367522 -0.160419 138 138 138
0.093634 0.367930 -0.160313 138 138 138
0.090865 0.368378 -0.160197 138 138 138
0.088096 0.368821 -0.160082 138 138 138
0.085328 0.369265 -0.159967 138 138 138
0.082562 0.369680 -0.159859 138 138 138
0.079802 0.369926 -0.159795 138 138 138
0.077049 0.369975 -0.159783 138 138 138
0.074295 0.370024 -0.159770 138 138 138
0.071541 0.370088 -0.159753 138 138 138
0.068788 0.370152 -0.159737 138 138 138
0.066039 0.370017 -0.159772 138 138 138
0.063293 0.369774 -0.159835 138 138 138
0.060552 0.369291 -0.159960 138 138 138
0.057810 0.368783 -0.160092 138 138 138
0.055068 0.368257 -0.160229 138 138 138
0.052327 0.367623 -0.160393 138 138 138
0.049584 0.366989 -0.160558 138 138 138
0.046841 0.366355 -0.160722 138 138 138
0.044096 0.365695 -0.160894 138 138 138
0.041354 0.364746 -0.161140 138 138 138
0.038621 0.363092 -0.161569 138 138 138
0.035884 0.361436 -0.161999 138 138 138
0.033144 0.359778 -0.162430 138 138 138
0.030402 0.357960 -0.162902 138 138 138
0.027660 0.355871 -0.163444 138 138 138
0.024913 0.353748 -0.163995 138 138 138
0.022162 0.351636 -0.164543 138 138 138
0.019403 0.349916 -0.164990 138 138 138
0.016638 0.348591 -0.165334 138 138 138
0.013870 0.347277 -0.165675 138 138 138
0.011100 0.345973 -0.166013 138 138 138
0.008326 0.344933 -0.166283 138 138 138
0.005549 0.344031 -0.166517 138 138 138
0.002771 0.343134 -0.166750 138 138 138
-0.000010 0.342303 -0.166966 138 138 138
-0.002792 0.341500 -0.167174 138 138 138
-0.005575 0.340964 -0.167314 138 138 138
-0.008360 0.340399 -0.167460 138 138 138
-0.011145 0.339913 -0.167586 138 138 138
-0.013931 0.339425 -0.167713 138 138 138
-0.016719 0.338905 -0.167848 138 138 138
-0.019507 0.338384 -0.167983 138 138 138
-0.022298 0.337709 -0.168159 138 138 138
-0.025096 0.336540 -0.168462 138 138 138
-0.027906 0.334372 -0.169025 138 138 138
-0.030723 0.331952 -0.169653 138 138 138
-0.033546 0.329528 -0.170282 138 138 138
-0.036372 0.327242 -0.170876 138 138 138
-0.039199 0.325217 -0.171401 138 138 138
-0.042030 0.323229 -0.171918 138 138 138
-0.044865 0.321237 -0.172435 138 138 138
-0.047698 0.319567 -0.172868 138 138 138
-0.050522 0.318600 -0.173119 138 138 138
-0.053348 0.317599 -0.173379 138 138 138
-0.056176 0.316597 -0.173639 138 138 138
-0.059007 0.315603 -0.173897 138 138 138
-0.061836 0.314733 -0.174123 138 138 138
-0.064667 0.313898 -0.174340 138 138 138
-0.067496 0.313160 -0.174531 138 138 138
-0.070324 0.312575 -0.174683 138 138 138
-0.073131 0.312778 -0.174631 138 138 138
-0.075945 0.312716 -0.174647 138 138 138
-0.078759 0.312654 -0.174663 138 138 138
-0.081574 0.312593 -0.174679 138 138 138
-0.084386 0.312608 -0.174675 138 138 138
-0.087165 0.313617 -0.174413 138 138 138
-0.089956 0.314226 -0.174255 138 138 138
-0.092769 0.314156 -0.174273 138 138 138
-0.095547 0.315097 -0.174029 138 138 138
-0.098332 0.315767 -0.173855 138 138 138
-0.101110 0.316576 -0.173645 138 138 138
-0.103880 0.317569 -0.173387 138 138 138
-0.106636 0.318841 -0.173057 138 138 138
-0.109390 0.320112 -0.172727 138 138 138
-0.112186 0.320318 -0.172673 138 138 138
-0.115008 0.319910 -0.172779 138 138 138
-0.117848 0.319123 -0.172984 138 138 138
-0.120689 0.318335 -0.173188 138 138 138
-0.123520 0.317815 -0.173323 138 138 138
-0.126334 0.317661 -0.173363 138 138 138
-0.129176 0.316932 -0.173552 138 138 138
-0.132024 0.316123 -0.173762 138 138 138
-0.134843 0.315924 -0.173814 138 138 138
-0.137703 0.314938 -0.174070 138 138 138
-0.140518 0.314840 -0.174095 138 138 138
-0.143334 0.314742 -0.174121 138 138 138
-0.146150 0.314644 -0.174146 138 138 138
-0.148988 0.314148 -0.174275 138 138 138
-0.151848 0.313284 -0.174499 138 138 138
-0.154704 0.312523 -0.174697 138 138 138
-0.157557 0.311835 -0.174875 138 138 138
-0.160472 0.310144 -0.175314 138 138 138
-0.163370 0.308779 -0.175669 138 138 138
-0.166274 0.307374 -0.176034 138 138 138
-0.169182 0.305958 -0.176401 138 138 138
-0.172117 0.304154 -0.176869 138 138 138
-0.175068 0.302171 -0.177384 138 138 138
-0.178042 0.299908 -0.177972 138 138 138
-0.180990 0.298102 -0.178441 138 138 138
-0.183986 0.295637 -0.179080 138 138 138
-0.187058 0.292163 -0.179982 138 138 138
-0.190177 0.288126 -0.181030 138 138 138
-0.193367 0.283222 -0.182303 138 138 138
-0.197344 0.267633 -0.186350 138 138 138
-0.201253 0.253403 -0.190044 138 138 138
-0.204658 0.246322 -0.191882 138 138 138
-0.207933 0.241144 -0.193226 138 138 138
-0.211151 0.236848 -0.194342 138 138 138
-0.214378 0.232556 -0.195456 138 138 138
-0.217724 0.226874 -0.196931 138 138 138
-0.221465 0.216414 -0.199646 138 138 138
-0.225934 0.197237 -0.204624 138 138 138
-0.229745 0.186574 -0.207392 138 138 138
-0.233267 0.179647 -0.209191 138 138 138
-0.236644 0.174611 -0.210498 138 138 138
-0.240038 0.169494 -0.211826 138 138 138
-0.243416 0.164693 -0.213073 138 138 138
-0.246849 0.159387 -0.214450 138 138 138
-0.250625 0.150324 -0.216803 100 100 100
0.303566 0.101217 -0.232674 139 139 139
0.299508 0.111017 -0.230119 144 144 144
0.295832 0.117317 -0.228477 140 140 140
0.292148 0.123825 -0.226781 140 140 140
0.288118 0.133890 -0.224157 141 141 141
0.284252 0.142523 -0.221907 141 141 141
0.280503 0.150166 -0.219914 140 140 140
0.276755 0.157959 -0.217883 143 143 143
0.273026 0.165723 -0.215859 142 142 142
0.269178 0.174902 -0.213466 145 145 145
0.265261 0.185018 -0.210829 143 143 143
0.261416 0.194592 -0.208333 140 140 140
0.257389 0.206345 -0.205270 138 138 138
0.253635 0.215378 -0.202915 138 138 138
0.249803 0.225493 -0.200278 140 140 140
0.245862 0.237061 -0.197263 142 142 142
0.241998 0.248037 -0.194401 146 146 146
0.238208 0.258435 -0.191691 142 142 142
0.234445 0.268772 -0.188996 145 145 145
0.230545 0.280957 -0.185820 145 145 145
0.226998 0.289273 -0.183652 147 147 147
0.223536 0.296770 -0.181698 146 146 146
0.220105 0.304093 -0.179789 148 148 148
0.216842 0.309528 -0.178372 150 150 150
0.213749 0.312976 -0.177473 149 149 149
0.210731 0.315574 -0.176796 147 147 147
0.207719 0.318167 -0.176120 146 146 146
0.204714 0.320750 -0.175447 144 144 144
0.201720 0.323249 -0.174795 142 142 142
0.198744 0.325565 -0.174192 141 141 141
0.195779 0.327818 -0.173604 139 139 139
0.192831 0.329894 -0.173063 138 138 138
0.189898 0.331828 -0.172559 138 138 138
0.186968 0.333773 -0.172052 138 138 138
0.184039 0.335753 -0.171536 138 138 138
0.181094 0.338037 -0.170941 138 138 138
0.178106 0.341028 -0.170161 138 138 138
0.175126 0.343995 -0.169387 138 138 138
0.172175 0.346618 -0.168704 138 138 138
0.169253 0.348866 -0.168118 138 138 138
0.166302 0.351649 -0.167392 138 138 138
0.163386 0.353982 -0.166784 138 138 138
0.160463 0.356485 -0.166132 138 138 138
0.157560 0.358758 -0.165539 138 138 138
0.154704 0.360314 -0.165133 138 138 138
0.151871 0.361513 -0.164821 138 138 138
0.149059 0.362406 -0.164588 138 138 138
0.146249 0.363297 -0.164356 138 138 138
0.143440 0.364193 -0.164122 138 138 138
0.140660 0.364591 -0.164019 138 138 138
0.137888 0.364851 -0.163951 138 138 138
0.135118 0.365086 -0.163889 138 138 138
0.132367 0.364961 -0.163922 138 138 138
0.129612 0.364898 -0.163939 138 138 138
0.126873 0.364506 -0.164041 138 138 138
0.124105 0.364705 -0.163989 138 138 138
0.121333 0.365010 -0.163909 138 138 138
0.118563 0.365291 -0.163836 138 138 138
0.115798 0.365457 -0.163793 138 138 138
0.113036 0.365570 -0.163763 138 138 138
0.110274 0.365685 -0.163733 138 138 138
0.107504 0.365976 -0.163657 138 138 138
0.104736 0.366262 -0.163583 138 138 138
0.101972 0.366473 -0.163528 138 138 138
0.099200 0.366876 -0.163423 138 138 138
0.096426 0.367364 -0.163296 138 138 138
0.093654 0.367849 -0.163169 138 138 138
0.090884 0.368283 -0.163056 138 138 138
0.088114 0.368742 -0.162937 138 138 138
0.085347 0.369134 -0.162834 138 138 138
0.082583 0.369472 -0.162746 138 138 138
0.079821 0.369750 -0.162674 138 138 138
0.077065 0.369859 -0.162645 138 138 138
0.074311 0.369908 -0.162633 138 138 138
0.071557 0.369956 -0.162620 138 138 138
0.068804 0.370005 -0.162607 138 138 138
0.066057 0.369777 -0.162667 138 138 138
0.063314 0.369349 -0.162778 138 138 138
0.060573 0.368842 -0.162910 138 138 138
0.057830 0.368334 -0.163043 138 138 138
0.055087 0.367826 -0.163175 138 138 138
0.052344 0.367232 -0.163330 138 138 138
0.049600 0.366598 -0.163495 138 138 138
0.046856 0.365963 -0.163661 138 138 138
0.044116 0.364956 -0.163923 138 138 138
0.041379 0.363649 -0.164264 138 138 138
0.038644 0.361983 -0.164698 138 138 138
0.035906 0.360316 -0.165133 138 138 138
0.033166 0.358515 -0.165602 138 138 138
0.030425 0.356434 -0.166145 138 138 138
0.027681 0.354304 -0.166700 138 138 138
0.024932 0.352192 -0.167251 138 138 138
0.022178 0.350155 -0.167782 138 138 138
0.019415 0.348661 -0.168171 138 138 138
0.016649 0.347341 -0.168515 138 138 138
0.013879 0.346037 -0.168855 138 138 138
0.011107 0.344787 -0.169181 138 138 138
0.008331 0.343740 -0.169454 138 138 138
0.005552 0.342911 -0.169670 138 138 138
0.002772 0.342052 -0.169894 138 138 138
-0.000010 0.341367 -0.170073 138 138 138
-0.002793 0.340706 -0.170245 138 138 138
-0.005578 0.340180 -0.170382 138 138 138
-0.008364 0.339561 -0.170543 138 138 138
-0.011151 0.338942 -0.170705 138 138 138
-0.013939 0.338405 -0.170845 138 138 138
-0.016728 0.337895 -0.170978 138 138 138
-0.019521 0.337057 -0.171196 138 138 138
-0.022317 0.335949 -0.171485 138 138 138
-0.025116 0.334841 -0.171774 138 138 138
-0.027924 0.333120 -0.172222 138 138 138
-0.030743 0.330697 -0.172854 138 138 138
-0.033568 0.328278 -0.173485 138 138 138
-0.036407 0.325186 -0.174291 138 138 138
-0.039240 0.322884 -0.174891 138 138 138
-0.042073 0.320990 -0.175385 138 138 138
-0.044906 0.319280 -0.175830 138 138 138
-0.047742 0.317568 -0.176277 138 138 138
-0.050570 0.316526 -0.176548 138 138 138
-0.053398 0.315573 -0.176796 138 138 138
-0.056228 0.314620 -0.177045 138 138 138
-0.059057 0.313801 -0.177259 138 138 138
-0.061887 0.312996 -0.177468 138 138 138
-0.064714 0.312399 -0.177624 138 138 138
-0.067544 0.311730 -0.177798 138 138 138
-0.070372 0.311195 -0.177938 138 138 138
-0.073197 0.310818 -0.178036 138 138 138
-0.076018 0.310613 -0.178089 138 138 138
-0.078839 0.310408 -0.178143 138 138 138
-0.081661 0.310203 -0.178196 138 138 138
-0.084491 0.309724 -0.178321 138 138 138
-0.087312 0.309590 -0.178356 138 138 138
-0.090136 0.309363 -0.178415 138 138 138
-0.092960 0.309136 -0.178475 138 138 138
-0.095783 0.308962 -0.178520 138 138 138
-0.098606 0.308783 -0.178567 138 138 138
-0.101435 0.308464 -0.178650 138 138 138
-0.104265 0.308145 -0.178733 138 138 138
-0.107086 0.308059 -0.178755 138 138 138
-0.109920 0.307674 -0.178856 138 138 138
-0.112726 0.307955 -0.178783 138 138 138
-0.115532 0.308242 -0.178708 138 138 138
-0.118337 0.308529 -0.178633 138 138 138
-0.121141 0.308817 -0.178558 138 138 138
-0.123952 0.308959 -0.178521 138 138 138
-0.126775 0.308822 -0.178557 138 138 138
-0.129568 0.309314 -0.178428 138 138 138
-0.132363 0.309744 -0.178316 138 138 138
-0.135173 0.309872 -0.178283 138 138 138
-0.137964 0.310349 -0.178159 138 138 138
-0.140767 0.310578 -0.178099 138 138 138
-0.143570 0.310808 -0.178039 138 138 138
-0.146383 0.310855 -0.178027 138 138 138
-0.149220 0.310450 -0.178132 138 138 138
-0.152089 0.309512 -0.178377 138 138 138
-0.154962 0.308521 -0.178635 138 138 138
-0.157802 0.308146 -0.178733 138 138 138
-0.160645 0.307723 -0.178843 138 138 138
-0.163543 0.306410 -0.179185 138 138 138
-0.166445 0.305096 -0.179528 138 138 138
-0.169349 0.303780 -0.179871 138 138 138
-0.172277 0.302126 -0.180302 138 138 138
-0.175255 0.299775 -0.180915 138 138 138
-0.178201 0.297977 -0.181384 138 138 138
-0.181157 0.296084 -0.181877 138 138 138
-0.184231 0.292530 -0.182804 138 138 138
-0.187325 0.288800 -0.183776 138 138 138
-0.190476 0.284359 -0.184934 138 138 138
-0.194128 0.273072 -0.187876 138 138 138
-0.198253 0.255592 -0.192432 138 138 138
-0.201684 0.248034 -0.194403 138 138 138
-0.204984 0.242438 -0.195861 138 138 138
-0.208217 0.237881 -0.197049 138 138 138
-0.211406 0.234016 -0.198057 138 138 138
-0.214674 0.229240 -0.199302 138 138 138
-0.218152 0.221937 -0.201205 138 138 138
-0.222335 0.206022 -0.205354 138 138 138
-0.226325 0.192907 -0.208773 138 138 138
-0.230111 0.182598 -0.211460 138 138 138
-0.233574 0.176438 -0.213066 138 138 138
-0.236961 0.171329 -0.214398 138 138 138
-0.240375 0.166038 -0.215777 138 138 138
-0.243847 0.160194 -0.217300 138 138 138
-0.247584 0.151465 -0.219576 100 100 100
0.299997 0.106822 -0.234332 146 146 146
0.296240 0.113860 -0.232490 145 145 145
0.292484 0.121035 -0.230612 143 143 143
0.288584 0.129779 -0.228323 143 143 143
0.284671 0.138831 -0.225953 144 144 144
0.280869 0.146962 -0.223825 144 144 144
