ply
format ascii 1.0
element vertex 1171
property float x
property float y
property float z
property uchar red
property uchar green
property uchar blue
end_header
-0.196522 0.220857 -0.233379 138 138 138
-0.198499 0.218543 -0.233662 138 138 138
-0.200478 0.216227 -0.233946 138 138 138
-0.202458 0.213909 -0.234230 138 138 138
-0.204342 0.211409 -0.234571 138 138 138
-0.205931 0.208359 -0.235087 138 138 138
-0.207419 0.205114 -0.235664 138 138 138
-0.209018 0.202067 -0.236177 138 138 138
-0.210619 0.199014 -0.236692 138 138 138
-0.211972 0.195491 -0.237355 138 138 138
-0.213053 0.191448 -0.238181 138 138 138
-0.214120 0.187364 -0.239020 138 138 138
-0.215196 0.183285 -0.239856 138 138 138
-0.216317 0.179278 -0.240668 138 138 138
-0.217661 0.175677 -0.241351 138 138 138
-0.219036 0.172125 -0.242018 138 138 138
-0.220334 0.168417 -0.242733 138 138 138
-0.221602 0.164638 -0.243470 138 138 138
-0.222629 0.160387 -0.244354 138 138 138
-0.223641 0.156095 -0.245251 138 138 138
-0.224655 0.151792 -0.246150 138 138 138
-0.225250 0.146666 -0.247306 138 138 138
-0.225777 0.141391 -0.248508 138 138 138
-0.226165 0.135827 -0.249799 138 138 138
-0.226496 0.130131 -0.251129 138 138 138
-0.226838 0.124433 -0.252459 138 138 138
-0.227329 0.119005 -0.253703 138 138 138
-0.227575 0.113078 -0.255102 138 138 138
-0.228195 0.107860 -0.256277 138 138 138
-0.229331 0.103636 -0.257139 138 138 138
-0.230546 0.099553 -0.257957 138 138 138
-0.232054 0.096035 -0.258597 138 138 138
-0.233656 0.092693 -0.259181 138 138 138
-0.235260 0.089345 -0.259767 138 138 138
-0.236786 0.085833 -0.260403 138 138 138
-0.238085 0.081856 -0.261183 138 138 138
-0.239406 0.077910 -0.261953 138 138 138
-0.240338 0.073170 -0.262969 138 138 138
-0.240586 0.067038 -0.264417 138 138 138
-0.240397 0.059999 -0.266145 138 138 138
-0.239431 0.051359 -0.268369 138 138 138
-0.238333 0.042413 -0.270685 138 138 138
-0.238219 0.035428 -0.272389 138 138 138
-0.238221 0.028651 -0.274028 138 138 138
-0.238407 0.022222 -0.275556 138 138 138
-0.238348 0.015264 -0.277247 138 138 138
-0.238591 0.008897 -0.278752 138 138 138
-0.238894 0.002629 -0.280225 138 138 138
-0.239339 -0.003372 -0.281614 138 138 138
-0.239837 -0.009287 -0.282974 138 138 138
-0.240092 -0.015731 -0.284497 138 138 138
-0.240280 -0.022341 -0.286068 138 138 138
-0.240387 -0.029146 -0.287699 138 138 138
-0.240638 -0.035679 -0.289243 138 138 138
-0.240990 -0.042028 -0.290729 138 138 138
-0.241291 -0.048511 -0.292254 138 138 138
-0.241278 -0.055682 -0.293990 138 138 138
0.236211 0.160544 -0.311594 138 138 138
0.164298 0.256233 -0.278292 138 138 138
0.155263 0.263791 -0.275192 138 138 138
0.146530 0.270963 -0.272227 138 138 138
0.135389 0.281581 -0.268089 138 138 138
0.128654 0.286005 -0.266071 138 138 138
0.121574 0.290947 -0.263880 138 138 138
0.117381 0.291804 -0.263084 138 138 138
0.113831 0.291755 -0.262599 138 138 138
0.110286 0.291705 -0.262114 138 138 138
0.106956 0.291352 -0.261733 138 138 138
0.103655 0.290964 -0.261365 138 138 138
0.100357 0.290576 -0.260997 138 138 138
0.097062 0.290188 -0.260629 138 138 138
0.093402 0.290333 -0.260081 138 138 138
0.089362 0.291036 -0.259344 138 138 138
0.085330 0.291738 -0.258609 138 138 138
0.080224 0.294013 -0.257341 138 138 138
0.063895 0.312688 -0.250520 138 138 138
0.057368 0.317114 -0.248532 138 138 138
0.052626 0.318949 -0.247422 138 138 138
0.048483 0.319918 -0.246606 138 138 138
0.044349 0.320884 -0.245792 138 138 138
0.040610 0.321279 -0.245172 138 138 138
0.037495 0.320758 -0.244862 138 138 138
0.034368 0.320259 -0.244545 138 138 138
0.031242 0.319763 -0.244228 138 138 138
0.028650 0.318476 -0.244177 138 138 138
0.026371 0.316723 -0.244283 138 138 138
0.024158 0.314869 -0.244423 138 138 138
0.022027 0.312889 -0.244605 138 138 138
0.019804 0.311046 -0.244740 138 138 138
0.017668 0.309070 -0.244921 138 138 138
0.015663 0.306895 -0.245168 138 138 138
0.013514 0.304933 -0.245343 138 138 138
0.011352 0.302989 -0.245512 138 138 138
0.009069 0.301226 -0.245620 138 138 138
0.006740 0.299531 -0.245705 138 138 138
0.004409 0.297839 -0.245789 138 138 138
0.002037 0.296208 -0.245852 138 138 138
-0.000916 0.295468 -0.245618 138 138 138
-0.004112 0.295107 -0.245258 138 138 138
-0.007316 0.294761 -0.244893 138 138 138
-0.010517 0.294416 -0.244528 138 138 138
-0.014311 0.294995 -0.243856 138 138 138
-0.018215 0.295754 -0.243125 138 138 138
-0.021967 0.296286 -0.242470 138 138 138
-0.026398 0.297886 -0.241460 138 138 138
-0.030853 0.299539 -0.240435 138 138 138
-0.035187 0.301016 -0.239469 138 138 138
-0.039029 0.301734 -0.238757 138 138 138
-0.042753 0.302277 -0.238103 138 138 138
-0.046406 0.302716 -0.237484 138 138 138
-0.049765 0.302699 -0.237018 138 138 138
-0.052954 0.302419 -0.236639 138 138 138
-0.056140 0.302139 -0.236260 138 138 138
-0.059057 0.301437 -0.236022 138 138 138
-0.061610 0.300157 -0.235975 138 138 138
-0.064084 0.298751 -0.235969 138 138 138
-0.066578 0.297377 -0.235954 138 138 138
-0.069312 0.296388 -0.235810 138 138 138
-0.071651 0.294766 -0.235876 138 138 138
-0.073823 0.292874 -0.236031 138 138 138
-0.076492 0.291782 -0.235922 138 138 138
-0.079159 0.290691 -0.235813 138 138 138
-0.081777 0.289521 -0.235730 138 138 138
-0.084092 0.287856 -0.235810 138 138 138
-0.086550 0.286427 -0.235812 138 138 138
-0.088820 0.284688 -0.235916 138 138 138
-0.091637 0.283846 -0.235726 138 138 138
-0.093995 0.282251 -0.235783 138 138 138
-0.096591 0.281047 -0.235711 138 138 138
-0.099231 0.279919 -0.235615 138 138 138
-0.101603 0.278346 -0.235664 138 138 138
-0.103945 0.276724 -0.235730 138 138 138
-0.106461 0.275390 -0.235701 138 138 138
-0.109156 0.274357 -0.235574 138 138 138
-0.111851 0.273325 -0.235447 138 138 138
-0.114474 0.272173 -0.235359 138 138 138
-0.117110 0.271045 -0.235263 138 138 138
-0.119747 0.269919 -0.235167 138 138 138
-0.122337 0.268717 -0.235096 138 138 138
-0.124984 0.267612 -0.234993 138 138 138
-0.127683 0.266595 -0.234862 138 138 138
-0.130367 0.265557 -0.234738 138 138 138
-0.132880 0.264227 -0.234709 138 138 138
-0.135715 0.263449 -0.234500 138 138 138
-0.138759 0.263033 -0.234174 138 138 138
-0.141514 0.262125 -0.234009 138 138 138
-0.144028 0.260804 -0.233977 138 138 138
-0.146163 0.258828 -0.234158 138 138 138
-0.148233 0.256738 -0.234375 138 138 138
-0.150306 0.254648 -0.234591 138 138 138
-0.152357 0.252519 -0.234821 138 138 138
-0.153725 0.249193 -0.235436 138 138 138
-0.155339 0.246288 -0.235915 138 138 138
-0.157103 0.243639 -0.236311 138 138 138
-0.159034 0.241278 -0.236614 138 138 138
-0.161036 0.239037 -0.236877 138 138 138
-0.163029 0.236776 -0.237146 138 138 138
-0.165732 0.235769 -0.237012 138 138 138
-0.168513 0.234900 -0.236833 138 138 138
-0.171287 0.234023 -0.236657 138 138 138
-0.174060 0.233148 -0.236481 138 138 138
-0.176562 0.231788 -0.236461 138 138 138
-0.179007 0.230330 -0.236472 138 138 138
-0.181453 0.228871 -0.236483 138 138 138
-0.183878 0.227375 -0.236507 138 138 138
-0.186020 0.225368 -0.236694 138 138 138
-0.188246 0.223509 -0.236833 138 138 138
-0.190431 0.221573 -0.236996 138 138 138
-0.192656 0.219708 -0.237138 138 138 138
-0.194900 0.217876 -0.237268 138 138 138
-0.196877 0.215552 -0.237555 138 138 138
-0.198855 0.213227 -0.237842 138 138 138
-0.200804 0.210843 -0.238147 138 138 138
-0.202608 0.208188 -0.238539 138 138 138
-0.204311 0.205340 -0.238991 138 138 138
-0.205853 0.202187 -0.239541 138 138 138
-0.207345 0.198931 -0.240122 138 138 138
-0.208693 0.195398 -0.240791 138 138 138
-0.209885 0.191564 -0.241554 138 138 138
-0.211077 0.187717 -0.242321 138 138 138
-0.212172 0.183676 -0.243148 138 138 138
-0.213253 0.179596 -0.243987 138 138 138
-0.214569 0.175945 -0.244689 138 138 138
-0.215950 0.172407 -0.245354 138 138 138
-0.217334 0.168862 -0.246020 138 138 138
-0.218714 0.165299 -0.246692 138 138 138
-0.219817 0.161197 -0.247533 138 138 138
-0.220922 0.157086 -0.248376 138 138 138
-0.221861 0.152645 -0.249322 138 138 138
-0.222452 0.147517 -0.250484 138 138 138
-0.223062 0.142410 -0.251638 138 138 138
-0.223464 0.136880 -0.252924 138 138 138
-0.223882 0.131361 -0.254205 138 138 138
-0.224439 0.126092 -0.255406 138 138 138
-0.224935 0.120683 -0.256649 138 138 138
-0.225404 0.115201 -0.257914 138 138 138
-0.226169 0.110277 -0.259002 138 138 138
-0.227037 0.105536 -0.260031 138 138 138
-0.227907 0.100783 -0.261062 138 138 138
-0.229403 0.097244 -0.261712 138 138 138
-0.231037 0.093969 -0.262278 138 138 138
-0.232674 0.090690 -0.262844 138 138 138
-0.234274 0.087326 -0.263436 138 138 138
-0.235559 0.083327 -0.264227 138 138 138
-0.236885 0.079398 -0.264995 138 138 138
-0.237792 0.074614 -0.266029 138 138 138
-0.238310 0.069033 -0.267311 138 138 138
-0.238162 0.062092 -0.269016 138 138 138
-0.236823 0.052720 -0.271479 138 138 138
-0.235648 0.043637 -0.273848 138 138 138
-0.235584 0.036766 -0.275524 138 138 138
-0.235840 0.030519 -0.277005 138 138 138
-0.236195 0.024446 -0.278429 138 138 138
-0.236362 0.017966 -0.279978 138 138 138
-0.236591 0.011586 -0.281495 138 138 138
-0.236977 0.005502 -0.282917 138 138 138
-0.237418 -0.000493 -0.284311 138 138 138
-0.237783 -0.006669 -0.285759 138 138 138
-0.238027 -0.013121 -0.287290 138 138 138
-0.238236 -0.019671 -0.288851 138 138 138
-0.238120 -0.026927 -0.290628 138 138 138
-0.238400 -0.033385 -0.292156 138 138 138
-0.238847 -0.039521 -0.293583 138 138 138
-0.239153 -0.045978 -0.295107 138 138 138
-0.239418 -0.052549 -0.296665 138 138 138
-0.238928 -0.060738 -0.298721 100 100 100
0.168020 0.251083 -0.283173 138 138 138
0.157141 0.261226 -0.279171 138 138 138
0.148968 0.267600 -0.276469 138 138 138
0.139446 0.275919 -0.273102 138 138 138
0.130921 0.282868 -0.270210 138 138 138
0.126022 0.284701 -0.269074 138 138 138
0.120296 0.287728 -0.267531 138 138 138
0.116538 0.287965 -0.266944 138 138 138
0.113074 0.287789 -0.266500 138 138 138
0.109633 0.287586 -0.266065 138 138 138
0.106266 0.287283 -0.265666 138 138 138
0.102961 0.286896 -0.265295 138 138 138
0.099573 0.286633 -0.264882 138 138 138
0.096129 0.286456 -0.264441 138 138 138
0.092522 0.286522 -0.263917 138 138 138
0.088835 0.286712 -0.263353 138 138 138
0.084809 0.287402 -0.262618 138 138 138
0.079367 0.290168 -0.261179 138 138 138
0.071685 0.296232 -0.258621 138 138 138
0.057127 0.312412 -0.252630 138 138 138
0.051408 0.315682 -0.251029 138 138 138
0.047085 0.316915 -0.250120 138 138 138
0.042773 0.318146 -0.249214 138 138 138
0.039247 0.318225 -0.248698 138 138 138
0.036130 0.317705 -0.248387 138 138 138
0.033255 0.316829 -0.248196 138 138 138
0.030500 0.315777 -0.248064 138 138 138
0.028159 0.314109 -0.248142 138 138 138
0.025978 0.312200 -0.248300 138 138 138
0.023845 0.310217 -0.248483 138 138 138
0.021684 0.308274 -0.248652 138 138 138
0.019487 0.306383 -0.248804 138 138 138
0.017300 0.304474 -0.248962 138 138 138
0.015113 0.302563 -0.249119 138 138 138
0.012965 0.300591 -0.249298 138 138 138
0.010819 0.298614 -0.249478 138 138 138
0.008527 0.296856 -0.249584 138 138 138
0.006196 0.295158 -0.249669 138 138 138
0.003625 0.293824 -0.249633 138 138 138
0.000806 0.292872 -0.249468 138 138 138
-0.002159 0.292148 -0.249227 138 138 138
-0.005308 0.291710 -0.248891 138 138 138
-0.008481 0.291313 -0.248541 138 138 138
-0.011653 0.290921 -0.248191 138 138 138
-0.015126 0.291000 -0.247683 138 138 138
-0.018884 0.291530 -0.247025 138 138 138
-0.022635 0.292058 -0.246369 138 138 138
-0.026909 0.293413 -0.245437 138 138 138
-0.031573 0.295392 -0.244299 138 138 138
-0.036204 0.297336 -0.243174 138 138 138
-0.039845 0.297734 -0.242565 138 138 138
-0.043400 0.298008 -0.241998 138 138 138
-0.046950 0.298281 -0.241432 138 138 138
-0.050302 0.298249 -0.240968 138 138 138
-0.053152 0.297425 -0.240768 138 138 138
-0.055999 0.296599 -0.240569 138 138 138
-0.058845 0.295773 -0.240370 138 138 138
-0.061451 0.294568 -0.240297 138 138 138
-0.064173 0.293549 -0.240162 138 138 138
-0.066913 0.292560 -0.240018 138 138 138
-0.069651 0.291571 -0.239873 138 138 138
-0.072276 0.290401 -0.239789 138 138 138
-0.074774 0.289027 -0.239773 138 138 138
-0.077247 0.287612 -0.239770 138 138 138
-0.079861 0.286427 -0.239691 138 138 138
-0.082765 0.285717 -0.239455 138 138 138
-0.085057 0.284008 -0.239549 138 138 138
-0.087537 0.282607 -0.239542 138 138 138
-0.090657 0.282257 -0.239188 138 138 138
-0.093407 0.281302 -0.239034 138 138 138
-0.095926 0.279969 -0.239004 138 138 138
-0.098632 0.278947 -0.238873 138 138 138
-0.101338 0.277925 -0.238741 138 138 138
-0.103728 0.276381 -0.238781 138 138 138
-0.106349 0.275219 -0.238695 138 138 138
-0.109031 0.274163 -0.238575 138 138 138
-0.111742 0.273155 -0.238440 138 138 138
-0.114475 0.272187 -0.238291 138 138 138
-0.117105 0.271048 -0.238199 138 138 138
-0.119633 0.269738 -0.238162 138 138 138
-0.122160 0.268428 -0.238126 138 138 138
-0.124717 0.267168 -0.238073 138 138 138
-0.127416 0.266150 -0.237941 138 138 138
-0.130020 0.264972 -0.237862 138 138 138
-0.132534 0.263642 -0.237833 138 138 138
-0.135066 0.262343 -0.237793 138 138 138
-0.137785 0.261367 -0.237648 138 138 138
-0.140028 0.259572 -0.237770 138 138 138
-0.142271 0.257777 -0.237892 138 138 138
-0.144515 0.255981 -0.238014 138 138 138
-0.146323 0.253429 -0.238381 138 138 138
-0.147824 0.250339 -0.238923 138 138 138
-0.149328 0.247244 -0.239466 138 138 138
-0.150834 0.244145 -0.240009 138 138 138
-0.152248 0.240878 -0.240606 138 138 138
-0.153765 0.237782 -0.241147 138 138 138
-0.155798 0.235583 -0.241397 138 138 138
-0.157791 0.233312 -0.241670 138 138 138
-0.159771 0.231012 -0.241952 138 138 138
-0.161974 0.229104 -0.242107 138 138 138
-0.164546 0.227849 -0.242051 138 138 138
-0.167418 0.227128 -0.241822 138 138 138
-0.170270 0.226375 -0.241605 138 138 138
-0.173147 0.225668 -0.241372 138 138 138
-0.175832 0.224623 -0.241249 138 138 138
-0.178406 0.223380 -0.241190 138 138 138
-0.181044 0.222253 -0.241093 138 138 138
-0.183846 0.221422 -0.240902 138 138 138
-0.186278 0.219927 -0.240923 138 138 138
-0.188479 0.218011 -0.241081 138 138 138
-0.190754 0.216227 -0.241196 138 138 138
-0.193030 0.214442 -0.241310 138 138 138
-0.195203 0.212468 -0.241486 138 138 138
-0.197049 0.209893 -0.241853 138 138 138
-0.198836 0.207201 -0.242258 138 138 138
-0.200615 0.204489 -0.242668 138 138 138
-0.202337 0.201666 -0.243114 138 138 138
-0.203930 0.198596 -0.243638 138 138 138
-0.205319 0.195139 -0.244285 138 138 138
-0.206585 0.191444 -0.245007 138 138 138
-0.207768 0.187581 -0.245782 138 138 138
-0.208948 0.183701 -0.246561 138 138 138
-0.210125 0.179803 -0.247346 138 138 138
-0.211428 0.176128 -0.248058 138 138 138
-0.212772 0.172520 -0.248748 138 138 138
-0.214118 0.168906 -0.249439 138 138 138
-0.215465 0.165281 -0.250133 138 138 138
-0.216812 0.161645 -0.250829 138 138 138
-0.218162 0.158004 -0.251527 138 138 138
-0.219086 0.153538 -0.252485 138 138 138
-0.219744 0.148547 -0.253608 138 138 138
-0.220325 0.143390 -0.254783 138 138 138
-0.220787 0.137985 -0.256035 138 138 138
-0.221523 0.133088 -0.257124 138 138 138
-0.222105 0.127875 -0.258313 138 138 138
-0.222670 0.122610 -0.259516 138 138 138
-0.223408 0.117662 -0.260618 138 138 138
-0.224151 0.112706 -0.261721 138 138 138
-0.225010 0.107957 -0.262757 138 138 138
-0.225962 0.103373 -0.263740 138 138 138
-0.227111 0.099162 -0.264605 138 138 138
-0.228510 0.095427 -0.265318 138 138 138
-0.230141 0.092139 -0.265890 138 138 138
-0.231777 0.088852 -0.266461 138 138 138
-0.233059 0.084854 -0.267254 138 138 138
-0.234338 0.080833 -0.268054 138 138 138
-0.235412 0.076393 -0.268985 138 138 138
-0.236033 0.071029 -0.270205 138 138 138
-0.236010 0.064353 -0.271834 138 138 138
-0.234751 0.055162 -0.274251 138 138 138
-0.232940 0.044818 -0.277026 138 138 138
-0.232617 0.037436 -0.278870 138 138 138
-0.232975 0.031402 -0.280290 138 138 138
-0.233806 0.026308 -0.281415 138 138 138
-0.234331 0.020570 -0.282739 138 138 138
-0.234601 0.014287 -0.284232 138 138 138
-0.235062 0.008373 -0.285608 138 138 138
-0.235499 0.002384 -0.287006 138 138 138
-0.235709 -0.004097 -0.288555 138 138 138
-0.235929 -0.010583 -0.290105 138 138 138
-0.235870 -0.017674 -0.291841 138 138 138
-0.235874 -0.024665 -0.293544 138 138 138
-0.236278 -0.030850 -0.294994 138 138 138
-0.236690 -0.037045 -0.296445 138 138 138
-0.237128 -0.043212 -0.297886 138 138 138
-0.237625 -0.049279 -0.299295 138 138 138
-0.237180 -0.057355 -0.301325 100 100 100
0.159172 0.258445 -0.283234 138 138 138
0.150647 0.265309 -0.280351 138 138 138
0.142379 0.271847 -0.277584 138 138 138
0.134778 0.277475 -0.275134 138 138 138
0.128111 0.281809 -0.273132 138 138 138
0.123216 0.283643 -0.271992 138 138 138
0.118727 0.284915 -0.271047 138 138 138
0.115377 0.284568 -0.270659 138 138 138
0.112062 0.284176 -0.270287 138 138 138
0.108751 0.283784 -0.269915 138 138 138
0.105457 0.283372 -0.269551 138 138 138
0.102057 0.283118 -0.269133 138 138 138
0.098606 0.282942 -0.268688 138 138 138
0.095174 0.282746 -0.268252 138 138 138
0.091221 0.283311 -0.267555 138 138 138
0.087080 0.284160 -0.266763 138 138 138
0.082957 0.284994 -0.265976 138 138 138
0.077873 0.287244 -0.264708 138 138 138
0.070678 0.292605 -0.262381 138 138 138
0.056000 0.308996 -0.256298 138 138 138
0.050178 0.312421 -0.254639 138 138 138
0.045716 0.313862 -0.253656 138 138 138
0.041271 0.315291 -0.252679 138 138 138
0.038297 0.314550 -0.252440 138 138 138
0.035533 0.313501 -0.252306 138 138 138
0.032770 0.312453 -0.252172 138 138 138
0.030007 0.311406 -0.252038 138 138 138
0.027727 0.309639 -0.252148 138 138 138
0.025508 0.307778 -0.252290 138 138 138
0.023292 0.305911 -0.252434 138 138 138
0.021098 0.304008 -0.252590 138 138 138
0.018906 0.302102 -0.252746 138 138 138
0.016730 0.300167 -0.252912 138 138 138
0.014583 0.298188 -0.253093 138 138 138
0.012350 0.296336 -0.253231 138 138 138
0.009940 0.294752 -0.253278 138 138 138
0.007236 0.293617 -0.253174 138 138 138
0.004520 0.292502 -0.253063 138 138 138
0.001757 0.291459 -0.252928 138 138 138
-0.001091 0.290551 -0.252748 138 138 138
-0.004081 0.289863 -0.252494 138 138 138
-0.007074 0.289183 -0.252237 138 138 138
-0.010133 0.288609 -0.251946 138 138 138
-0.013385 0.288339 -0.251553 138 138 138
-0.016853 0.288410 -0.251046 138 138 138
-0.020275 0.288417 -0.250561 138 138 138
-0.023804 0.288597 -0.250018 138 138 138
-0.027239 0.288638 -0.249523 138 138 138
-0.031023 0.289234 -0.248843 138 138 138
-0.035271 0.290571 -0.247916 138 138 138
-0.038926 0.290984 -0.247299 138 138 138
-0.042534 0.291332 -0.246704 138 138 138
-0.045853 0.291229 -0.246261 138 138 138
-0.048725 0.290422 -0.246052 138 138 138
-0.051607 0.289635 -0.245838 138 138 138
-0.054451 0.288789 -0.245643 138 138 138
-0.057255 0.287882 -0.245469 138 138 138
-0.059985 0.286860 -0.245333 138 138 138
-0.062591 0.285639 -0.245264 138 138 138
-0.065610 0.285085 -0.244973 138 138 138
-0.068626 0.284531 -0.244683 138 138 138
-0.071537 0.283812 -0.244448 138 138 138
-0.074272 0.282808 -0.244307 138 138 138
-0.077584 0.282746 -0.243854 138 138 138
-0.080892 0.282685 -0.243402 138 138 138
-0.083560 0.281583 -0.243295 138 138 138
-0.086418 0.280795 -0.243084 138 138 138
-0.089542 0.280446 -0.242728 138 138 138
-0.092662 0.280096 -0.242373 138 138 138
-0.095260 0.278889 -0.242302 138 138 138
-0.097968 0.277867 -0.242169 138 138 138
-0.100676 0.276844 -0.242037 138 138 138
-0.103472 0.275971 -0.241856 138 138 138
-0.106153 0.274908 -0.241737 138 138 138
-0.108896 0.273950 -0.241584 138 138 138
-0.111639 0.272996 -0.241430 138 138 138
-0.114349 0.271987 -0.241294 138 138 138
-0.116925 0.270756 -0.241231 138 138 138
-0.119455 0.269449 -0.241194 138 138 138
-0.121984 0.268139 -0.241157 138 138 138
-0.124512 0.266829 -0.241121 138 138 138
-0.127150 0.265705 -0.241023 138 138 138
-0.129672 0.264387 -0.240989 138 138 138
-0.132103 0.262913 -0.241006 138 138 138
-0.134464 0.261318 -0.241063 138 138 138
-0.136804 0.259687 -0.241132 138 138 138
-0.139112 0.258001 -0.241218 138 138 138
-0.141118 0.255791 -0.241475 138 138 138
-0.142654 0.252767 -0.241998 138 138 138
-0.144192 0.249739 -0.242522 138 138 138
-0.145716 0.246677 -0.243055 138 138 138
-0.147150 0.243452 -0.243642 138 138 138
-0.148531 0.240124 -0.244261 138 138 138
-0.150032 0.236997 -0.244814 138 138 138
-0.151535 0.233867 -0.245367 138 138 138
-0.153224 0.231053 -0.245817 138 138 138
-0.155381 0.229059 -0.246000 138 138 138
-0.157540 0.227064 -0.246183 138 138 138
-0.159700 0.225068 -0.246366 138 138 138
-0.161860 0.223071 -0.246550 138 138 138
-0.164335 0.221629 -0.246553 138 138 138
-0.167161 0.220816 -0.246353 138 138 138
-0.169986 0.220003 -0.246152 138 138 138
-0.172827 0.219221 -0.245942 138 138 138
-0.175638 0.218390 -0.245749 138 138 138
-0.178467 0.217594 -0.245544 138 138 138
-0.181299 0.216805 -0.245337 138 138 138
-0.184129 0.216017 -0.245130 138 138 138
-0.186514 0.214424 -0.245183 138 138 138
-0.188725 0.212514 -0.245338 138 138 138
-0.190937 0.210602 -0.245493 138 138 138
-0.193027 0.208466 -0.245720 138 138 138
-0.195057 0.206215 -0.245984 138 138 138
-0.196816 0.203463 -0.246409 138 138 138
-0.198423 0.200425 -0.246925 138 138 138
-0.200033 0.197383 -0.247442 138 138 138
-0.201646 0.194338 -0.247959 138 138 138
-0.203233 0.191237 -0.248494 138 138 138
-0.204357 0.187266 -0.249306 138 138 138
-0.205464 0.183251 -0.250132 138 138 138
-0.206672 0.179409 -0.250901 138 138 138
-0.208071 0.175916 -0.251558 138 138 138
-0.209472 0.172416 -0.252216 138 138 138
-0.210865 0.168890 -0.252882 138 138 138
-0.212205 0.165253 -0.253582 138 138 138
-0.213548 0.161609 -0.254284 138 138 138
-0.214892 0.157958 -0.254987 138 138 138
-0.215880 0.153617 -0.255909 138 138 138
-0.216843 0.149212 -0.256851 138 138 138
-0.217678 0.144547 -0.257874 138 138 138
-0.218288 0.139435 -0.259038 138 138 138
-0.219029 0.134556 -0.260127 138 138 138
-0.219856 0.129824 -0.261168 138 138 138
-0.220536 0.124791 -0.262303 138 138 138
-0.221476 0.120246 -0.263282 138 138 138
-0.222173 0.115210 -0.264415 138 138 138
-0.223058 0.110522 -0.265437 138 138 138
-0.224027 0.105981 -0.266411 138 138 138
-0.225062 0.101556 -0.267347 138 138 138
-0.226379 0.097667 -0.268112 138 138 138
-0.227698 0.093771 -0.268879 138 138 138
-0.229240 0.090302 -0.269510 138 138 138
-0.230584 0.086431 -0.270267 138 138 138
-0.231857 0.082405 -0.271072 138 138 138
-0.232928 0.077965 -0.272007 138 138 138
-0.233643 0.072797 -0.273170 138 138 138
-0.233801 0.066496 -0.274689 138 138 138
-0.232442 0.057126 -0.277173 138 138 138
-0.230112 0.045760 -0.280282 138 138 138
-0.229677 0.038165 -0.282201 138 138 138
-0.230551 0.033185 -0.283296 138 138 138
-0.231428 0.028192 -0.284393 138 138 138
-0.232087 0.022739 -0.285634 138 138 138
-0.232490 0.016741 -0.287044 138 138 138
-0.232833 0.010597 -0.288499 138 138 138
-0.233408 0.004903 -0.289810 138 138 138
-0.233636 -0.001526 -0.291351 138 138 138
-0.233720 -0.008277 -0.292990 138 138 138
-0.233471 -0.015744 -0.294852 138 138 138
-0.233619 -0.022423 -0.296465 138 138 138
-0.234111 -0.028414 -0.297861 138 138 138
-0.234674 -0.034280 -0.299216 138 138 138
-0.235158 -0.040336 -0.300629 138 138 138
-0.235624 -0.046452 -0.302059 138 138 138
-0.235433 -0.053975 -0.303926 138 138 138
0.161946 0.254618 -0.287667 100 100 100
0.152273 0.263093 -0.284214 138 138 138
0.144405 0.269059 -0.281634 138 138 138
0.136451 0.275180 -0.279003 138 138 138
0.130552 0.278416 -0.277372 138 138 138
0.125565 0.280374 -0.276184 138 138 138
0.121138 0.281547 -0.275269 138 138 138
0.116897 0.282467 -0.274442 138 138 138
0.113597 0.282048 -0.274077 138 138 138
0.110282 0.281656 -0.273703 138 138 138
0.107121 0.281046 -0.273405 138 138 138
0.103938 0.280473 -0.273094 138 138 138
0.100541 0.280212 -0.272677 138 138 138
0.096807 0.280446 -0.272090 138 138 138
0.093158 0.280564 -0.271543 138 138 138
0.089265 0.281045 -0.270874 138 138 138
0.085216 0.281762 -0.270123 138 138 138
0.081010 0.282719 -0.269292 138 138 138
0.075638 0.285397 -0.267873 138 138 138
0.068044 0.291357 -0.265333 138 138 138
0.054630 0.305926 -0.259854 138 138 138
0.049021 0.309044 -0.258293 138 138 138
0.044667 0.310325 -0.257361 138 138 138
0.040511 0.311326 -0.256526 138 138 138
0.037575 0.310524 -0.256307 138 138 138
0.034763 0.309542 -0.256149 138 138 138
0.032026 0.308449 -0.256030 138 138 138
0.029372 0.307233 -0.255952 138 138 138
0.027120 0.305416 -0.256079 138 138 138
0.024911 0.303531 -0.256229 138 138 138
0.022715 0.301625 -0.256385 138 138 138
0.020496 0.299753 -0.256530 138 138 138
0.018191 0.298008 -0.256632 138 138 138
0.015719 0.296515 -0.256648 138 138 138
0.013247 0.295021 -0.256665 138 138 138
0.010735 0.293590 -0.256660 138 138 138
0.008134 0.292294 -0.256610 138 138 138
0.005415 0.291178 -0.256498 138 138 138
0.002648 0.290139 -0.256361 138 138 138
-0.000126 0.289111 -0.256220 138 138 138
-0.003009 0.288255 -0.256022 138 138 138
-0.006005 0.287575 -0.255764 138 138 138
-0.008999 0.286896 -0.255506 138 138 138
-0.012058 0.286321 -0.255214 138 138 138
-0.015136 0.285780 -0.254910 138 138 138
-0.018492 0.285676 -0.254460 138 138 138
-0.021915 0.285684 -0.253973 138 138 138
-0.025356 0.285727 -0.253474 138 138 138
-0.028140 0.284744 -0.253321 138 138 138
-0.031918 0.285329 -0.252642 138 138 138
-0.035410 0.285471 -0.252112 138 138 138
-0.038169 0.284462 -0.251968 138 138 138
-0.041130 0.283775 -0.251717 138 138 138
-0.044016 0.282973 -0.251505 138 138 138
-0.046887 0.282148 -0.251301 138 138 138
-0.049746 0.281309 -0.251101 138 138 138
-0.052601 0.280465 -0.250904 138 138 138
-0.055555 0.279783 -0.250653 138 138 138
-0.058536 0.279149 -0.250386 138 138 138
-0.061690 0.278796 -0.250025 138 138 138
-0.064706 0.278226 -0.249738 138 138 138
-0.067802 0.277790 -0.249406 138 138 138
-0.071398 0.278169 -0.248803 138 138 138
-0.074853 0.278328 -0.248274 138 138 138
-0.078303 0.278486 -0.247746 138 138 138
-0.081934 0.278948 -0.247118 138 138 138
-0.085227 0.278865 -0.246671 138 138 138
-0.088418 0.278620 -0.246279 138 138 138
-0.091548 0.278282 -0.245918 138 138 138
-0.094593 0.277808 -0.245603 138 138 138
-0.097413 0.276966 -0.245410 138 138 138
-0.100254 0.276161 -0.245205 138 138 138
-0.103094 0.275358 -0.245000 138 138 138
-0.105886 0.274479 -0.244820 138 138 138
-0.108572 0.273424 -0.244698 138 138 138
-0.111256 0.272369 -0.244576 138 138 138
-0.114020 0.271448 -0.244411 138 138 138
-0.116736 0.270450 -0.244271 138 138 138
-0.119268 0.269144 -0.244233 138 138 138
-0.121800 0.267837 -0.244195 138 138 138
-0.124324 0.266519 -0.244160 138 138 138
-0.126709 0.264964 -0.244204 138 138 138
-0.129066 0.263362 -0.244263 138 138 138
-0.131424 0.261759 -0.244323 138 138 138
-0.133782 0.260157 -0.244382 138 138 138
-0.136013 0.258336 -0.244513 138 138 138
-0.137736 0.255638 -0.244931 138 138 138
-0.139373 0.252787 -0.245399 138 138 138
-0.141013 0.249932 -0.245867 138 138 138
-0.142654 0.247074 -0.246336 138 138 138
-0.144132 0.243926 -0.246900 138 138 138
-0.145525 0.240622 -0.247514 138 138 138
-0.147025 0.237494 -0.248069 138 138 138
-0.148608 0.234503 -0.248579 138 138 138
-0.150322 0.231734 -0.249016 138 138 138
-0.152000 0.228895 -0.249475 138 138 138
-0.153716 0.226117 -0.249914 138 138 138
-0.155877 0.224118 -0.250099 138 138 138
-0.158142 0.222300 -0.250224 138 138 138
-0.160472 0.220595 -0.250312 138 138 138
-0.162801 0.218890 -0.250401 138 138 138
-0.165478 0.217801 -0.250289 138 138 138
-0.168339 0.217044 -0.250069 138 138 138
-0.171149 0.216198 -0.249878 138 138 138
-0.173762 0.215002 -0.249802 138 138 138
-0.176410 0.213870 -0.249704 138 138 138
-0.179221 0.213034 -0.249511 138 138 138
-0.182041 0.212216 -0.249312 138 138 138
-0.184484 0.210720 -0.249333 138 138 138
-0.186695 0.208799 -0.249491 138 138 138
-0.188781 0.206648 -0.249724 138 138 138
-0.190876 0.204508 -0.249952 138 138 138
-0.192927 0.202287 -0.250207 138 138 138
-0.194783 0.199701 -0.250579 138 138 138
-0.196440 0.196743 -0.251070 138 138 138
-0.198076 0.193739 -0.251576 138 138 138
-0.199322 0.190006 -0.252316 138 138 138
-0.200571 0.186265 -0.253057 138 138 138
-0.201881 0.182625 -0.253765 138 138 138
-0.203188 0.178971 -0.254477 138 138 138
-0.204526 0.175362 -0.255174 138 138 138
-0.205866 0.171746 -0.255872 138 138 138
-0.207315 0.168323 -0.256507 138 138 138
-0.208790 0.164940 -0.257128 138 138 138
-0.210268 0.161553 -0.257751 138 138 138
-0.211451 0.157596 -0.258555 138 138 138
-0.212605 0.153573 -0.259379 138 138 138
-0.213762 0.149541 -0.260205 138 138 138
-0.214835 0.145336 -0.261085 138 138 138
-0.215762 0.140836 -0.262059 138 138 138
-0.216533 0.136021 -0.263132 138 138 138
-0.217596 0.131752 -0.264029 138 138 138
-0.218382 0.126932 -0.265101 138 138 138
-0.219322 0.122395 -0.266082 138 138 138
-0.220263 0.117842 -0.267067 138 138 138
-0.221157 0.113182 -0.268085 138 138 138
-0.222099 0.108599 -0.269076 138 138 138
-0.223011 0.103942 -0.270090 138 138 138
-0.224311 0.100028 -0.270867 138 138 138
-0.225616 0.096111 -0.271644 138 138 138
-0.226909 0.092159 -0.272431 138 138 138
-0.228145 0.088080 -0.273258 138 138 138
-0.229476 0.084175 -0.274028 138 138 138
-0.230601 0.079849 -0.274930 138 138 138
-0.231413 0.074885 -0.276034 138 138 138
-0.231778 0.069012 -0.277425 138 138 138
-0.231130 0.061085 -0.279463 138 138 138
-0.227435 0.047013 -0.283442 138 138 138
-0.226988 0.039407 -0.285373 138 138 138
-0.228005 0.034723 -0.286379 138 138 138
-0.229025 0.030027 -0.287388 138 138 138
-0.229731 0.024678 -0.288601 138 138 138
-0.230329 0.019090 -0.289888 138 138 138
-0.230701 0.013018 -0.291327 138 138 138
-0.231016 0.006804 -0.292808 138 138 138
-0.231084 0.000062 -0.294454 138 138 138
-0.231130 -0.006756 -0.296121 138 138 138
-0.231007 -0.013950 -0.297906 138 138 138
-0.231408 -0.020092 -0.299357 138 138 138
-0.231849 -0.026174 -0.300788 138 138 138
-0.232569 -0.031702 -0.302043 138 138 138
-0.233143 -0.037557 -0.303399 138 138 138
-0.233717 -0.043435 -0.304761 138 138 138
-0.233701 -0.050572 -0.306516 138 138 138
0.153620 0.261270 -0.287948 138 138 138
0.145973 0.266920 -0.285467 138 138 138
0.138128 0.272880 -0.282881 138 138 138
0.132384 0.275888 -0.281322 138 138 138
0.127237 0.278068 -0.280053 138 138 138
0.123390 0.278407 -0.279422 138 138 138
0.119167 0.279293 -0.278602 138 138 138
0.115112 0.279948 -0.277864 138 138 138
0.111816 0.279524 -0.277499 138 138 138
0.108703 0.278839 -0.277225 138 138 138
0.105571 0.278186 -0.276940 138 138 138
0.101958 0.278232 -0.276415 138 138 138
0.098216 0.278472 -0.275823 138 138 138
0.094480 0.278710 -0.275233 138 138 138
0.090780 0.278906 -0.274658 138 138 138
0.086888 0.279388 -0.273985 138 138 138
0.083003 0.279869 -0.273314 138 138 138
0.078435 0.281359 -0.272296 138 138 138
0.071834 0.285852 -0.270249 138 138 138
0.063462 0.292979 -0.267301 138 138 138
0.052977 0.303265 -0.263273 138 138 138
0.048254 0.305078 -0.262154 138 138 138
0.043795 0.306516 -0.261165 138 138 138
0.039568 0.307621 -0.260291 138 138 138
0.036724 0.306679 -0.260119 138 138 138
0.034065 0.305460 -0.260041 138 138 138
0.031407 0.304243 -0.259963 138 138 138
0.028750 0.303026 -0.259885 138 138 138
0.026424 0.301311 -0.259976 138 138 138
0.024051 0.299666 -0.260044 138 138 138
0.021647 0.298067 -0.260096 138 138 138
0.019073 0.296725 -0.260061 138 138 138
0.016545 0.295313 -0.260049 138 138 138
0.014071 0.293819 -0.260065 138 138 138
0.011531 0.292426 -0.260047 138 138 138
0.008964 0.291074 -0.260015 138 138 138
0.006313 0.289852 -0.259939 138 138 138
0.003540 0.288817 -0.259799 138 138 138
0.000764 0.287789 -0.259658 138 138 138
-0.002011 0.286761 -0.259516 138 138 138
-0.004981 0.286037 -0.259272 138 138 138
-0.008121 0.285580 -0.258938 138 138 138
-0.011259 0.285123 -0.258604 138 138 138
-0.014393 0.284666 -0.258270 138 138 138
-0.017434 0.284066 -0.257985 138 138 138
-0.020469 0.283464 -0.257702 138 138 138
-0.023557 0.282947 -0.257390 138 138 138
-0.026791 0.282664 -0.256999 138 138 138
-0.029564 0.281661 -0.256852 138 138 138
-0.032515 0.280939 -0.256610 138 138 138
-0.035192 0.279789 -0.256512 138 138 138
-0.037978 0.278813 -0.256357 138 138 138
-0.040824 0.277934 -0.256168 138 138 138
-0.043668 0.277055 -0.255980 138 138 138
-0.046512 0.276177 -0.255792 138 138 138
-0.049074 0.274851 -0.255754 138 138 138
-0.051972 0.274065 -0.255535 138 138 138
-0.054931 0.273381 -0.255283 138 138 138
-0.057926 0.272758 -0.255010 138 138 138
-0.061044 0.272338 -0.254670 138 138 138
-0.064569 0.272581 -0.254109 138 138 138
-0.068127 0.272886 -0.253527 138 138 138
-0.071706 0.273232 -0.252932 138 138 138
-0.075659 0.274198 -0.252132 138 138 138
-0.079603 0.275161 -0.251333 138 138 138
-0.083476 0.276018 -0.250570 138 138 138
-0.086672 0.275774 -0.250176 138 138 138
-0.089952 0.275674 -0.249734 138 138 138
-0.093482 0.275993 -0.249153 138 138 138
-0.096728 0.275851 -0.248726 138 138 138
-0.099780 0.275393 -0.248404 138 138 138
-0.102621 0.274590 -0.248198 138 138 138
-0.105461 0.273786 -0.247992 138 138 138
-0.108187 0.272796 -0.247848 138 138 138
-0.110895 0.271778 -0.247713 138 138 138
-0.113690 0.270908 -0.247530 138 138 138
-0.116484 0.270038 -0.247347 138 138 138
-0.118993 0.268690 -0.247322 138 138 138
-0.121380 0.267138 -0.247365 138 138 138
-0.123768 0.265586 -0.247408 138 138 138
-0.126156 0.264034 -0.247451 138 138 138
-0.128532 0.262459 -0.247501 138 138 138
-0.130867 0.260815 -0.247574 138 138 138
-0.132749 0.258394 -0.247903 138 138 138
-0.134633 0.255972 -0.248231 138 138 138
-0.136519 0.253548 -0.248561 138 138 138
-0.138229 0.250817 -0.248990 138 138 138
-0.139818 0.247870 -0.249491 138 138 138
-0.141259 0.244658 -0.250077 138 138 138
-0.142778 0.241574 -0.250621 138 138 138
-0.144132 0.238194 -0.251262 138 138 138
-0.145699 0.235177 -0.251783 138 138 138
-0.147425 0.232430 -0.252214 138 138 138
-0.149106 0.229597 -0.252673 138 138 138
-0.150881 0.226923 -0.253079 138 138 138
-0.152699 0.224319 -0.253463 138 138 138
-0.154721 0.222069 -0.253730 138 138 138
-0.157000 0.220270 -0.253849 138 138 138
-0.159294 0.218495 -0.253960 138 138 138
-0.161626 0.216787 -0.254049 138 138 138
-0.163959 0.215079 -0.254138 138 138 138
-0.166754 0.214196 -0.253958 138 138 138
-0.169394 0.213038 -0.253868 138 138 138
-0.172011 0.211839 -0.253791 138 138 138
-0.174627 0.210641 -0.253714 138 138 138
-0.177287 0.209522 -0.253611 138 138 138
-0.179831 0.208196 -0.253576 138 138 138
-0.182196 0.206546 -0.253646 138 138 138
-0.184565 0.204901 -0.253714 138 138 138
-0.186773 0.202961 -0.253878 138 138 138
-0.188872 0.200821 -0.254107 138 138 138
-0.190759 0.198286 -0.254463 138 138 138
-0.192598 0.195660 -0.254849 138 138 138
-0.194275 0.192728 -0.255333 138 138 138
-0.195695 0.189313 -0.255973 138 138 138
-0.197033 0.185736 -0.256664 138 138 138
-0.198334 0.182080 -0.257380 138 138 138
-0.199613 0.178373 -0.258112 138 138 138
-0.200891 0.174651 -0.258847 138 138 138
-0.202261 0.171091 -0.259530 138 138 138
-0.203733 0.167711 -0.260153 138 138 138
-0.205208 0.164326 -0.260778 138 138 138
-0.206689 0.160943 -0.261401 138 138 138
-0.208147 0.157506 -0.262041 138 138 138
-0.209581 0.154015 -0.262697 138 138 138
-0.210788 0.150080 -0.263496 138 138 138
-0.211823 0.145805 -0.264402 138 138 138
-0.212882 0.141563 -0.265297 138 138 138
-0.214007 0.137431 -0.266155 138 138 138
-0.215126 0.133276 -0.267020 138 138 138
-0.216338 0.129285 -0.267832 138 138 138
-0.217458 0.125102 -0.268703 138 138 138
-0.218450 0.120660 -0.269657 138 138 138
-0.219440 0.116196 -0.270617 138 138 138
-0.220400 0.111660 -0.271598 138 138 138
-0.221202 0.106798 -0.272682 138 138 138
-0.222284 0.102468 -0.273596 138 138 138
-0.223502 0.098389 -0.274428 138 138 138
-0.224807 0.094466 -0.275209 138 138 138
-0.226043 0.090395 -0.276037 138 138 138
-0.227261 0.086275 -0.276879 138 138 138
-0.228299 0.081785 -0.277838 138 138 138
-0.229099 0.076806 -0.278951 138 138 138
-0.229757 0.071526 -0.280159 138 138 138
-0.229494 0.064387 -0.281956 138 138 138
-0.226561 0.051875 -0.285458 138 138 138
-0.224749 0.041555 -0.288260 138 138 138
-0.225567 0.036479 -0.289395 138 138 138
-0.226631 0.031880 -0.290377 138 138 138
-0.227416 0.026701 -0.291541 138 138 138
-0.228064 0.021224 -0.292799 138 138 138
-0.228121 0.014525 -0.294443 138 138 138
-0.228310 0.008066 -0.296008 138 138 138
-0.228746 0.002086 -0.297420 138 138 138
-0.228656 -0.004994 -0.299178 138 138 138
-0.228653 -0.011928 -0.300887 138 138 138
-0.229164 -0.017830 -0.302270 138 138 138
-0.229742 -0.023616 -0.303614 138 138 138
-0.230522 -0.029010 -0.304832 138 138 138
-0.231259 -0.034512 -0.306084 138 138 138
-0.231895 -0.040245 -0.307406 138 138 138
-0.232228 -0.046635 -0.308934 138 138 138
-0.231727 -0.054796 -0.311017 100 100 100
0.155990 0.258004 -0.292191 100 100 100
0.146840 0.265771 -0.288962 138 138 138
0.139877 0.270478 -0.286803 138 138 138
0.134361 0.273156 -0.285352 138 138 138
0.128859 0.275833 -0.283903 138 138 138
0.124414 0.277020 -0.282975 138 138 138
0.120570 0.277360 -0.282342 138 138 138
0.116732 0.277698 -0.281709 138 138 138
0.113257 0.277524 -0.281256 138 138 138
0.109981 0.277069 -0.280901 138 138 138
0.106730 0.276583 -0.280557 138 138 138
0.103450 0.276143 -0.280197 138 138 138
0.099651 0.276459 -0.279576 138 138 138
0.095888 0.276733 -0.278970 138 138 138
0.092218 0.276877 -0.278410 138 138 138
0.088400 0.277246 -0.277774 138 138 138
0.084295 0.278044 -0.276990 138 138 138
0.080156 0.278900 -0.276187 138 138 138
0.075278 0.280854 -0.275006 138 138 138
0.068680 0.285356 -0.272950 138 138 138
0.058850 0.294656 -0.269244 138 138 138
0.050866 0.301275 -0.266466 138 138 138
0.046684 0.302291 -0.265617 138 138 138
0.042512 0.303304 -0.264770 138 138 138
0.038492 0.304101 -0.263999 138 138 138
0.035742 0.303013 -0.263875 138 138 138
0.032993 0.301926 -0.263752 138 138 138
0.030233 0.300856 -0.263622 138 138 138
0.027518 0.299720 -0.263515 138 138 138
0.025113 0.298120 -0.263567 138 138 138
0.022706 0.296520 -0.263620 138 138 138
0.020038 0.295316 -0.263536 138 138 138
0.017371 0.294110 -0.263454 138 138 138
0.014896 0.292614 -0.263470 138 138 138
0.012328 0.291261 -0.263438 138 138 138
0.009759 0.289908 -0.263406 138 138 138
0.007132 0.288645 -0.263343 138 138 138
0.004295 0.287706 -0.263170 138 138 138
0.001416 0.286832 -0.262975 138 138 138
-0.001512 0.286038 -0.262753 138 138 138
-0.004463 0.285281 -0.262519 138 138 138
-0.007581 0.284787 -0.262196 138 138 138
-0.010696 0.284292 -0.261873 138 138 138
-0.013808 0.283797 -0.261551 138 138 138
-0.016845 0.283189 -0.261268 138 138 138
-0.019883 0.282588 -0.260983 138 138 138
-0.022920 0.281987 -0.260697 138 138 138
-0.025723 0.281025 -0.260535 138 138 138
-0.028584 0.280155 -0.260342 138 138 138
-0.031457 0.279306 -0.260141 138 138 138
-0.033772 0.277579 -0.260238 138 138 138
-0.036550 0.276584 -0.260087 138 138 138
-0.039382 0.275677 -0.259907 138 138 138
-0.042231 0.274798 -0.259718 138 138 138
-0.044838 0.273537 -0.259657 138 138 138
-0.047155 0.271812 -0.259753 138 138 138
-0.049688 0.270433 -0.259732 138 138 138
-0.052530 0.269549 -0.259545 138 138 138
-0.055449 0.268794 -0.259315 138 138 138
-0.058604 0.268423 -0.258956 138 138 138
-0.062095 0.268601 -0.258413 138 138 138
-0.065756 0.269062 -0.257776 138 138 138
-0.069534 0.269724 -0.257072 138 138 138
-0.073384 0.270512 -0.256328 138 138 138
-0.077316 0.271445 -0.255535 138 138 138
-0.081240 0.272376 -0.254744 138 138 138
-0.085145 0.273286 -0.253961 138 138 138
-0.088685 0.273607 -0.253376 138 138 138
-0.092219 0.273928 -0.252791 138 138 138
-0.095749 0.274249 -0.252208 138 138 138
-0.098838 0.273849 -0.251865 138 138 138
-0.101909 0.273422 -0.251532 138 138 138
-0.104978 0.272996 -0.251199 138 138 138
-0.107802 0.272168 -0.251001 138 138 138
-0.110564 0.271238 -0.250836 138 138 138
-0.113229 0.270147 -0.250725 138 138 138
-0.115868 0.269012 -0.250629 138 138 138
-0.118472 0.267822 -0.250552 138 138 138
-0.120856 0.266261 -0.250597 138 138 138
-0.123240 0.264700 -0.250643 138 138 138
-0.125625 0.263139 -0.250689 138 138 138
-0.127760 0.261152 -0.250875 138 138 138
-0.129655 0.258752 -0.251198 138 138 138
-0.131531 0.256315 -0.251533 138 138 138
-0.133409 0.253876 -0.251869 138 138 138
-0.135288 0.251435 -0.252204 138 138 138
-0.136956 0.248625 -0.252661 138 138 138
-0.138404 0.245427 -0.253246 138 138 138
-0.139897 0.242299 -0.253807 138 138 138
-0.141417 0.239210 -0.254354 138 138 138
-0.143052 0.236313 -0.254837 138 138 138
-0.144732 0.233486 -0.255297 138 138 138
-0.146449 0.230719 -0.255736 138 138 138
-0.148224 0.228045 -0.256144 138 138 138
-0.150071 0.225493 -0.256512 138 138 138
-0.152004 0.223087 -0.256831 138 138 138
-0.153939 0.220679 -0.257150 138 138 138
-0.156052 0.218581 -0.257368 138 138 138
-0.158334 0.216780 -0.257487 138 138 138
-0.160616 0.214978 -0.257607 138 138 138
-0.162909 0.213193 -0.257721 138 138 138
-0.165237 0.211470 -0.257815 138 138 138
-0.167866 0.210285 -0.257733 138 138 138
-0.170495 0.209100 -0.257650 138 138 138
-0.173082 0.207841 -0.257592 138 138 138
-0.175555 0.206377 -0.257601 138 138 138
-0.178239 0.205295 -0.257485 138 138 138
-0.180402 0.203269 -0.257678 138 138 138
-0.182566 0.201242 -0.257870 138 138 138
-0.184730 0.199213 -0.258063 138 138 138
-0.186646 0.196726 -0.258405 138 138 138
-0.188370 0.193882 -0.258862 138 138 138
-0.190096 0.191035 -0.259320 138 138 138
-0.191824 0.188184 -0.259779 138 138 138
-0.193402 0.185049 -0.260329 138 138 138
-0.194665 0.181321 -0.261071 138 138 138
-0.195892 0.177516 -0.261837 138 138 138
-0.197202 0.173854 -0.262556 138 138 138
-0.198672 0.170479 -0.263181 138 138 138
-0.200145 0.167098 -0.263807 138 138 138
-0.201620 0.163712 -0.264435 138 138 138
-0.203123 0.160368 -0.265047 138 138 138
-0.204566 0.156904 -0.265698 138 138 138
-0.206093 0.153585 -0.266301 138 138 138
-0.207607 0.150235 -0.266914 138 138 138
-0.209128 0.146886 -0.267525 138 138 138
-0.210419 0.143090 -0.268280 138 138 138
-0.211541 0.138959 -0.269142 138 138 138
-0.212885 0.135240 -0.269870 138 138 138
-0.214244 0.131537 -0.270593 138 138 138
-0.215392 0.127417 -0.271448 138 138 138
-0.216654 0.123504 -0.272236 138 138 138
-0.217738 0.119234 -0.273138 138 138 138
-0.218665 0.114643 -0.274141 138 138 138
-0.219435 0.109731 -0.275247 138 138 138
-0.220402 0.105187 -0.276233 138 138 138
-0.221555 0.100989 -0.277107 138 138 138
-0.222711 0.096783 -0.277983 138 138 138
-0.223876 0.092579 -0.278856 138 138 138
-0.224997 0.088276 -0.279761 138 138 138
-0.226072 0.083867 -0.280698 138 138 138
-0.226866 0.078885 -0.281818 138 138 138
-0.227634 0.073835 -0.282958 138 138 138
-0.227835 0.067636 -0.284463 138 138 138
-0.226635 0.058616 -0.286866 138 138 138
-0.223670 0.046023 -0.290406 138 138 138
-0.223416 0.038812 -0.292226 138 138 138
-0.224254 0.033767 -0.293355 138 138 138
-0.225066 0.028654 -0.294504 138 138 138
-0.225757 0.023273 -0.295737 138 138 138
-0.225928 0.016819 -0.297310 138 138 138
-0.225844 0.009819 -0.299054 138 138 138
-0.226201 0.003690 -0.300519 138 138 138
-0.226498 -0.002586 -0.302030 138 138 138
-0.226843 -0.008790 -0.303516 138 138 138
-0.227269 -0.014853 -0.304955 138 138 138
-0.227799 -0.020726 -0.306333 138 138 138
-0.228557 -0.026149 -0.307566 138 138 138
-0.229353 -0.031517 -0.308781 138 138 138
-0.230130 -0.036944 -0.310013 138 138 138
-0.230789 -0.042637 -0.311327 138 138 138
-0.230430 -0.050480 -0.313319 138 138 138
0.147708 0.264621 -0.292462 138 138 138
0.141551 0.268181 -0.290694 138 138 138
0.135749 0.271260 -0.289098 138 138 138
0.130641 0.273371 -0.287841 138 138 138
0.125439 0.275631 -0.286533 138 138 138
0.121592 0.275972 -0.285897 138 138 138
0.117850 0.276169 -0.285311 138 138 138
0.114134 0.276336 -0.284737 138 138 138
0.110818 0.275935 -0.284361 138 138 138
0.107460 0.275600 -0.283962 138 138 138
0.104202 0.275125 -0.283613 138 138 138
0.100793 0.274874 -0.283187 138 138 138
0.097168 0.274940 -0.282651 138 138 138
0.093549 0.275006 -0.282115 138 138 138
0.089711 0.275400 -0.281467 138 138 138
0.085511 0.276330 -0.280634 138 138 138
0.081385 0.277163 -0.279835 138 138 138
0.077063 0.278295 -0.278934 138 138 138
0.071943 0.280613 -0.277624 138 138 138
0.065386 0.285069 -0.275577 138 138 138
0.056770 0.292599 -0.272471 138 138 138
0.049204 0.298613 -0.269892 138 138 138
0.045033 0.299616 -0.269045 138 138 138
0.040871 0.300617 -0.268199 138 138 138
0.037142 0.300980 -0.267574 138 138 138
0.034365 0.299929 -0.267437 138 138 138
0.031588 0.298879 -0.267300 138 138 138
0.028812 0.297829 -0.267162 138 138 138
0.026177 0.296570 -0.267097 138 138 138
0.023675 0.295110 -0.267101 138 138 138
0.021004 0.293905 -0.267017 138 138 138
0.018334 0.292701 -0.266934 138 138 138
0.015671 0.291487 -0.266853 138 138 138
0.012997 0.290290 -0.266767 138 138 138
0.010325 0.289093 -0.266681 138 138 138
0.007618 0.287949 -0.266577 138 138 138
0.004717 0.287104 -0.266371 138 138 138
0.001746 0.286371 -0.266127 138 138 138
-0.001184 0.285577 -0.265904 138 138 138
-0.004112 0.284783 -0.265681 138 138 138
-0.007150 0.284162 -0.265400 138 138 138
-0.010266 0.283667 -0.265076 138 138 138
-0.013337 0.283106 -0.264775 138 138 138
-0.016373 0.282494 -0.264492 138 138 138
-0.019364 0.281816 -0.264231 138 138 138
-0.022218 0.280926 -0.264043 138 138 138
-0.025081 0.280054 -0.263849 138 138 138
-0.027811 0.278975 -0.263725 138 138 138
-0.030718 0.278177 -0.263507 138 138 138
-0.033110 0.276567 -0.263564 138 138 138
-0.035428 0.274839 -0.263660 138 138 138
-0.037944 0.273425 -0.263651 138 138 138
-0.040789 0.272534 -0.263464 138 138 138
-0.043145 0.270866 -0.263541 138 138 138
-0.045465 0.269139 -0.263637 138 138 138
-0.047950 0.267674 -0.263644 138 138 138
-0.050717 0.266664 -0.263498 138 138 138
-0.053767 0.266112 -0.263198 138 138 138
-0.056887 0.265677 -0.262859 138 138 138
-0.060003 0.265240 -0.262520 138 138 138
-0.063614 0.265612 -0.261910 138 138 138
-0.067408 0.266288 -0.261198 138 138 138
-0.071187 0.266953 -0.260491 138 138 138
-0.075078 0.267809 -0.259721 138 138 138
-0.079150 0.268972 -0.258848 138 138 138
-0.083280 0.270244 -0.257939 138 138 138
-0.087049 0.270934 -0.257228 138 138 138
-0.090915 0.271796 -0.256459 138 138 138
-0.094488 0.272182 -0.255851 138 138 138
-0.097876 0.272270 -0.255343 138 138 138
-0.100950 0.271844 -0.255008 138 138 138
-0.104022 0.271419 -0.254673 138 138 138
-0.107125 0.271051 -0.254319 138 138 138
-0.109945 0.270214 -0.254123 138 138 138
-0.112567 0.269047 -0.254037 138 138 138
-0.115191 0.267885 -0.253949 138 138 138
-0.117830 0.266751 -0.253852 138 138 138
-0.120342 0.265402 -0.253827 138 138 138
-0.122587 0.263603 -0.253952 138 138 138
-0.124762 0.261681 -0.254118 138 138 138
-0.126739 0.259419 -0.254396 138 138 138
-0.128692 0.257114 -0.254688 138 138 138
-0.130575 0.254684 -0.255022 138 138 138
-0.132454 0.252242 -0.255359 138 138 138
-0.133975 0.249179 -0.255902 138 138 138
-0.135542 0.246189 -0.256420 138 138 138
-0.137162 0.243282 -0.256910 138 138 138
-0.138775 0.240356 -0.257405 138 138 138
-0.140572 0.237741 -0.257797 138 138 138
-0.142271 0.234951 -0.258246 138 138 138
-0.143939 0.232101 -0.258715 138 138 138
-0.145610 0.229247 -0.259184 138 138 138
-0.147442 0.226669 -0.259562 138 138 138
-0.149374 0.224262 -0.259882 138 138 138
-0.151309 0.221855 -0.260203 138 138 138
-0.153245 0.219444 -0.260524 138 138 138
-0.155182 0.217032 -0.260845 138 138 138
-0.157406 0.215123 -0.261001 138 138 138
-0.159764 0.213450 -0.261078 138 138 138
-0.162065 0.211675 -0.261189 138 138 138
-0.164326 0.209827 -0.261324 138 138 138
-0.166680 0.208143 -0.261405 138 138 138
-0.169155 0.206676 -0.261414 138 138 138
-0.171631 0.205210 -0.261423 138 138 138
-0.174107 0.203744 -0.261432 138 138 138
-0.176629 0.202362 -0.261414 138 138 138
-0.178769 0.200285 -0.261623 138 138 138
-0.180747 0.197912 -0.261929 138 138 138
-0.182727 0.195537 -0.262235 138 138 138
-0.184709 0.193159 -0.262541 138 138 138
-0.186564 0.190546 -0.262924 138 138 138
-0.188191 0.187507 -0.263445 138 138 138
-0.189476 0.183830 -0.264175 138 138 138
-0.190796 0.180206 -0.264885 138 138 138
-0.192129 0.176596 -0.265591 138 138 138
-0.193439 0.172931 -0.266313 138 138 138
-0.194851 0.169445 -0.266977 138 138 138
-0.196265 0.165953 -0.267641 138 138 138
-0.197830 0.162732 -0.268217 138 138 138
-0.199510 0.159719 -0.268725 138 138 138
-0.201228 0.156769 -0.269211 138 138 138
-0.202816 0.153567 -0.269778 138 138 138
-0.204333 0.150221 -0.270392 138 138 138
-0.205907 0.146974 -0.270973 138 138 138
