ply
format ascii 1.0
element vertex 1162
property float x
property float y
property float z
property uchar red
property uchar green
property uchar blue
end_header
-0.219132 0.034824 -0.304940 138 138 138
-0.219552 0.031629 -0.305306 138 138 138
-0.219973 0.028430 -0.305673 138 138 138
-0.220326 0.025187 -0.306063 138 138 138
-0.220519 0.021841 -0.306510 138 138 138
-0.220603 0.018423 -0.306995 138 138 138
-0.220654 0.014980 -0.307493 138 138 138
-0.221276 0.011891 -0.307791 138 138 138
-0.221967 0.008843 -0.308066 138 138 138
-0.222659 0.005793 -0.308341 138 138 138
-0.223334 0.002729 -0.308622 138 138 138
-0.223823 -0.000453 -0.308968 138 138 138
-0.224228 -0.003693 -0.309344 138 138 138
-0.224464 -0.007043 -0.309781 138 138 138
-0.224563 -0.010483 -0.310266 138 138 138
-0.224965 -0.013735 -0.310645 138 138 138
-0.225402 -0.016967 -0.311012 138 138 138
-0.225945 -0.020134 -0.311342 138 138 138
-0.226601 -0.023232 -0.311633 138 138 138
-0.227261 -0.026329 -0.311923 138 138 138
-0.227921 -0.029429 -0.312213 138 138 138
-0.228547 -0.032554 -0.312516 138 138 138
-0.229183 -0.035674 -0.312816 138 138 138
-0.229821 -0.038795 -0.313114 138 138 138
-0.230425 -0.041942 -0.313426 138 138 138
-0.230381 -0.045514 -0.313967 138 138 138
-0.230338 -0.049091 -0.314509 138 138 138
-0.230287 -0.052677 -0.315054 138 138 138
-0.228568 -0.057365 -0.316191 138 138 138
-0.226833 -0.062074 -0.317335 138 138 138
-0.224017 -0.067506 -0.318865 138 138 138
-0.221084 -0.073028 -0.320437 138 138 138
-0.217331 -0.079110 -0.322304 138 138 138
-0.212956 -0.085620 -0.324394 138 138 138
-0.207973 -0.092554 -0.326702 138 138 138
-0.202715 -0.099692 -0.329112 138 138 138
-0.192166 -0.110395 -0.333410 138 138 138
-0.178840 -0.122999 -0.338704 138 138 138
-0.172283 -0.131094 -0.341589 138 138 138
-0.163311 -0.140842 -0.345340 138 138 138
-0.155618 -0.149758 -0.348639 138 138 138
-0.149687 -0.157508 -0.351313 138 138 138
-0.144011 -0.165109 -0.353899 138 138 138
-0.140205 -0.171458 -0.355818 138 138 138
-0.136777 -0.177566 -0.357605 138 138 138
-0.131871 -0.184701 -0.359924 138 138 138
0.071186 0.238121 -0.352584 100 100 100
0.059890 0.240050 -0.349384 138 138 138
0.054476 0.239213 -0.348112 138 138 138
0.050066 0.237907 -0.347169 138 138 138
0.045222 0.236815 -0.346083 138 138 138
0.040219 0.235809 -0.344942 138 138 138
0.034966 0.234931 -0.343718 138 138 138
0.028441 0.234675 -0.342074 138 138 138
0.020048 0.235333 -0.339812 138 138 138
0.010827 0.236410 -0.337273 138 138 138
-0.001360 0.238944 -0.333753 138 138 138
-0.010783 0.240163 -0.331142 138 138 138
-0.018284 0.240466 -0.329162 138 138 138
-0.040017 0.247743 -0.322474 138 138 138
-0.048184 0.248421 -0.320267 138 138 138
-0.056130 0.249009 -0.318131 138 138 138
-0.063221 0.249192 -0.316275 138 138 138
-0.069922 0.249196 -0.314546 138 138 138
-0.074529 0.248177 -0.313510 138 138 138
-0.079125 0.247161 -0.312476 138 138 138
-0.081908 0.245250 -0.312043 138 138 138
-0.084631 0.243311 -0.311629 138 138 138
-0.087239 0.241319 -0.311253 138 138 138
-0.089829 0.239321 -0.310883 138 138 138
-0.092217 0.237224 -0.310579 138 138 138
-0.094647 0.235150 -0.310261 138 138 138
-0.097141 0.233112 -0.309922 138 138 138
-0.099978 0.231250 -0.309467 138 138 138
-0.102875 0.229423 -0.308992 138 138 138
-0.105815 0.227621 -0.308502 138 138 138
-0.108894 0.225894 -0.307966 138 138 138
-0.112120 0.224246 -0.307379 138 138 138
-0.115357 0.222610 -0.306788 138 138 138
-0.118673 0.221018 -0.306170 138 138 138
-0.122264 0.219574 -0.305459 138 138 138
-0.125833 0.218124 -0.304754 138 138 138
-0.129584 0.216774 -0.303988 138 138 138
-0.133317 0.215421 -0.303227 138 138 138
-0.137298 0.214204 -0.302381 138 138 138
-0.140883 0.212785 -0.301668 138 138 138
-0.144466 0.211372 -0.300954 138 138 138
-0.148007 0.209942 -0.300254 138 138 138
-0.150530 0.207981 -0.299896 138 138 138
-0.152926 0.205956 -0.299579 138 138 138
-0.155320 0.203932 -0.299263 138 138 138
-0.157616 0.201859 -0.298980 138 138 138
-0.159426 0.199529 -0.298860 138 138 138
-0.161236 0.197199 -0.298740 138 138 138
-0.162328 0.194486 -0.298862 138 138 138
-0.163242 0.191677 -0.299045 138 138 138
-0.164156 0.188866 -0.299228 138 138 138
-0.165068 0.186052 -0.299411 138 138 138
-0.165960 0.183226 -0.299602 138 138 138
-0.166787 0.180364 -0.299815 138 138 138
-0.167628 0.177507 -0.300023 138 138 138
-0.168518 0.174675 -0.300215 138 138 138
-0.169596 0.171945 -0.300344 138 138 138
-0.170706 0.169231 -0.300462 138 138 138
-0.171783 0.166498 -0.300591 138 138 138
-0.172964 0.163821 -0.300685 138 138 138
-0.174323 0.161241 -0.300719 138 138 138
-0.175882 0.158772 -0.300684 138 138 138
-0.177406 0.156285 -0.300662 138 138 138
-0.178931 0.153797 -0.300639 138 138 138
-0.180727 0.151461 -0.300523 138 138 138
-0.182610 0.149175 -0.300378 138 138 138
-0.184502 0.146895 -0.300230 138 138 138
-0.186134 0.144469 -0.300170 138 138 138
-0.187430 0.141856 -0.300225 138 138 138
-0.188820 0.139294 -0.300248 138 138 138
-0.190211 0.136733 -0.300271 138 138 138
-0.191601 0.134172 -0.300293 138 138 138
-0.192753 0.131475 -0.300398 138 138 138
-0.193704 0.128662 -0.300571 138 138 138
-0.194691 0.125869 -0.300733 138 138 138
-0.195879 0.123189 -0.300825 138 138 138
-0.196979 0.120458 -0.300948 138 138 138
-0.197549 0.117421 -0.301254 138 138 138
-0.198038 0.114334 -0.301587 138 138 138
-0.198402 0.111173 -0.301964 138 138 138
-0.198609 0.107917 -0.302395 138 138 138
-0.199104 0.104825 -0.302728 138 138 138
-0.199734 0.101810 -0.303014 138 138 138
-0.200472 0.098854 -0.303264 138 138 138
-0.201443 0.096034 -0.303433 138 138 138
-0.202503 0.093264 -0.303573 138 138 138
-0.203574 0.090499 -0.303708 138 138 138
-0.204666 0.087746 -0.303836 138 138 138
-0.205816 0.085026 -0.303945 138 138 138
-0.207138 0.082408 -0.303994 138 138 138
-0.208512 0.079819 -0.304025 138 138 138
-0.209885 0.077230 -0.304056 138 138 138
-0.211259 0.074642 -0.304087 138 138 138
-0.212522 0.071986 -0.304157 138 138 138
-0.213677 0.069265 -0.304264 138 138 138
-0.214227 0.066179 -0.304582 138 138 138
-0.214641 0.063008 -0.304947 138 138 138
-0.214795 0.059678 -0.305403 138 138 138
-0.215178 0.056482 -0.305780 138 138 138
-0.215838 0.053451 -0.306061 138 138 138
-0.216498 0.050419 -0.306343 138 138 138
-0.216898 0.047224 -0.306715 138 138 138
-0.217288 0.044021 -0.307091 138 138 138
-0.217679 0.040815 -0.307468 138 138 138
-0.218008 0.037569 -0.307866 138 138 138
-0.218342 0.034321 -0.308264 138 138 138
-0.218676 0.031071 -0.308662 138 138 138
-0.219011 0.027817 -0.309060 138 138 138
-0.219004 0.024348 -0.309578 138 138 138
-0.219069 0.020920 -0.310072 138 138 138
-0.219135 0.017488 -0.310566 138 138 138
-0.219615 0.014311 -0.310915 138 138 138
-0.220216 0.011206 -0.311222 138 138 138
-0.220818 0.008100 -0.311529 138 138 138
-0.221504 0.005044 -0.311807 138 138 138
-0.222013 0.001874 -0.312148 138 138 138
-0.222503 -0.001311 -0.312496 138 138 138
-0.222967 -0.004515 -0.312853 138 138 138
-0.223118 -0.007922 -0.313322 138 138 138
-0.223190 -0.011382 -0.313818 138 138 138
-0.223460 -0.014721 -0.314245 138 138 138
-0.223909 -0.017948 -0.314610 138 138 138
-0.224449 -0.021120 -0.314943 138 138 138
-0.225232 -0.024139 -0.315191 138 138 138
-0.225891 -0.027240 -0.315483 138 138 138
-0.226527 -0.030358 -0.315783 138 138 138
-0.227140 -0.033494 -0.316092 138 138 138
-0.227779 -0.036615 -0.316392 138 138 138
-0.228423 -0.039736 -0.316690 138 138 138
-0.228597 -0.043165 -0.317156 138 138 138
-0.228627 -0.046692 -0.317673 138 138 138
-0.228656 -0.050225 -0.318192 138 138 138
-0.227488 -0.054547 -0.319137 138 138 138
-0.225729 -0.059266 -0.320293 138 138 138
-0.222947 -0.064670 -0.321815 138 138 138
-0.219830 -0.070308 -0.323458 138 138 138
-0.216199 -0.076300 -0.325286 138 138 138
-0.212017 -0.082674 -0.327314 138 138 138
-0.207008 -0.089616 -0.329639 138 138 138
-0.200870 -0.097330 -0.332371 138 138 138
-0.181992 -0.113583 -0.339658 138 138 138
-0.174955 -0.121966 -0.342721 138 138 138
-0.169682 -0.129190 -0.345157 138 138 138
-0.162277 -0.137870 -0.348358 138 138 138
-0.155364 -0.146246 -0.351388 138 138 138
-0.149722 -0.153788 -0.353966 138 138 138
-0.144272 -0.161222 -0.356478 138 138 138
-0.140853 -0.167298 -0.358265 138 138 138
-0.137386 -0.173423 -0.360071 138 138 138
-0.134056 -0.179469 -0.361830 138 138 138
-0.127626 -0.187651 -0.364706 138 138 138
0.062354 0.238930 -0.353387 138 138 138
0.055589 0.238729 -0.351666 138 138 138
0.050762 0.237620 -0.350583 138 138 138
0.045931 0.236521 -0.349497 138 138 138
0.040873 0.235539 -0.348334 138 138 138
0.035708 0.234617 -0.347135 138 138 138
0.029601 0.234158 -0.345623 138 138 138
0.023033 0.233934 -0.343956 138 138 138
0.014335 0.234753 -0.341583 138 138 138
0.005984 0.235422 -0.339321 138 138 138
-0.000853 0.235373 -0.337559 138 138 138
-0.006923 0.234964 -0.336049 138 138 138
-0.012492 0.234321 -0.334704 138 138 138
-0.018475 0.233892 -0.333219 138 138 138
-0.028428 0.235427 -0.330414 138 138 138
-0.055175 0.245261 -0.322021 138 138 138
-0.063031 0.245826 -0.319903 138 138 138
-0.070295 0.246113 -0.317980 138 138 138
-0.074877 0.245084 -0.316948 138 138 138
-0.079458 0.244062 -0.315915 138 138 138
-0.082231 0.242145 -0.315484 138 138 138
-0.084807 0.240133 -0.315118 138 138 138
-0.087560 0.238213 -0.314692 138 138 138
-0.090316 0.236298 -0.314265 138 138 138
-0.092987 0.234343 -0.313866 138 138 138
-0.095754 0.232440 -0.313434 138 138 138
-0.098519 0.230539 -0.313003 138 138 138
-0.101409 0.228705 -0.312529 138 138 138
-0.104327 0.226890 -0.312045 138 138 138
-0.107257 0.225084 -0.311556 138 138 138
-0.110390 0.223387 -0.310999 138 138 138
-0.113630 0.221748 -0.310405 138 138 138
-0.116871 0.220115 -0.309810 138 138 138
-0.120295 0.218582 -0.309153 138 138 138
-0.123885 0.217140 -0.308439 138 138 138
-0.127472 0.215701 -0.307726 138 138 138
-0.131499 0.214498 -0.306864 138 138 138
-0.135624 0.213352 -0.305967 138 138 138
-0.139633 0.212154 -0.305108 138 138 138
-0.143173 0.210715 -0.304407 138 138 138
-0.146706 0.209279 -0.303707 138 138 138
-0.149498 0.207458 -0.303257 138 138 138
-0.151755 0.205357 -0.302987 138 138 138
-0.154025 0.203265 -0.302712 138 138 138
-0.156420 0.201242 -0.302394 138 138 138
-0.158635 0.199125 -0.302137 138 138 138
-0.160203 0.196665 -0.302099 138 138 138
-0.161117 0.193855 -0.302282 138 138 138
-0.162031 0.191043 -0.302466 138 138 138
-0.162950 0.188233 -0.302648 138 138 138
-0.163881 0.185427 -0.302826 138 138 138
-0.164693 0.182556 -0.303045 138 138 138
-0.165586 0.179727 -0.303237 138 138 138
-0.166428 0.176868 -0.303446 138 138 138
-0.167368 0.174061 -0.303622 138 138 138
-0.168470 0.171342 -0.303743 138 138 138
-0.169589 0.168630 -0.303859 138 138 138
-0.170707 0.165918 -0.303975 138 138 138
-0.171809 0.163196 -0.304097 138 138 138
-0.173189 0.160626 -0.304123 138 138 138
-0.174715 0.158136 -0.304100 138 138 138
-0.176241 0.155647 -0.304078 138 138 138
-0.177766 0.153158 -0.304055 138 138 138
-0.179292 0.150669 -0.304031 138 138 138
-0.181112 0.148345 -0.303908 138 138 138
-0.182587 0.145828 -0.303902 138 138 138
-0.183870 0.143204 -0.303962 138 138 138
-0.185154 0.140579 -0.304022 138 138 138
-0.186438 0.137954 -0.304082 138 138 138
-0.187767 0.135355 -0.304127 138 138 138
-0.188751 0.132559 -0.304290 138 138 138
-0.189686 0.129734 -0.304470 138 138 138
-0.190621 0.126907 -0.304650 138 138 138
-0.191556 0.124079 -0.304831 138 138 138
-0.192111 0.121031 -0.305143 138 138 138
-0.192502 0.117887 -0.305511 138 138 138
-0.192893 0.114740 -0.305880 138 138 138
-0.193350 0.111628 -0.306227 138 138 138
-0.193380 0.108266 -0.306722 138 138 138
-0.193411 0.104900 -0.307217 138 138 138
-0.193859 0.101773 -0.307568 138 138 138
-0.194759 0.098906 -0.307763 138 138 138
-0.195798 0.096120 -0.307911 138 138 138
-0.196838 0.093332 -0.308058 138 138 138
-0.197878 0.090543 -0.308206 138 138 138
-0.199015 0.087811 -0.308320 138 138 138
-0.200281 0.085153 -0.308389 138 138 138
-0.201574 0.082511 -0.308450 138 138 138
-0.202880 0.079876 -0.308505 138 138 138
-0.204188 0.077242 -0.308561 138 138 138
-0.205663 0.074707 -0.308557 138 138 138
-0.206977 0.072075 -0.308611 138 138 138
-0.208291 0.069444 -0.308664 138 138 138
-0.209606 0.066812 -0.308717 138 138 138
-0.210920 0.064179 -0.308770 138 138 138
-0.212535 0.061728 -0.308718 138 138 138
-0.213344 0.058789 -0.308948 138 138 138
-0.214003 0.055758 -0.309230 138 138 138
-0.214663 0.052725 -0.309513 138 138 138
-0.215134 0.049575 -0.309862 138 138 138
-0.215523 0.046372 -0.310240 138 138 138
-0.216224 0.043356 -0.310509 138 138 138
-0.216957 0.040358 -0.310767 138 138 138
-0.217341 0.037143 -0.311148 138 138 138
-0.217761 0.033947 -0.311517 138 138 138
-0.218102 0.030700 -0.311914 138 138 138
-0.218227 0.027315 -0.312387 138 138 138
-0.218141 0.023795 -0.312936 138 138 138
-0.218206 0.020365 -0.313431 138 138 138
-0.218268 0.016928 -0.313929 138 138 138
-0.218583 0.013646 -0.314338 138 138 138
-0.219184 0.010539 -0.314647 138 138 138
-0.219784 0.007430 -0.314956 138 138 138
-0.220355 0.004299 -0.315276 138 138 138
-0.220861 0.001125 -0.315619 138 138 138
-0.221324 -0.002080 -0.315979 138 138 138
-0.221669 -0.005362 -0.316380 138 138 138
-0.221688 -0.008855 -0.316897 138 138 138
-0.221813 -0.012284 -0.317377 138 138 138
-0.221954 -0.015708 -0.317852 138 138 138
-0.222457 -0.018903 -0.318199 138 138 138
-0.222961 -0.022101 -0.318547 138 138 138
-0.223566 -0.025238 -0.318859 138 138 138
-0.224429 -0.028210 -0.319080 138 138 138
-0.225115 -0.031299 -0.319364 138 138 138
-0.225734 -0.034433 -0.319672 138 138 138
-0.226384 -0.037550 -0.319969 138 138 138
-0.226675 -0.040903 -0.320395 138 138 138
-0.226727 -0.044415 -0.320906 138 138 138
-0.226761 -0.047944 -0.321425 138 138 138
-0.226128 -0.051913 -0.322182 138 138 138
-0.224379 -0.056621 -0.323338 138 138 138
-0.221851 -0.061852 -0.324774 138 138 138
-0.218306 -0.067765 -0.326575 138 138 138
-0.214877 -0.073617 -0.328337 138 138 138
-0.210952 -0.079812 -0.330279 138 138 138
-0.205796 -0.086841 -0.332664 138 138 138
-0.199343 -0.094754 -0.335517 138 138 138
-0.175911 -0.114014 -0.344459 138 138 138
-0.171719 -0.120489 -0.346512 138 138 138
-0.166605 -0.127601 -0.348899 138 138 138
-0.161267 -0.134882 -0.351368 138 138 138
-0.154305 -0.143278 -0.354425 138 138 138
-0.149299 -0.150380 -0.356782 138 138 138
-0.144603 -0.157292 -0.359030 138 138 138
-0.140636 -0.163730 -0.361019 138 138 138
-0.137754 -0.169449 -0.362620 138 138 138
-0.135151 -0.174991 -0.364122 138 138 138
-0.130746 -0.181775 -0.366275 138 138 138
0.069116 0.235775 -0.358820 138 138 138
0.058100 0.237583 -0.355687 138 138 138
0.052277 0.236943 -0.354270 138 138 138
0.047393 0.235867 -0.353163 138 138 138
0.041687 0.235192 -0.351782 138 138 138
0.036465 0.234296 -0.350559 138 138 138
0.030673 0.233685 -0.349146 138 138 138
0.024048 0.233485 -0.347455 138 138 138
0.017407 0.233307 -0.345757 138 138 138
0.008897 0.234049 -0.343435 138 138 138
0.002374 0.233843 -0.341771 138 138 138
-0.002764 0.232974 -0.340567 138 138 138
-0.007522 0.231929 -0.339488 138 138 138
-0.012401 0.230952 -0.338367 138 138 138
-0.017429 0.230056 -0.337195 138 138 138
-0.021332 0.228616 -0.336397 138 138 138
-0.027356 0.228230 -0.334890 138 138 138
-0.062376 0.242224 -0.323694 138 138 138
-0.070667 0.243026 -0.321419 138 138 138
-0.075115 0.241932 -0.320428 138 138 138
-0.079369 0.240749 -0.319500 138 138 138
-0.082390 0.238955 -0.318984 138 138 138
-0.085488 0.237205 -0.318442 138 138 138
-0.088604 0.235467 -0.317893 138 138 138
-0.091590 0.233668 -0.317388 138 138 138
-0.094390 0.231779 -0.316944 138 138 138
-0.097157 0.229877 -0.316510 138 138 138
-0.099942 0.227988 -0.316070 138 138 138
-0.102853 0.226166 -0.315587 138 138 138
-0.105779 0.224356 -0.315098 138 138 138
-0.108702 0.222548 -0.314610 138 138 138
-0.111899 0.220885 -0.314029 138 138 138
-0.115260 0.219311 -0.313392 138 138 138
-0.118621 0.217742 -0.312754 138 138 138
-0.122301 0.216344 -0.312008 138 138 138
-0.126112 0.215019 -0.311217 138 138 138
-0.129965 0.213723 -0.310410 138 138 138
-0.134000 0.212527 -0.309541 138 138 138
-0.138065 0.211355 -0.308661 138 138 138
-0.141860 0.210048 -0.307871 138 138 138
-0.145397 0.208611 -0.307168 138 138 138
-0.148307 0.206850 -0.306676 138 138 138
-0.150914 0.204932 -0.306286 138 138 138
-0.153177 0.202835 -0.306013 138 138 138
-0.155428 0.200734 -0.305743 138 138 138
-0.157677 0.198633 -0.305474 138 138 138
-0.159015 0.196048 -0.305514 138 138 138
-0.159946 0.193245 -0.305693 138 138 138
-0.160876 0.190440 -0.305872 138 138 138
-0.161764 0.187610 -0.306066 138 138 138
-0.162503 0.184699 -0.306310 138 138 138
-0.163211 0.181769 -0.306566 138 138 138
-0.164172 0.178974 -0.306735 138 138 138
-0.165227 0.176229 -0.306873 138 138 138
-0.166232 0.173455 -0.307028 138 138 138
-0.167350 0.170743 -0.307144 138 138 138
-0.168409 0.167996 -0.307281 138 138 138
-0.169387 0.165204 -0.307446 138 138 138
-0.170386 0.162423 -0.307604 138 138 138
-0.171692 0.159809 -0.307656 138 138 138
-0.173187 0.157300 -0.307644 138 138 138
-0.174711 0.154807 -0.307622 138 138 138
-0.176235 0.152315 -0.307600 138 138 138
-0.177759 0.149822 -0.307578 138 138 138
-0.179033 0.147190 -0.307642 138 138 138
-0.180303 0.144555 -0.307707 138 138 138
-0.181586 0.141927 -0.307768 138 138 138
-0.182869 0.139298 -0.307829 138 138 138
-0.184055 0.136614 -0.307924 138 138 138
-0.184858 0.133712 -0.308150 138 138 138
-0.185673 0.130816 -0.308373 138 138 138
-0.186497 0.127923 -0.308593 138 138 138
-0.187367 0.125054 -0.308797 138 138 138
-0.187769 0.121916 -0.309163 138 138 138
-0.188192 0.118787 -0.309522 138 138 138
-0.188616 0.115656 -0.309882 138 138 138
-0.188756 0.112358 -0.310340 138 138 138
-0.188634 0.108905 -0.310890 138 138 138
-0.188571 0.105482 -0.311420 138 138 138
-0.188713 0.102173 -0.311879 138 138 138
-0.189256 0.099094 -0.312200 138 138 138
-0.189799 0.096013 -0.312521 138 138 138
-0.190772 0.093179 -0.312693 138 138 138
-0.192000 0.090494 -0.312777 138 138 138
-0.193567 0.088008 -0.312743 138 138 138
-0.195134 0.085521 -0.312709 138 138 138
-0.196699 0.083034 -0.312675 138 138 138
-0.198137 0.080472 -0.312686 138 138 138
-0.199548 0.077894 -0.312706 138 138 138
-0.201162 0.075436 -0.312655 138 138 138
-0.202776 0.072979 -0.312605 138 138 138
-0.204389 0.070521 -0.312554 138 138 138
-0.205904 0.068005 -0.312538 138 138 138
-0.207274 0.065403 -0.312572 138 138 138
-0.208924 0.062968 -0.312509 138 138 138
-0.210627 0.060566 -0.312427 138 138 138
-0.211991 0.057960 -0.312463 138 138 138
-0.212788 0.055010 -0.312699 138 138 138
-0.213463 0.051983 -0.312977 138 138 138
-0.214238 0.049016 -0.313221 138 138 138
-0.215014 0.046047 -0.313465 138 138 138
-0.215740 0.043045 -0.313726 138 138 138
-0.216260 0.039915 -0.314061 138 138 138
-0.216637 0.036695 -0.314446 138 138 138
-0.217046 0.033490 -0.314820 138 138 138
-0.217456 0.030283 -0.315195 138 138 138
-0.217432 0.026805 -0.315722 138 138 138
-0.217348 0.023285 -0.316272 138 138 138
-0.217343 0.019809 -0.316795 138 138 138
-0.217398 0.016367 -0.317297 138 138 138
-0.217551 0.012981 -0.317765 138 138 138
-0.218151 0.009872 -0.318075 138 138 138
-0.218736 0.006750 -0.318392 138 138 138
-0.219242 0.003576 -0.318736 138 138 138
-0.219747 0.000399 -0.319081 138 138 138
-0.220165 -0.002836 -0.319458 138 138 138
-0.220206 -0.006313 -0.319969 138 138 138
-0.220133 -0.009867 -0.320521 138 138 138
-0.220148 -0.013370 -0.321043 138 138 138
-0.220277 -0.016804 -0.321524 138 138 138
-0.220631 -0.020098 -0.321926 138 138 138
-0.221191 -0.023263 -0.322255 138 138 138
-0.221707 -0.026460 -0.322601 138 138 138
-0.222430 -0.029527 -0.322873 138 138 138
-0.223281 -0.032512 -0.323100 138 138 138
-0.224134 -0.035499 -0.323326 138 138 138
-0.224639 -0.038712 -0.323677 138 138 138
-0.224800 -0.042153 -0.324151 138 138 138
-0.224854 -0.045667 -0.324664 138 138 138
-0.224501 -0.049452 -0.325323 138 138 138
-0.223027 -0.053976 -0.326385 138 138 138
-0.220754 -0.059034 -0.327734 138 138 138
-0.217145 -0.064982 -0.329564 138 138 138
-0.213559 -0.070930 -0.331387 138 138 138
-0.209932 -0.076921 -0.333228 138 138 138
-0.204603 -0.084054 -0.335682 138 138 138
-0.197082 -0.092664 -0.338927 138 138 138
-0.172178 -0.112867 -0.348427 138 138 138
-0.168605 -0.118926 -0.350264 138 138 138
-0.164482 -0.125367 -0.352301 138 138 138
-0.159267 -0.132557 -0.354734 138 138 138
-0.152987 -0.140483 -0.357555 138 138 138
-0.148341 -0.147333 -0.359789 138 138 138
-0.144405 -0.153724 -0.361770 138 138 138
-0.140171 -0.160333 -0.363861 138 138 138
-0.137260 -0.166062 -0.365476 138 138 138
-0.134591 -0.171642 -0.367007 138 138 138
-0.132063 -0.177138 -0.368488 138 138 138
-0.124851 -0.185843 -0.371667 100 100 100
0.080405 0.230477 -0.365772 100 100 100
0.062401 0.235586 -0.360309 138 138 138
0.054142 0.236100 -0.358078 138 138 138
0.048749 0.235264 -0.356798 138 138 138
0.042747 0.234729 -0.355314 138 138 138
0.036916 0.234123 -0.353885 138 138 138
0.031415 0.233370 -0.352564 138 138 138
0.025008 0.233064 -0.350939 138 138 138
0.018511 0.232814 -0.349283 138 138 138
0.011782 0.232690 -0.347547 138 138 138
0.005415 0.232403 -0.345930 138 138 138
-0.000017 0.231674 -0.344624 138 138 138
-0.004076 0.230282 -0.343775 138 138 138
-0.008142 0.228901 -0.342923 138 138 138
-0.012990 0.227911 -0.341808 138 138 138
-0.017206 0.226619 -0.340903 138 138 138
-0.020516 0.224885 -0.340301 138 138 138
-0.025324 0.223899 -0.339196 138 138 138
-0.029888 0.222800 -0.338171 138 138 138
-0.070524 0.239678 -0.325036 138 138 138
-0.074856 0.238527 -0.324079 138 138 138
-0.079754 0.237668 -0.322932 138 138 138
-0.083690 0.236333 -0.322106 138 138 138
-0.086810 0.234595 -0.321554 138 138 138
-0.089955 0.232873 -0.320994 138 138 138
-0.092910 0.231060 -0.320496 138 138 138
-0.095741 0.229188 -0.320040 138 138 138
-0.098560 0.227314 -0.319587 138 138 138
-0.101377 0.225441 -0.319134 138 138 138
-0.104306 0.223630 -0.318643 138 138 138
-0.107426 0.221921 -0.318087 138 138 138
-0.110591 0.220239 -0.317515 138 138 138
-0.114060 0.218718 -0.316840 138 138 138
-0.117535 0.217206 -0.316161 138 138 138
-0.121058 0.215724 -0.315466 138 138 138
-0.124812 0.214368 -0.314691 138 138 138
-0.128619 0.213045 -0.313898 138 138 138
-0.132597 0.211818 -0.313045 138 138 138
-0.136478 0.210547 -0.312224 138 138 138
-0.140504 0.209358 -0.311354 138 138 138
-0.144069 0.207934 -0.310638 138 138 138
-0.146970 0.206165 -0.310149 138 138 138
-0.149867 0.204398 -0.309659 138 138 138
-0.152329 0.202405 -0.309317 138 138 138
-0.154601 0.200313 -0.309040 138 138 138
-0.155985 0.197750 -0.309065 138 138 138
-0.157362 0.195183 -0.309092 138 138 138
-0.158740 0.192616 -0.309119 138 138 138
-0.159646 0.189796 -0.309308 138 138 138
-0.160401 0.186892 -0.309548 138 138 138
-0.161109 0.183962 -0.309805 138 138 138
-0.161817 0.181029 -0.310061 138 138 138
-0.162526 0.178095 -0.310318 138 138 138
-0.163579 0.175347 -0.310457 138 138 138
-0.164490 0.172519 -0.310645 138 138 138
-0.165436 0.169709 -0.310822 138 138 138
-0.166414 0.166915 -0.310987 138 138 138
-0.167458 0.164156 -0.311130 138 138 138
-0.168765 0.161541 -0.311183 138 138 138
-0.170071 0.158925 -0.311236 138 138 138
-0.171378 0.156309 -0.311290 138 138 138
-0.172782 0.153746 -0.311309 138 138 138
-0.174259 0.151224 -0.311304 138 138 138
-0.175518 0.148580 -0.311374 138 138 138
-0.176777 0.145936 -0.311443 138 138 138
-0.178036 0.143291 -0.311513 138 138 138
-0.179295 0.140646 -0.311583 138 138 138
-0.180348 0.137884 -0.311724 138 138 138
-0.181151 0.134980 -0.311952 138 138 138
-0.181955 0.132074 -0.312180 138 138 138
-0.182761 0.129168 -0.312407 138 138 138
-0.183374 0.126150 -0.312702 138 138 138
-0.183716 0.122975 -0.313091 138 138 138
-0.184064 0.119800 -0.313478 138 138 138
-0.184414 0.116624 -0.313865 138 138 138
-0.184288 0.113170 -0.314418 138 138 138
-0.184143 0.109702 -0.314977 138 138 138
-0.184011 0.106236 -0.315533 138 138 138
-0.184409 0.103073 -0.315906 138 138 138
-0.184911 0.099966 -0.316242 138 138 138
-0.185402 0.096851 -0.316584 138 138 138
-0.185958 0.093771 -0.316902 138 138 138
-0.187188 0.091082 -0.316986 138 138 138
-0.188419 0.088392 -0.317070 138 138 138
-0.189829 0.085808 -0.317092 138 138 138
-0.191396 0.083316 -0.317058 138 138 138
-0.193027 0.080862 -0.317002 138 138 138
-0.194869 0.078532 -0.316873 138 138 138
-0.196691 0.076193 -0.316750 138 138 138
-0.198368 0.073768 -0.316678 138 138 138
-0.199981 0.071305 -0.316628 138 138 138
-0.201594 0.068843 -0.316578 138 138 138
-0.203313 0.066445 -0.316491 138 138 138
-0.205286 0.064200 -0.316314 138 138 138
-0.206987 0.061793 -0.316233 138 138 138
-0.208716 0.059403 -0.316142 138 138 138
-0.210475 0.057032 -0.316040 138 138 138
-0.211507 0.054221 -0.316194 138 138 138
-0.212782 0.051557 -0.316263 138 138 138
-0.213805 0.048739 -0.316421 138 138 138
-0.214523 0.045734 -0.316686 138 138 138
-0.215183 0.042690 -0.316972 138 138 138
-0.215560 0.039471 -0.317358 138 138 138
-0.215938 0.036249 -0.317744 138 138 138
-0.216332 0.033034 -0.318126 138 138 138
-0.216481 0.029665 -0.318594 138 138 138
-0.216440 0.026173 -0.319130 138 138 138
-0.216427 0.022695 -0.319657 138 138 138
-0.216457 0.019239 -0.320170 138 138 138
-0.216528 0.015804 -0.320668 138 138 138
-0.216581 0.012355 -0.321174 138 138 138
-0.217116 0.009202 -0.321509 138 138 138
-0.217621 0.006029 -0.321855 138 138 138
-0.217937 0.002733 -0.322268 138 138 138
-0.218217 -0.000589 -0.322696 138 138 138
-0.218311 -0.004031 -0.323189 138 138 138
-0.218322 -0.007531 -0.323713 138 138 138
-0.218301 -0.011055 -0.324249 138 138 138
-0.218379 -0.014521 -0.324751 138 138 138
-0.218579 -0.017914 -0.325209 138 138 138
-0.218743 -0.021332 -0.325681 138 138 138
-0.219183 -0.024578 -0.326055 138 138 138
-0.219600 -0.027843 -0.326438 138 138 138
-0.220199 -0.030992 -0.326756 138 138 138
-0.221051 -0.033981 -0.326983 138 138 138
-0.221591 -0.037174 -0.327323 138 138 138
-0.221900 -0.040520 -0.327746 138 138 138
-0.222209 -0.043869 -0.328170 138 138 138
-0.222285 -0.047374 -0.328678 138 138 138
-0.221252 -0.051607 -0.329584 138 138 138
-0.219175 -0.056532 -0.330867 138 138 138
-0.215634 -0.062428 -0.332678 138 138 138
-0.212315 -0.068193 -0.334411 138 138 138
-0.208651 -0.074201 -0.336271 138 138 138
-0.203541 -0.081180 -0.338654 138 138 138
-0.193044 -0.091747 -0.342981 138 138 138
-0.170222 -0.110533 -0.351760 138 138 138
-0.166077 -0.116966 -0.353809 138 138 138
-0.162038 -0.123345 -0.355822 138 138 138
-0.157316 -0.130197 -0.358085 138 138 138
-0.151093 -0.138075 -0.360893 138 138 138
-0.146967 -0.144568 -0.362946 138 138 138
-0.143427 -0.150683 -0.364790 138 138 138
-0.139607 -0.157004 -0.366737 138 138 138
-0.136426 -0.162909 -0.368455 138 138 138
-0.133718 -0.168508 -0.370004 138 138 138
-0.131291 -0.173929 -0.371453 138 138 138
-0.126622 -0.180889 -0.373718 138 138 138
0.091933 0.225066 -0.372833 100 100 100
0.069247 0.232382 -0.365792 138 138 138
0.057968 0.234324 -0.362547 138 138 138
0.050219 0.234606 -0.360476 138 138 138
0.044335 0.234012 -0.359026 138 138 138
0.037735 0.233772 -0.357335 138 138 138
0.031868 0.233194 -0.355887 138 138 138
0.025739 0.232753 -0.354350 138 138 138
0.019310 0.232468 -0.352711 138 138 138
0.013112 0.232085 -0.351147 138 138 138
0.007224 0.231563 -0.349685 138 138 138
0.002735 0.230370 -0.348690 138 138 138
-0.002576 0.229587 -0.347419 138 138 138
-0.006167 0.227971 -0.346723 138 138 138
-0.009752 0.226357 -0.346029 138 138 138
-0.013263 0.224712 -0.345359 138 138 138
-0.016896 0.223132 -0.344647 138 138 138
-0.020285 0.221438 -0.344016 138 138 138
-0.023618 0.219720 -0.343403 138 138 138
-0.028314 0.218686 -0.342331 138 138 138
-0.068879 0.235575 -0.329164 138 138 138
-0.074935 0.235286 -0.327623 138 138 138
-0.080910 0.234969 -0.326107 138 138 138
-0.084896 0.233662 -0.325262 138 138 138
-0.088132 0.231984 -0.324668 138 138 138
-0.091329 0.230290 -0.324088 138 138 138
-0.094231 0.228451 -0.323606 138 138 138
-0.097062 0.226580 -0.323148 138 138 138
-0.100072 0.224804 -0.322628 138 138 138
-0.103205 0.223095 -0.322067 138 138 138
-0.106369 0.221406 -0.321494 138 138 138
-0.109568 0.219740 -0.320909 138 138 138
-0.113068 0.218233 -0.320221 138 138 138
-0.116541 0.216718 -0.319541 138 138 138
-0.120013 0.215207 -0.318860 138 138 138
-0.123630 0.213778 -0.318130 138 138 138
-0.127321 0.212393 -0.317373 138 138 138
-0.131125 0.211072 -0.316577 138 138 138
-0.135077 0.209836 -0.315730 138 138 138
-0.138955 0.208567 -0.314907 138 138 138
-0.142727 0.207249 -0.314119 138 138 138
-0.145629 0.205479 -0.313627 138 138 138
-0.148482 0.203686 -0.313151 138 138 138
-0.150883 0.201657 -0.312829 138 138 138
-0.152770 0.199358 -0.312683 138 138 138
-0.154254 0.196845 -0.312674 138 138 138
-0.155636 0.194279 -0.312700 138 138 138
-0.156938 0.191668 -0.312754 138 138 138
-0.157849 0.188847 -0.312942 138 138 138
-0.158587 0.185932 -0.313189 138 138 138
-0.159223 0.182960 -0.313472 138 138 138
-0.159975 0.180048 -0.313715 138 138 138
-0.160654 0.177094 -0.313983 138 138 138
-0.161336 0.174140 -0.314251 138 138 138
-0.162268 0.171320 -0.314434 138 138 138
-0.163200 0.168500 -0.314616 138 138 138
-0.164287 0.165761 -0.314745 138 138 138
-0.165433 0.163055 -0.314854 138 138 138
-0.166705 0.160418 -0.314919 138 138 138
-0.167982 0.157782 -0.314983 138 138 138
-0.169259 0.155146 -0.315048 138 138 138
-0.170672 0.152584 -0.315065 138 138 138
-0.172046 0.150002 -0.315095 138 138 138
-0.173318 0.147361 -0.315162 138 138 138
-0.174580 0.144716 -0.315231 138 138 138
-0.175843 0.142069 -0.315300 138 138 138
-0.176743 0.139218 -0.315496 138 138 138
-0.177499 0.136285 -0.315741 138 138 138
-0.178291 0.133370 -0.315974 138 138 138
-0.179085 0.130454 -0.316207 138 138 138
-0.179578 0.127366 -0.316544 138 138 138
-0.179924 0.124191 -0.316934 138 138 138
-0.180219 0.120983 -0.317341 138 138 138
-0.180443 0.117732 -0.317774 138 138 138
-0.180336 0.114288 -0.318322 138 138 138
-0.180231 0.110840 -0.318870 138 138 138
-0.180138 0.107395 -0.319415 138 138 138
-0.180540 0.104232 -0.319788 138 138 138
-0.180823 0.100996 -0.320203 138 138 138
-0.181052 0.097726 -0.320637 138 138 138
-0.181764 0.094733 -0.320903 138 138 138
-0.182981 0.092033 -0.320992 138 138 138
-0.184199 0.089332 -0.321081 138 138 138
-0.185417 0.086631 -0.321171 138 138 138
-0.186639 0.083931 -0.321259 138 138 138
-0.188223 0.081443 -0.321220 138 138 138
-0.189937 0.079033 -0.321136 138 138 138
-0.191782 0.076701 -0.321005 138 138 138
-0.193617 0.074364 -0.320878 138 138 138
-0.195430 0.072014 -0.320759 138 138 138
-0.197260 0.069676 -0.320633 138 138 138
-0.198959 0.067261 -0.320554 138 138 138
-0.200936 0.065013 -0.320376 138 138 138
-0.202966 0.062798 -0.320179 138 138 138
-0.205099 0.060646 -0.319946 138 138 138
-0.207169 0.058459 -0.319735 138 138 138
-0.208918 0.056080 -0.319637 138 138 138
-0.210178 0.053404 -0.319711 138 138 138
-0.211661 0.050864 -0.319707 138 138 138
-0.213026 0.048252 -0.319744 138 138 138
-0.213849 0.045308 -0.319974 138 138 138
-0.214295 0.042133 -0.320337 138 138 138
-0.214706 0.038932 -0.320713 138 138 138
-0.215133 0.035739 -0.321083 138 138 138
-0.215486 0.032497 -0.321481 138 138 138
-0.215506 0.029045 -0.321997 138 138 138
-0.215462 0.025550 -0.322537 138 138 138
-0.215434 0.022060 -0.323071 138 138 138
-0.215516 0.018635 -0.323567 138 138 138
-0.215589 0.015200 -0.324067 138 138 138
-0.215497 0.011657 -0.324627 138 138 138
-0.215711 0.008302 -0.325078 138 138 138
-0.215988 0.004982 -0.325507 138 138 138
-0.216266 0.001660 -0.325936 138 138 138
-0.216414 -0.001749 -0.326412 138 138 138
-0.216377 -0.005278 -0.326955 138 138 138
-0.216286 -0.008846 -0.327518 138 138 138
-0.216314 -0.012343 -0.328039 138 138 138
-0.216513 -0.015735 -0.328499 138 138 138
-0.216666 -0.019161 -0.328977 138 138 138
-0.216722 -0.022652 -0.329489 138 138 138
-0.217108 -0.025937 -0.329885 138 138 138
-0.217493 -0.029224 -0.330281 138 138 138
-0.217963 -0.032461 -0.330647 138 138 138
-0.218433 -0.035701 -0.331013 138 138 138
-0.218870 -0.038965 -0.331392 138 138 138
-0.219307 -0.042232 -0.331771 138 138 138
-0.219364 -0.045750 -0.332288 138 138 138
-0.218420 -0.049925 -0.333166 138 138 138
-0.216999 -0.054418 -0.334216 138 138 138
-0.214229 -0.059803 -0.335755 138 138 138
-0.211086 -0.065446 -0.337430 138 138 138
-0.207401 -0.071460 -0.339303 138 138 138
-0.201505 -0.078948 -0.341977 138 138 138
-0.178020 -0.098082 -0.351013 138 138 138
-0.170019 -0.107036 -0.354460 138 138 138
-0.164375 -0.114453 -0.357057 138 138 138
-0.159714 -0.121238 -0.359302 138 138 138
-0.155395 -0.127815 -0.361426 138 138 138
-0.149282 -0.135608 -0.364203 138 138 138
-0.145228 -0.142045 -0.366236 138 138 138
-0.142071 -0.147897 -0.367947 138 138 138
-0.138790 -0.153847 -0.369704 138 138 138
-0.135698 -0.159684 -0.371395 138 138 138
-0.132925 -0.165320 -0.372972 138 138 138
-0.130412 -0.170793 -0.374457 138 138 138
-0.127278 -0.176700 -0.376169 138 138 138
0.075482 0.229468 -0.371087 138 138 138
0.062261 0.232325 -0.367182 138 138 138
0.053187 0.233234 -0.364661 138 138 138
0.045922 0.233296 -0.362743 138 138 138
0.039456 0.232989 -0.361091 138 138 138
0.032760 0.232807 -0.359360 138 138 138
0.026462 0.232445 -0.357761 138 138 138
0.020257 0.232051 -0.356191 138 138 138
0.014257 0.231570 -0.354689 138 138 138
0.008274 0.231092 -0.353189 138 138 138
0.003596 0.229989 -0.352128 138 138 138
-0.000877 0.228795 -0.351134 138 138 138
-0.004740 0.227309 -0.350345 138 138 138
-0.008377 0.225718 -0.349631 138 138 138
-0.011156 0.223710 -0.349206 138 138 138
-0.014175 0.221823 -0.348699 138 138 138
-0.017183 0.219936 -0.348195 138 138 138
-0.020092 0.218002 -0.347725 138 138 138
-0.023208 0.216176 -0.347183 138 138 138
-0.028382 0.215382 -0.345945 138 138 138
-0.033495 0.214567 -0.344725 138 138 138
-0.076114 0.232593 -0.330799 138 138 138
-0.082065 0.232269 -0.329285 138 138 138
-0.085886 0.230881 -0.328492 138 138 138
-0.089488 0.229389 -0.327772 138 138 138
-0.092811 0.227760 -0.327147 138 138 138
-0.095997 0.226067 -0.326566 138 138 138
-0.099063 0.224318 -0.326026 138 138 138
-0.102177 0.222597 -0.325469 138 138 138
-0.105346 0.220908 -0.324893 138 138 138
-0.108549 0.219242 -0.324305 138 138 138
-0.112092 0.217756 -0.323599 138 138 138
-0.115558 0.216235 -0.322920 138 138 138
-0.119021 0.214718 -0.322240 138 138 138
-0.122508 0.213220 -0.321552 138 138 138
-0.126199 0.211832 -0.320793 138 138 138
-0.129883 0.210447 -0.320035 138 138 138
-0.133675 0.209124 -0.319240 138 138 138
-0.137394 0.207770 -0.318469 138 138 138
-0.140973 0.206348 -0.317744 138 138 138
-0.143942 0.204609 -0.317228 138 138 138
-0.146137 0.202466 -0.316977 138 138 138
-0.148331 0.200324 -0.316725 138 138 138
-0.150524 0.198183 -0.316474 138 138 138
-0.152532 0.195946 -0.316286 138 138 138
-0.153922 0.193380 -0.316310 138 138 138
-0.154930 0.190610 -0.316465 138 138 138
-0.155668 0.187693 -0.316714 138 138 138
-0.156407 0.184774 -0.316962 138 138 138
-0.157146 0.181854 -0.317211 138 138 138
-0.157799 0.178885 -0.317489 138 138 138
-0.158352 0.175860 -0.317803 138 138 138
-0.158868 0.172812 -0.318129 138 138 138
-0.159734 0.169952 -0.318336 138 138 138
-0.160806 0.167204 -0.318471 138 138 138
-0.161972 0.164505 -0.318574 138 138 138
-0.163139 0.161807 -0.318676 138 138 138
-0.164306 0.159107 -0.318779 138 138 138
-0.165539 0.156443 -0.318860 138 138 138
-0.166917 0.153859 -0.318890 138 138 138
-0.168293 0.151274 -0.318920 138 138 138
-0.169669 0.148688 -0.318951 138 138 138
-0.171045 0.146102 -0.318981 138 138 138
-0.172399 0.143503 -0.319020 138 138 138
-0.173170 0.140578 -0.319261 138 138 138
-0.173906 0.137630 -0.319515 138 138 138
-0.174661 0.134692 -0.319762 138 138 138
-0.175453 0.131773 -0.319997 138 138 138
-0.175831 0.128617 -0.320376 138 138 138
-0.176187 0.125445 -0.320763 138 138 138
-0.176543 0.122271 -0.321151 138 138 138
-0.176790 0.119031 -0.321577 138 138 138
-0.176733 0.115614 -0.322111 138 138 138
-0.176656 0.112181 -0.322651 138 138 138
-0.176693 0.108809 -0.323153 138 138 138
-0.177056 0.105621 -0.323541 138 138 138
-0.177387 0.102411 -0.323941 138 138 138
-0.177771 0.099229 -0.324322 138 138 138
-0.178405 0.096189 -0.324617 138 138 138
-0.179229 0.093257 -0.324845 138 138 138
-0.180052 0.090323 -0.325074 138 138 138
-0.181059 0.087494 -0.325238 138 138 138
-0.182417 0.084869 -0.325280 138 138 138
-0.184013 0.082384 -0.325237 138 138 138
-0.185628 0.079910 -0.325188 138 138 138
-0.187241 0.077437 -0.325140 138 138 138
-0.188874 0.074974 -0.325084 138 138 138
-0.190750 0.072657 -0.324943 138 138 138
-0.192844 0.070470 -0.324725 138 138 138
-0.194933 0.068282 -0.324508 138 138 138
-0.197120 0.066154 -0.324256 138 138 138
-0.199279 0.064012 -0.324014 138 138 138
-0.201405 0.061851 -0.323783 138 138 138
-0.203712 0.059802 -0.323488 138 138 138
-0.206109 0.057809 -0.323161 138 138 138
-0.207797 0.055391 -0.323084 138 138 138
-0.209324 0.052875 -0.323064 138 138 138
-0.210851 0.050359 -0.323045 138 138 138
-0.212023 0.047628 -0.323151 138 138 138
-0.212745 0.044620 -0.323418 138 138 138
-0.213185 0.041439 -0.323784 138 138 138
-0.213587 0.038231 -0.324165 138 138 138
-0.213995 0.035023 -0.324545 138 138 138
-0.214029 0.031582 -0.325057 138 138 138
-0.214029 0.028116 -0.325583 138 138 138
-0.214083 0.024679 -0.326090 138 138 138
-0.213912 0.021098 -0.326678 138 138 138
-0.213792 0.017544 -0.327248 138 138 138
-0.213679 0.013989 -0.327817 138 138 138
-0.213646 0.010480 -0.328358 138 138 138
-0.213661 0.006996 -0.328882 138 138 138
-0.213908 0.003655 -0.329324 138 138 138
-0.214313 0.000408 -0.329710 138 138 138
-0.214361 -0.003067 -0.330224 138 138 138
-0.214269 -0.006634 -0.330789 138 138 138
-0.214247 -0.010162 -0.331330 138 138 138
-0.214303 -0.013645 -0.331843 138 138 138
-0.214279 -0.017183 -0.332386 138 138 138
-0.214302 -0.020695 -0.332912 138 138 138
-0.214687 -0.023981 -0.333310 138 138 138
-0.215049 -0.027284 -0.333715 138 138 138
-0.215203 -0.030724 -0.334196 138 138 138
-0.215577 -0.034027 -0.334599 138 138 138
-0.216015 -0.037291 -0.334979 138 138 138
-0.216454 -0.040559 -0.335359 138 138 138
-0.216470 -0.044104 -0.335893 138 138 138
-0.215605 -0.048225 -0.336745 138 138 138
-0.214739 -0.052355 -0.337598 138 138 138
-0.212170 -0.057605 -0.339069 138 138 138
-0.209708 -0.062797 -0.340503 138 138 138
-0.205945 -0.068855 -0.342410 138 138 138
-0.200226 -0.076215 -0.345028 138 138 138
-0.179162 -0.093716 -0.353214 138 138 138
-0.170993 -0.102763 -0.356731 138 138 138
-0.164171 -0.110947 -0.359764 138 138 138
-0.159352 -0.117826 -0.362072 138 138 138
-0.153329 -0.125527 -0.364822 138 138 138
-0.147858 -0.132882 -0.367374 138 138 138
-0.144003 -0.139177 -0.369341 138 138 138
-0.140692 -0.145126 -0.371113 138 138 138
-0.137448 -0.151043 -0.372862 138 138 138
-0.134620 -0.156696 -0.374462 138 138 138
-0.132168 -0.162109 -0.375926 138 138 138
-0.129559 -0.167640 -0.377450 138 138 138
-0.126801 -0.173285 -0.379031 138 138 138
0.080568 0.227100 -0.376013 138 138 138
0.067998 0.229640 -0.372313 138 138 138
0.057080 0.231420 -0.369164 138 138 138
0.048314 0.232195 -0.366736 138 138 138
0.041348 0.232124 -0.364910 138 138 138
0.034464 0.232029 -0.363110 138 138 138
0.027418 0.232025 -0.361254 138 138 138
0.021356 0.231560 -0.359726 138 138 138
0.015275 0.231116 -0.358191 138 138 138
0.009403 0.230582 -0.356725 138 138 138
0.004588 0.229544 -0.355614 138 138 138
0.000337 0.228240 -0.354691 138 138 138
-0.003368 0.226674 -0.353953 138 138 138
-0.006502 0.224833 -0.353407 138 138 138
-0.009248 0.222806 -0.352992 138 138 138
-0.011992 0.220781 -0.352577 138 138 138
-0.014768 0.218774 -0.352151 138 138 138
-0.017608 0.216803 -0.351702 138 138 138
-0.020446 0.214835 -0.351253 138 138 138
-0.023487 0.212971 -0.350735 138 138 138
-0.028414 0.212056 -0.349576 138 138 138
-0.033511 0.211235 -0.348357 138 138 138
-0.077107 0.229804 -0.334040 138 138 138
-0.083460 0.229687 -0.332383 138 138 138
-0.087316 0.228319 -0.331575 138 138 138
-0.091324 0.227036 -0.330714 138 138 138
-0.094691 0.225432 -0.330071 138 138 138
-0.098053 0.223831 -0.329428 138 138 138
-0.101118 0.222083 -0.328886 138 138 138
-0.104321 0.220410 -0.328297 138 138 138
-0.107530 0.218745 -0.327704 138 138 138
-0.111075 0.217258 -0.326996 138 138 138
-0.114585 0.215758 -0.326299 138 138 138
-0.118048 0.214239 -0.325618 138 138 138
-0.121504 0.212722 -0.324937 138 138 138
-0.125080 0.211273 -0.324215 138 138 138
-0.128644 0.209823 -0.323496 138 138 138
-0.131929 0.208233 -0.322873 138 138 138
-0.135286 0.206685 -0.322223 138 138 138
-0.138690 0.205168 -0.321557 138 138 138
-0.141727 0.203462 -0.321016 138 138 138
-0.144018 0.201366 -0.320731 138 138 138
-0.146109 0.199165 -0.320515 138 138 138
-0.148198 0.196966 -0.320299 138 138 138
-0.150287 0.194768 -0.320083 138 138 138
-0.151970 0.192355 -0.320006 138 138 138
-0.152642 0.189401 -0.320279 138 138 138
-0.153315 0.186446 -0.320551 138 138 138
-0.153988 0.183488 -0.320824 138 138 138
-0.154634 0.180514 -0.321106 138 138 138
-0.155243 0.177517 -0.321402 138 138 138
-0.155851 0.174518 -0.321698 138 138 138
-0.156432 0.171501 -0.322004 138 138 138
-0.157087 0.168522 -0.322284 138 138 138
-0.158127 0.165752 -0.322432 138 138 138
-0.159179 0.162986 -0.322576 138 138 138
-0.160230 0.160220 -0.322719 138 138 138
-0.161384 0.157509 -0.322828 138 138 138
-0.162813 0.154948 -0.322841 138 138 138
-0.164241 0.152388 -0.322854 138 138 138
-0.165607 0.149792 -0.322889 138 138 138
-0.166968 0.147194 -0.322926 138 138 138
-0.168171 0.144508 -0.323017 138 138 138
-0.169111 0.141673 -0.323201 138 138 138
-0.170052 0.138837 -0.323385 138 138 138
-0.170992 0.136000 -0.323569 138 138 138
-0.171730 0.133047 -0.323823 138 138 138
-0.172182 0.129931 -0.324179 138 138 138
-0.172652 0.126821 -0.324528 138 138 138
-0.173121 0.123709 -0.324878 138 138 138
-0.173310 0.120435 -0.325326 138 138 138
-0.173269 0.117025 -0.325856 138 138 138
-0.173513 0.113775 -0.326286 138 138 138
-0.173899 0.110602 -0.326667 138 138 138
-0.174213 0.107386 -0.327074 138 138 138
-0.174527 0.104165 -0.327481 138 138 138
-0.174896 0.100973 -0.327870 138 138 138
-0.175639 0.097995 -0.328128 138 138 138
-0.176509 0.095088 -0.328340 138 138 138
-0.177292 0.092129 -0.328585 138 138 138
-0.178075 0.089167 -0.328829 138 138 138
-0.179153 0.086377 -0.328969 138 138 138
-0.180205 0.083569 -0.329119 138 138 138
-0.181555 0.080936 -0.329164 138 138 138
-0.183194 0.078473 -0.329107 138 138 138
-0.184851 0.076020 -0.329044 138 138 138
-0.186878 0.073787 -0.328849 138 138 138
-0.188968 0.071593 -0.328632 138 138 138
-0.191090 0.069420 -0.328404 138 138 138
-0.193181 0.067230 -0.328185 138 138 138
-0.195402 0.065119 -0.327921 138 138 138
-0.197680 0.063045 -0.327637 138 138 138
-0.199927 0.060955 -0.327362 138 138 138
-0.202336 0.058964 -0.327030 138 138 138
-0.204742 0.056974 -0.326699 138 138 138
-0.206955 0.054870 -0.326436 138 138 138
-0.208512 0.052371 -0.326406 138 138 138
-0.210040 0.049854 -0.326386 138 138 138
-0.210979 0.046979 -0.326576 138 138 138
-0.211482 0.043836 -0.326922 138 138 138
-0.211922 0.040652 -0.327290 138 138 138
-0.212362 0.037465 -0.327659 138 138 138
-0.212489 0.034082 -0.328141 138 138 138
-0.212551 0.030655 -0.328646 138 138 138
-0.212529 0.027173 -0.329182 138 138 138
-0.212440 0.023644 -0.329742 138 138 138
-0.212157 0.019991 -0.330373 138 138 138
-0.211959 0.016385 -0.330974 138 138 138
-0.211746 0.012765 -0.331580 138 138 138
-0.211462 0.009095 -0.332214 138 138 138
-0.211555 0.005657 -0.332713 138 138 138
-0.211612 0.002191 -0.333225 138 138 138
-0.211653 -0.001288 -0.333744 138 138 138
-0.211712 -0.004760 -0.334256 138 138 138
-0.211793 -0.008223 -0.334762 138 138 138
-0.211828 -0.011719 -0.335285 138 138 138
-0.211849 -0.015229 -0.335814 138 138 138
-0.211868 -0.018743 -0.336343 138 138 138
-0.212021 -0.022177 -0.336826 138 138 138
-0.212174 -0.025615 -0.337308 138 138 138
-0.212328 -0.029056 -0.337792 138 138 138
-0.212714 -0.032352 -0.338192 138 138 138
-0.213155 -0.035616 -0.338572 138 138 138
-0.213610 -0.038874 -0.338948 138 138 138
-0.213863 -0.042265 -0.339397 138 138 138
-0.213330 -0.046171 -0.340132 138 138 138
-0.212439 -0.050315 -0.340997 138 138 138
-0.210885 -0.054899 -0.342105 138 138 138
-0.208422 -0.060086 -0.343543 138 138 138
-0.204828 -0.066026 -0.345395 138 138 138
-0.199595 -0.073057 -0.347844 138 138 138
-0.181989 -0.088247 -0.354796 138 138 138
-0.171835 -0.098583 -0.359046 138 138 138
-0.165312 -0.106553 -0.361978 138 138 138
-0.159659 -0.113973 -0.364597 138 138 138
-0.153184 -0.121959 -0.367519 138 138 138
-0.146937 -0.129819 -0.370362 138 138 138
-0.142673 -0.136379 -0.372484 138 138 138
-0.139403 -0.142293 -0.374246 138 138 138
-0.136224 -0.148161 -0.375977 138 138 138
-0.133411 -0.153797 -0.377576 138 138 138
-0.131102 -0.159107 -0.378993 138 138 138
-0.128490 -0.164634 -0.380523 138 138 138
-0.125313 -0.170556 -0.382261 138 138 138
-0.116252 -0.180479 -0.386160 100 100 100
0.082925 0.226027 -0.380032 138 138 138
0.073233 0.227194 -0.377290 138 138 138
0.062603 0.228829 -0.374228 138 138 138
0.051985 0.230482 -0.371167 138 138 138
0.043393 0.231186 -0.368786 138 138 138
0.035918 0.231372 -0.366781 138 138 138
0.028526 0.231532 -0.364801 138 138 138
0.022338 0.231126 -0.363226 138 138 138
0.016304 0.230657 -0.361701 138 138 138
0.010625 0.230028 -0.360295 138 138 138
0.005667 0.229057 -0.359132 138 138 138
0.001857 0.227535 -0.358356 138 138 138
-0.001713 0.225900 -0.357661 138 138 138
-0.005266 0.224263 -0.356972 138 138 138
-0.007859 0.222158 -0.356607 138 138 138
-0.010450 0.220055 -0.356243 138 138 138
-0.013038 0.217953 -0.355879 138 138 138
-0.015799 0.215939 -0.355456 138 138 138
-0.018871 0.214085 -0.354927 138 138 138
-0.021885 0.212205 -0.354417 138 138 138
-0.025120 0.210440 -0.353831 138 138 138
-0.029637 0.209322 -0.352806 138 138 138
-0.069566 0.226039 -0.339690 138 138 138
-0.078849 0.227390 -0.337028 138 138 138
-0.085004 0.227180 -0.335432 138 138 138
-0.089073 0.225923 -0.334548 138 138 138
-0.093160 0.224682 -0.333656 138 138 138
-0.096600 0.223118 -0.332985 138 138 138
-0.100108 0.221594 -0.332290 138 138 138
-0.103220 0.219873 -0.331729 138 138 138
-0.106508 0.218246 -0.331108 138 138 138
-0.110057 0.216759 -0.330397 138 138 138
-0.113599 0.215274 -0.329686 138 138 138
-0.117050 0.213747 -0.329007 138 138 138
-0.120254 0.212097 -0.328411 138 138 138
-0.123456 0.210451 -0.327815 138 138 138
-0.126402 0.208676 -0.327307 138 138 138
-0.129622 0.207048 -0.326704 138 138 138
-0.132907 0.205459 -0.326077 138 138 138
-0.136275 0.203919 -0.325422 138 138 138
-0.139416 0.202264 -0.324844 138 138 138
-0.141858 0.200243 -0.324506 138 138 138
-0.144201 0.198174 -0.324202 138 138 138
-0.146294 0.195973 -0.323985 138 138 138
-0.147477 0.193289 -0.324082 138 138 138
-0.148536 0.190539 -0.324222 138 138 138
-0.149596 0.187787 -0.324362 138 138 138
-0.150656 0.185035 -0.324502 138 138 138
-0.151361 0.182090 -0.324765 138 138 138
-0.151730 0.178962 -0.325145 138 138 138
-0.152098 0.175830 -0.325526 138 138 138
-0.152467 0.172696 -0.325907 138 138 138
-0.153261 0.169790 -0.326141 138 138 138
-0.154109 0.166912 -0.326356 138 138 138
-0.154957 0.164032 -0.326572 138 138 138
-0.155752 0.161121 -0.326806 138 138 138
-0.156905 0.158405 -0.326916 138 138 138
-0.158303 0.155823 -0.326940 138 138 138
-0.159703 0.153242 -0.326964 138 138 138
-0.161102 0.150660 -0.326989 138 138 138
-0.162501 0.148078 -0.327013 138 138 138
-0.163826 0.145455 -0.327063 138 138 138
-0.164824 0.142649 -0.327227 138 138 138
-0.165779 0.139818 -0.327407 138 138 138
-0.166735 0.136985 -0.327587 138 138 138
-0.167530 0.134061 -0.327823 138 138 138
-0.168226 0.131079 -0.328095 138 138 138
-0.168922 0.128095 -0.328366 138 138 138
-0.169618 0.125109 -0.328638 138 138 138
-0.170170 0.122039 -0.328961 138 138 138
-0.170571 0.118880 -0.329337 138 138 138
-0.170972 0.115719 -0.329714 138 138 138
-0.171363 0.112549 -0.330095 138 138 138
-0.171676 0.109330 -0.330503 138 138 138
-0.172063 0.106151 -0.330887 138 138 138
-0.172728 0.103130 -0.331172 138 138 138
-0.173437 0.100131 -0.331443 138 138 138
-0.174003 0.097048 -0.331764 138 138 138
-0.174785 0.094086 -0.332009 138 138 138
-0.175606 0.091146 -0.332241 138 138 138
-0.176594 0.088302 -0.332414 138 138 138
-0.177646 0.085493 -0.332565 138 138 138
