ply
format ascii 1.0
element vertex 1151
property float x
property float y
property float z
property uchar red
property uchar green
property uchar blue
end_header
-0.399559 -0.070112 -0.007802 138 138 138
-0.400074 -0.072794 -0.007697 138 138 138
-0.400589 -0.075475 -0.007592 138 138 138
-0.401174 -0.078153 -0.007473 138 138 138
-0.402008 -0.080822 -0.007303 138 138 138
-0.402817 -0.083490 -0.007138 138 138 138
-0.403602 -0.086157 -0.006978 138 138 138
-0.404387 -0.088822 -0.006818 138 138 138
-0.405171 -0.091486 -0.006658 138 138 138
-0.405955 -0.094148 -0.006499 138 138 138
-0.407323 -0.096787 -0.006220 138 138 138
-0.408929 -0.099413 -0.005893 138 138 138
-0.410658 -0.102031 -0.005541 138 138 138
-0.412385 -0.104646 -0.005189 138 138 138
-0.414109 -0.107257 -0.004838 138 138 138
-0.416184 -0.109850 -0.004415 138 138 138
-0.418093 -0.112445 -0.004026 138 138 138
-0.419809 -0.115046 -0.003677 138 138 138
-0.421522 -0.117642 -0.003328 138 138 138
-0.423233 -0.120236 -0.002979 138 138 138
-0.424685 -0.122838 -0.002683 138 138 138
-0.425587 -0.125464 -0.002500 138 138 138
-0.426488 -0.128088 -0.002316 138 138 138
-0.427388 -0.130711 -0.002133 138 138 138
-0.428147 -0.133339 -0.001978 138 138 138
-0.428760 -0.135973 -0.001853 138 138 138
-0.428901 -0.138631 -0.001824 138 138 138
-0.428614 -0.141313 -0.001883 138 138 138
-0.428328 -0.143996 -0.001941 138 138 138
-0.427624 -0.146703 -0.002085 138 138 138
-0.424735 -0.149539 -0.002673 138 138 138
-0.421173 -0.152421 -0.003399 138 138 138
-0.380621 -0.157551 -0.011660 138 138 138
-0.380647 -0.160266 -0.011655 138 138 138
-0.381065 -0.162956 -0.011569 138 138 138
-0.382321 -0.165592 -0.011313 138 138 138
-0.383725 -0.168216 -0.011028 138 138 138
-0.385730 -0.170797 -0.010619 138 138 138
-0.385321 -0.173536 -0.010702 138 138 138
-0.384828 -0.176280 -0.010803 138 138 138
-0.384335 -0.179026 -0.010903 138 138 138
-0.383570 -0.181792 -0.011059 138 138 138
-0.380135 -0.184750 -0.011759 138 138 138
-0.376718 -0.187713 -0.012455 138 138 138
-0.373280 -0.190685 -0.013155 138 138 138
-0.370439 -0.193619 -0.013734 138 138 138
-0.369117 -0.196446 -0.014003 138 138 138
-0.367778 -0.199276 -0.014276 138 138 138
-0.366093 -0.202136 -0.014619 138 138 138
-0.363564 -0.205066 -0.015135 138 138 138
-0.357963 -0.208245 -0.016276 138 138 138
-0.351486 -0.211505 -0.017595 138 138 138
-0.346909 -0.214625 -0.018528 138 138 138
-0.343338 -0.217671 -0.019255 138 138 138
-0.340397 -0.220672 -0.019854 138 138 138
-0.337508 -0.223675 -0.020443 138 138 138
-0.333712 -0.226761 -0.021216 138 138 138
-0.327059 -0.230103 -0.022571 138 138 138
-0.322190 -0.233303 -0.023563 138 138 138
-0.319123 -0.236352 -0.024188 138 138 138
-0.317915 -0.239241 -0.024434 138 138 138
-0.316697 -0.242134 -0.024682 138 138 138
-0.315477 -0.245029 -0.024931 138 138 138
-0.314405 -0.247913 -0.025149 138 138 138
-0.313533 -0.250781 -0.025327 138 138 138
-0.312660 -0.253650 -0.025505 138 138 138
-0.311824 -0.256518 -0.025675 138 138 138
-0.310499 -0.259435 -0.025945 138 138 138
-0.309164 -0.262355 -0.026217 138 138 138
-0.307845 -0.265277 -0.026486 138 138 138
-0.306535 -0.268201 -0.026752 138 138 138
-0.305324 -0.271117 -0.026999 138 138 138
-0.304119 -0.274036 -0.027245 138 138 138
-0.302925 -0.276955 -0.027488 138 138 138
-0.301749 -0.279876 -0.027727 138 138 138
-0.300483 -0.282808 -0.027985 138 138 138
-0.299120 -0.285753 -0.028263 138 138 138
-0.297713 -0.288706 -0.028550 138 138 138
-0.295935 -0.291702 -0.028912 138 138 138
-0.294073 -0.294711 -0.029291 138 138 138
-0.292179 -0.297727 -0.029677 138 138 138
-0.290220 -0.300755 -0.030076 138 138 138
-0.288149 -0.303799 -0.030498 138 138 138
-0.286075 -0.306848 -0.030920 138 138 138
-0.283918 -0.309911 -0.031360 138 138 138
-0.281112 -0.313054 -0.031931 138 138 138
-0.278298 -0.316203 -0.032505 138 138 138
-0.274954 -0.319421 -0.033186 138 138 138
-0.269710 -0.322872 -0.034254 138 138 138
-0.263253 -0.326480 -0.035570 138 138 138
-0.253486 -0.330502 -0.037559 138 138 138
-0.247048 -0.334137 -0.038871 138 138 138
-0.243030 -0.337488 -0.039690 138 138 138
-0.239759 -0.340755 -0.040356 138 138 138
-0.237104 -0.343951 -0.040897 138 138 138
-0.234649 -0.347127 -0.041397 138 138 138
-0.231796 -0.350360 -0.041978 138 138 138
-0.228830 -0.353612 -0.042582 138 138 138
-0.225670 -0.356896 -0.043226 138 138 138
-0.222514 -0.360187 -0.043869 138 138 138
-0.219747 -0.363432 -0.044433 138 138 138
-0.218121 -0.366532 -0.044764 138 138 138
-0.216244 -0.369669 -0.045146 138 138 138
-0.214545 -0.372786 -0.045492 138 138 138
-0.213269 -0.375849 -0.045752 138 138 138
-0.211877 -0.378930 -0.046036 138 138 138
-0.210484 -0.382015 -0.046320 138 138 138
-0.208447 -0.385192 -0.046735 138 138 138
-0.204867 -0.388589 -0.047464 138 138 138
-0.201278 -0.391995 -0.048195 138 138 138
-0.192824 -0.396099 -0.049917 138 138 138
-0.155497 0.389661 -0.060532 138 138 138
-0.163151 0.385662 -0.058965 138 138 138
-0.168085 0.382048 -0.057954 138 138 138
-0.172455 0.378520 -0.057059 138 138 138
-0.175631 0.375161 -0.056409 138 138 138
-0.178779 0.371813 -0.055764 138 138 138
-0.182557 0.368388 -0.054991 138 138 138
-0.187330 0.364841 -0.054013 138 138 138
-0.193661 0.361103 -0.052717 138 138 138
-0.202129 0.357103 -0.050983 138 138 138
-0.218417 0.352124 -0.047647 138 138 138
-0.231057 0.347641 -0.045059 138 138 138
-0.240745 0.343554 -0.043075 138 138 138
-0.250068 0.339532 -0.041166 138 138 138
-0.260837 0.335352 -0.038960 138 138 138
-0.267013 0.331755 -0.037696 138 138 138
-0.273103 0.328182 -0.036448 138 138 138
-0.277124 0.324870 -0.035625 138 138 138
-0.282079 0.321455 -0.034610 138 138 138
-0.284937 0.318298 -0.034025 138 138 138
-0.287709 0.315157 -0.033457 138 138 138
-0.290536 0.312015 -0.032879 138 138 138
-0.293190 0.308899 -0.032335 138 138 138
-0.295838 0.305790 -0.031793 138 138 138
-0.298459 0.302689 -0.031256 138 138 138
-0.300477 0.299661 -0.030843 138 138 138
-0.302435 0.296643 -0.030442 138 138 138
-0.304391 0.293630 -0.030041 138 138 138
-0.306311 0.290625 -0.029648 138 138 138
-0.307589 0.287693 -0.029386 138 138 138
-0.308682 0.284784 -0.029162 138 138 138
-0.309885 0.281865 -0.028916 138 138 138
-0.311086 0.278949 -0.028670 138 138 138
-0.312039 0.276061 -0.028475 138 138 138
-0.312226 0.273253 -0.028437 138 138 138
-0.312346 0.270452 -0.028412 138 138 138
-0.312463 0.267653 -0.028388 138 138 138
-0.312611 0.264850 -0.028358 138 138 138
-0.312678 0.262055 -0.028344 138 138 138
-0.312747 0.259261 -0.028330 138 138 138
-0.312815 0.256467 -0.028316 138 138 138
-0.312922 0.253669 -0.028294 138 138 138
-0.313548 0.250822 -0.028166 138 138 138
-0.314209 0.247974 -0.028031 138 138 138
-0.315099 0.245106 -0.027849 138 138 138
-0.316201 0.242221 -0.027623 138 138 138
-0.317267 0.239341 -0.027404 138 138 138
-0.318305 0.236465 -0.027192 138 138 138
-0.319490 0.233580 -0.026949 138 138 138
-0.320540 0.230708 -0.026734 138 138 138
-0.321963 0.227806 -0.026443 138 138 138
-0.323763 0.224876 -0.026074 138 138 138
-0.325601 0.221946 -0.025698 138 138 138
-0.327574 0.219009 -0.025294 138 138 138
-0.330009 0.216038 -0.024795 138 138 138
-0.332812 0.213043 -0.024221 138 138 138
-0.335178 0.210089 -0.023737 138 138 138
-0.337562 0.207138 -0.023248 138 138 138
-0.339796 0.204203 -0.022791 138 138 138
-0.341743 0.201295 -0.022392 138 138 138
-0.343307 0.198420 -0.022072 138 138 138
-0.344678 0.195563 -0.021791 138 138 138
-0.345892 0.192720 -0.021543 138 138 138
-0.346967 0.189889 -0.021322 138 138 138
-0.348039 0.187061 -0.021103 138 138 138
-0.348983 0.184244 -0.020910 138 138 138
-0.349941 0.181428 -0.020713 138 138 138
-0.350800 0.178621 -0.020538 138 138 138
-0.351559 0.175822 -0.020382 138 138 138
-0.352339 0.173023 -0.020222 138 138 138
-0.353197 0.170221 -0.020047 138 138 138
-0.354062 0.167421 -0.019870 138 138 138
-0.354926 0.164622 -0.019693 138 138 138
-0.355771 0.161826 -0.019520 138 138 138
-0.356583 0.159034 -0.019353 138 138 138
-0.357416 0.156243 -0.019183 138 138 138
-0.358249 0.153453 -0.019012 138 138 138
-0.359077 0.150665 -0.018843 138 138 138
-0.360000 0.147874 -0.018653 138 138 138
-0.360833 0.145089 -0.018483 138 138 138
-0.361745 0.142302 -0.018296 138 138 138
-0.362902 0.139504 -0.018059 138 138 138
-0.363816 0.136721 -0.017872 138 138 138
-0.364238 0.133965 -0.017786 138 138 138
-0.364660 0.131210 -0.017699 138 138 138
-0.365082 0.128455 -0.017613 138 138 138
-0.365461 0.125704 -0.017535 138 138 138
-0.365594 0.122965 -0.017508 138 138 138
-0.365632 0.120231 -0.017500 138 138 138
-0.365798 0.117491 -0.017466 138 138 138
-0.366061 0.114747 -0.017412 138 138 138
-0.366304 0.112005 -0.017363 138 138 138
-0.366442 0.109267 -0.017334 138 138 138
-0.366701 0.106525 -0.017281 138 138 138
-0.366965 0.103783 -0.017227 138 138 138
-0.367255 0.101041 -0.017168 138 138 138
-0.367616 0.098296 -0.017094 138 138 138
-0.368016 0.095551 -0.017012 138 138 138
-0.368595 0.092800 -0.016893 138 138 138
-0.369276 0.090048 -0.016754 138 138 138
-0.370315 0.087284 -0.016541 138 138 138
-0.371511 0.084518 -0.016296 138 138 138
-0.372705 0.081754 -0.016052 138 138 138
-0.373899 0.078993 -0.015807 138 138 138
-0.375186 0.076231 -0.015544 138 138 138
-0.377395 0.073446 -0.015091 138 138 138
-0.379601 0.070666 -0.014639 138 138 138
-0.381803 0.067891 -0.014189 138 138 138
-0.383746 0.065126 -0.013791 138 138 138
-0.385468 0.062372 -0.013438 138 138 138
-0.387302 0.059618 -0.013063 138 138 138
-0.389559 0.056858 -0.012600 138 138 138
-0.391325 0.054114 -0.012239 138 138 138
-0.392595 0.051383 -0.011979 138 138 138
-0.393863 0.048655 -0.011719 138 138 138
-0.395028 0.045931 -0.011480 138 138 138
-0.396190 0.043210 -0.011242 138 138 138
-0.397198 0.040493 -0.011036 138 138 138
-0.397940 0.037783 -0.010884 138 138 138
-0.398602 0.035075 -0.010748 138 138 138
-0.399136 0.032370 -0.010639 138 138 138
-0.399559 0.029668 -0.010552 138 138 138
-0.399978 0.026967 -0.010467 138 138 138
-0.400431 0.024266 -0.010374 138 138 138
-0.400918 0.021565 -0.010274 138 138 138
-0.401397 0.018866 -0.010176 138 138 138
-0.401775 0.016169 -0.010099 138 138 138
-0.402097 0.013472 -0.010033 138 138 138
-0.402341 0.010777 -0.009983 138 138 138
-0.402463 0.008082 -0.009958 138 138 138
-0.402539 0.005388 -0.009942 138 138 138
-0.402612 0.002694 -0.009927 138 138 138
-0.402664 0.000000 -0.009917 138 138 138
-0.402316 -0.002694 -0.009988 138 138 138
-0.401967 -0.005389 -0.010059 138 138 138
-0.401556 -0.008085 -0.010144 138 138 138
-0.401113 -0.010782 -0.010234 138 138 138
-0.400854 -0.013479 -0.010287 138 138 138
-0.400534 -0.016176 -0.010353 138 138 138
-0.400119 -0.018876 -0.010438 138 138 138
-0.399705 -0.021575 -0.010523 138 138 138
-0.399350 -0.024276 -0.010595 138 138 138
-0.398889 -0.026978 -0.010690 138 138 138
-0.398440 -0.029681 -0.010782 138 138 138
-0.398083 -0.032384 -0.010855 138 138 138
-0.397863 -0.035085 -0.010900 138 138 138
-0.397707 -0.037786 -0.010932 138 138 138
-0.397551 -0.040488 -0.010964 138 138 138
-0.397397 -0.043190 -0.010995 138 138 138
-0.397353 -0.045890 -0.011004 138 138 138
-0.397517 -0.048586 -0.010971 138 138 138
-0.397696 -0.051282 -0.010934 138 138 138
-0.397875 -0.053977 -0.010897 138 138 138
-0.398046 -0.056672 -0.010862 138 138 138
-0.398119 -0.059369 -0.010847 138 138 138
-0.398190 -0.062066 -0.010833 138 138 138
-0.398296 -0.064762 -0.010811 138 138 138
-0.398546 -0.067454 -0.010760 138 138 138
-0.398733 -0.070147 -0.010722 138 138 138
-0.399036 -0.072836 -0.010660 138 138 138
-0.399432 -0.075522 -0.010579 138 138 138
-0.399843 -0.078207 -0.010494 138 138 138
-0.400495 -0.080883 -0.010361 138 138 138
-0.401290 -0.083554 -0.010198 138 138 138
-0.402083 -0.086222 -0.010036 138 138 138
-0.402878 -0.088890 -0.009873 138 138 138
-0.403664 -0.091555 -0.009712 138 138 138
-0.404650 -0.094212 -0.009510 138 138 138
-0.406202 -0.096845 -0.009192 138 138 138
-0.407751 -0.099476 -0.008875 138 138 138
-0.409396 -0.102099 -0.008538 138 138 138
-0.411124 -0.104715 -0.008184 138 138 138
-0.412956 -0.107324 -0.007809 138 138 138
-0.415250 -0.109909 -0.007339 138 138 138
-0.417494 -0.112491 -0.006880 138 138 138
-0.419415 -0.115083 -0.006486 138 138 138
-0.421129 -0.117681 -0.006135 138 138 138
-0.422841 -0.120275 -0.005785 138 138 138
-0.423977 -0.122893 -0.005552 138 138 138
-0.424966 -0.125516 -0.005350 138 138 138
-0.425868 -0.128141 -0.005165 138 138 138
-0.426759 -0.130765 -0.004982 138 138 138
-0.427529 -0.133394 -0.004825 138 138 138
-0.427984 -0.136038 -0.004732 138 138 138
-0.428423 -0.138681 -0.004642 138 138 138
-0.428136 -0.141364 -0.004700 138 138 138
-0.427850 -0.144047 -0.004759 138 138 138
-0.426360 -0.146800 -0.005064 138 138 138
-0.424004 -0.149607 -0.005547 138 138 138
-0.420054 -0.152514 -0.006356 138 138 138
-0.380312 -0.157597 -0.014494 138 138 138
-0.380373 -0.160310 -0.014481 138 138 138
-0.380434 -0.163024 -0.014469 138 138 138
-0.381515 -0.165672 -0.014248 138 138 138
-0.383090 -0.168286 -0.013925 138 138 138
-0.383776 -0.170955 -0.013785 138 138 138
-0.383769 -0.173669 -0.013786 138 138 138
-0.383934 -0.176371 -0.013752 138 138 138
-0.384099 -0.179073 -0.013719 138 138 138
-0.383224 -0.181848 -0.013898 138 138 138
-0.380725 -0.184740 -0.014409 138 138 138
-0.377468 -0.187691 -0.015076 138 138 138
-0.374065 -0.190660 -0.015773 138 138 138
-0.370869 -0.193621 -0.016428 138 138 138
-0.369513 -0.196450 -0.016705 138 138 138
-0.368174 -0.199280 -0.016980 138 138 138
-0.366383 -0.202148 -0.017346 138 138 138
-0.363432 -0.205111 -0.017951 138 138 138
-0.357950 -0.208281 -0.019073 138 138 138
-0.351581 -0.211534 -0.020377 138 138 138
-0.347678 -0.214599 -0.021177 138 138 138
-0.343519 -0.217694 -0.022029 138 138 138
-0.339875 -0.220754 -0.022775 138 138 138
-0.336991 -0.223757 -0.023365 138 138 138
-0.331437 -0.226995 -0.024503 138 138 138
-0.324559 -0.230359 -0.025911 138 138 138
-0.318250 -0.233688 -0.027203 138 138 138
-0.317010 -0.236580 -0.027457 138 138 138
-0.316427 -0.239416 -0.027577 138 138 138
-0.315207 -0.242311 -0.027826 138 138 138
-0.313987 -0.245208 -0.028076 138 138 138
-0.313090 -0.248078 -0.028260 138 138 138
-0.312248 -0.250944 -0.028432 138 138 138
-0.311554 -0.253799 -0.028574 138 138 138
-0.310582 -0.256681 -0.028773 138 138 138
-0.309081 -0.259617 -0.029081 138 138 138
-0.307719 -0.262542 -0.029360 138 138 138
-0.306370 -0.265469 -0.029636 138 138 138
-0.305113 -0.268389 -0.029893 138 138 138
-0.303920 -0.271306 -0.030138 138 138 138
-0.302725 -0.274225 -0.030382 138 138 138
-0.301546 -0.277145 -0.030624 138 138 138
-0.300334 -0.280071 -0.030872 138 138 138
-0.299109 -0.283001 -0.031123 138 138 138
-0.297756 -0.285947 -0.031400 138 138 138
-0.296202 -0.288918 -0.031718 138 138 138
-0.294349 -0.291924 -0.032098 138 138 138
-0.292483 -0.294936 -0.032480 138 138 138
-0.290623 -0.297951 -0.032861 138 138 138
-0.288548 -0.300994 -0.033286 138 138 138
-0.286291 -0.304061 -0.033748 138 138 138
-0.283957 -0.307142 -0.034226 138 138 138
-0.281353 -0.310259 -0.034759 138 138 138
-0.278559 -0.313404 -0.035331 138 138 138
-0.275740 -0.316557 -0.035909 138 138 138
-0.271235 -0.319915 -0.036831 138 138 138
-0.265915 -0.323379 -0.037920 138 138 138
-0.257909 -0.327178 -0.039560 138 138 138
-0.251441 -0.330806 -0.040885 138 138 138
-0.245640 -0.334367 -0.042073 138 138 138
-0.242133 -0.337657 -0.042791 138 138 138
-0.239126 -0.340892 -0.043406 138 138 138
-0.236399 -0.344098 -0.043965 138 138 138
-0.233385 -0.347347 -0.044582 138 138 138
-0.230423 -0.350595 -0.045189 138 138 138
-0.227379 -0.353859 -0.045812 138 138 138
-0.224184 -0.357150 -0.046466 138 138 138
-0.221032 -0.360442 -0.047112 138 138 138
-0.218663 -0.363637 -0.047597 138 138 138
-0.217087 -0.366732 -0.047920 138 138 138
-0.215346 -0.369853 -0.048276 138 138 138
-0.213792 -0.372951 -0.048594 138 138 138
-0.212401 -0.376031 -0.048879 138 138 138
-0.210979 -0.379118 -0.049170 138 138 138
-0.209414 -0.382228 -0.049491 138 138 138
-0.206581 -0.385517 -0.050071 138 138 138
-0.203511 -0.388846 -0.050700 138 138 138
-0.197126 -0.392648 -0.052007 138 138 138
-0.187330 -0.396947 -0.054013 100 100 100
-0.155221 0.389766 -0.063601 138 138 138
-0.163443 0.385688 -0.061908 138 138 138
-0.168748 0.382023 -0.060816 138 138 138
-0.173281 0.378474 -0.059883 138 138 138
-0.176631 0.375092 -0.059193 138 138 138
-0.179932 0.371724 -0.058514 138 138 138
-0.184191 0.368236 -0.057637 138 138 138
-0.189146 0.364667 -0.056617 138 138 138
-0.195834 0.360883 -0.055241 138 138 138
-0.204237 0.356893 -0.053511 138 138 138
-0.217964 0.352243 -0.050685 138 138 138
-0.227816 0.348110 -0.048657 138 138 138
-0.238410 0.343905 -0.046476 138 138 138
-0.247766 0.339877 -0.044551 138 138 138
-0.255370 0.336083 -0.042985 138 138 138
-0.261510 0.332485 -0.041721 138 138 138
-0.267841 0.328876 -0.040418 138 138 138
-0.275449 0.325127 -0.038852 138 138 138
-0.281088 0.321628 -0.037691 138 138 138
-0.284686 0.318382 -0.036950 138 138 138
-0.287451 0.315241 -0.036381 138 138 138
-0.290208 0.312107 -0.035814 138 138 138
-0.293126 0.308960 -0.035213 138 138 138
-0.295775 0.305849 -0.034668 138 138 138
-0.298612 0.302723 -0.034084 138 138 138
-0.300907 0.299664 -0.033612 138 138 138
-0.303027 0.296629 -0.033175 138 138 138
-0.305144 0.293598 -0.032739 138 138 138
-0.307166 0.290582 -0.032323 138 138 138
-0.308187 0.287678 -0.032113 138 138 138
-0.309206 0.284777 -0.031903 138 138 138
-0.310373 0.281862 -0.031663 138 138 138
-0.311574 0.278946 -0.031416 138 138 138
-0.312191 0.276092 -0.031289 138 138 138
-0.312490 0.273273 -0.031227 138 138 138
-0.312671 0.270466 -0.031190 138 138 138
-0.312791 0.267666 -0.031165 138 138 138
-0.312869 0.264870 -0.031149 138 138 138
-0.312894 0.262079 -0.031144 138 138 138
-0.312919 0.259289 -0.031139 138 138 138
-0.312944 0.256498 -0.031134 138 138 138
-0.313186 0.253687 -0.031084 138 138 138
-0.313847 0.250837 -0.030948 138 138 138
-0.314507 0.247989 -0.030812 138 138 138
-0.315167 0.245142 -0.030676 138 138 138
-0.316217 0.242261 -0.030460 138 138 138
-0.317259 0.239382 -0.030245 138 138 138
-0.318297 0.236507 -0.030032 138 138 138
-0.319335 0.233633 -0.029818 138 138 138
-0.320466 0.230754 -0.029585 138 138 138
-0.321633 0.227874 -0.029345 138 138 138
-0.323474 0.224939 -0.028966 138 138 138
-0.325272 0.222012 -0.028596 138 138 138
-0.327185 0.219079 -0.028202 138 138 138
-0.329193 0.216142 -0.027789 138 138 138
-0.332253 0.213125 -0.027159 138 138 138
-0.334472 0.210181 -0.026702 138 138 138
-0.336607 0.207248 -0.026263 138 138 138
-0.338954 0.204303 -0.025780 138 138 138
-0.340865 0.201397 -0.025386 138 138 138
-0.342316 0.198529 -0.025088 138 138 138
-0.343678 0.195670 -0.024807 138 138 138
-0.345091 0.192811 -0.024516 138 138 138
-0.346213 0.189976 -0.024285 138 138 138
-0.347226 0.187151 -0.024077 138 138 138
-0.348185 0.184331 -0.023879 138 138 138
-0.349144 0.181514 -0.023682 138 138 138
-0.350103 0.178699 -0.023485 138 138 138
-0.350987 0.175890 -0.023303 138 138 138
-0.351784 0.173090 -0.023139 138 138 138
-0.352609 0.170289 -0.022969 138 138 138
-0.353474 0.167487 -0.022791 138 138 138
-0.354339 0.164687 -0.022613 138 138 138
-0.355137 0.161893 -0.022448 138 138 138
-0.356414 0.159072 -0.022186 138 138 138
-0.357291 0.156277 -0.022005 138 138 138
-0.358161 0.153484 -0.021826 138 138 138
-0.359020 0.150694 -0.021649 138 138 138
-0.359832 0.147909 -0.021482 138 138 138
-0.360731 0.145120 -0.021297 138 138 138
-0.361563 0.142336 -0.021126 138 138 138
-0.362538 0.139547 -0.020925 138 138 138
-0.363129 0.136780 -0.020803 138 138 138
-0.363528 0.134024 -0.020721 138 138 138
-0.363906 0.131270 -0.020643 138 138 138
-0.364284 0.128517 -0.020565 138 138 138
-0.364605 0.125767 -0.020499 138 138 138
-0.364643 0.123031 -0.020492 138 138 138
-0.364680 0.120295 -0.020484 138 138 138
-0.364717 0.117560 -0.020476 138 138 138
-0.364732 0.114825 -0.020473 138 138 138
-0.364805 0.112088 -0.020458 138 138 138
-0.364944 0.109348 -0.020430 138 138 138
-0.365103 0.106608 -0.020397 138 138 138
-0.365368 0.103864 -0.020342 138 138 138
-0.365491 0.101126 -0.020317 138 138 138
-0.365636 0.098387 -0.020287 138 138 138
-0.365969 0.095642 -0.020219 138 138 138
-0.366305 0.092898 -0.020149 138 138 138
-0.366835 0.090147 -0.020040 138 138 138
-0.367469 0.087394 -0.019910 138 138 138
-0.368561 0.084628 -0.019685 138 138 138
-0.369689 0.081863 -0.019453 138 138 138
-0.370817 0.079100 -0.019221 138 138 138
-0.372188 0.076332 -0.018938 138 138 138
-0.374364 0.073544 -0.018491 138 138 138
-0.376737 0.070756 -0.018002 138 138 138
-0.379138 0.067972 -0.017508 138 138 138
-0.381536 0.065193 -0.017014 138 138 138
-0.383776 0.062423 -0.016553 138 138 138
-0.385669 0.059665 -0.016163 138 138 138
-0.387929 0.056904 -0.015698 138 138 138
-0.390185 0.054147 -0.015234 138 138 138
-0.391879 0.051406 -0.014885 138 138 138
-0.393098 0.048677 -0.014634 138 138 138
-0.394262 0.045952 -0.014395 138 138 138
-0.395425 0.043230 -0.014155 138 138 138
-0.396546 0.040510 -0.013924 138 138 138
-0.397518 0.037796 -0.013724 138 138 138
-0.398126 0.035088 -0.013599 138 138 138
-0.398660 0.032382 -0.013489 138 138 138
-0.399101 0.029678 -0.013398 138 138 138
-0.399528 0.026976 -0.013311 138 138 138
-0.400045 0.024273 -0.013204 138 138 138
-0.400526 0.021572 -0.013105 138 138 138
-0.401005 0.018872 -0.013006 138 138 138
-0.401485 0.016173 -0.012908 138 138 138
-0.401898 0.013476 -0.012823 138 138 138
-0.402059 0.010780 -0.012790 138 138 138
-0.402181 0.008084 -0.012764 138 138 138
-0.402302 0.005389 -0.012740 138 138 138
-0.402419 0.002695 -0.012715 138 138 138
-0.402355 0.000000 -0.012729 138 138 138
-0.402039 -0.002695 -0.012794 138 138 138
-0.401690 -0.005391 -0.012865 138 138 138
-0.401325 -0.008087 -0.012941 138 138 138
-0.400942 -0.010784 -0.013019 138 138 138
-0.400705 -0.013482 -0.013068 138 138 138
-0.400468 -0.016180 -0.013117 138 138 138
-0.400055 -0.018879 -0.013202 138 138 138
-0.399663 -0.021580 -0.013283 138 138 138
-0.399462 -0.024279 -0.013324 138 138 138
-0.399040 -0.026981 -0.013411 138 138 138
-0.398585 -0.029684 -0.013505 138 138 138
-0.398129 -0.032389 -0.013598 138 138 138
-0.397781 -0.035092 -0.013670 138 138 138
-0.397436 -0.037797 -0.013741 138 138 138
-0.397183 -0.040501 -0.013793 138 138 138
-0.397028 -0.043203 -0.013825 138 138 138
-0.397123 -0.045902 -0.013806 138 138 138
-0.397302 -0.048598 -0.013769 138 138 138
-0.397481 -0.051295 -0.013732 138 138 138
-0.397661 -0.053991 -0.013695 138 138 138
-0.397792 -0.056687 -0.013668 138 138 138
-0.397862 -0.059385 -0.013653 138 138 138
-0.397933 -0.062083 -0.013639 138 138 138
-0.398004 -0.064780 -0.013624 138 138 138
-0.398054 -0.067478 -0.013614 138 138 138
-0.398141 -0.070175 -0.013596 138 138 138
-0.398289 -0.072870 -0.013566 138 138 138
-0.398642 -0.075558 -0.013493 138 138 138
-0.399038 -0.078245 -0.013412 138 138 138
-0.399393 -0.080932 -0.013338 138 138 138
-0.400035 -0.083609 -0.013206 138 138 138
-0.400715 -0.086283 -0.013066 138 138 138
-0.401396 -0.088956 -0.012926 138 138 138
-0.402166 -0.091624 -0.012768 138 138 138
-0.403526 -0.094269 -0.012488 138 138 138
-0.405079 -0.096904 -0.012168 138 138 138
-0.406629 -0.099536 -0.011849 138 138 138
-0.408178 -0.102165 -0.011530 138 138 138
-0.409862 -0.104785 -0.011183 138 138 138
-0.412019 -0.107381 -0.010739 138 138 138
-0.414315 -0.109968 -0.010267 138 138 138
-0.416607 -0.112549 -0.009795 138 138 138
-0.418741 -0.115133 -0.009356 138 138 138
-0.420671 -0.117722 -0.008958 138 138 138
-0.422188 -0.120326 -0.008646 138 138 138
-0.423219 -0.122951 -0.008434 138 138 138
-0.424250 -0.125573 -0.008222 138 138 138
-0.425247 -0.128195 -0.008016 138 138 138
-0.426097 -0.130822 -0.007841 138 138 138
-0.426751 -0.133457 -0.007707 138 138 138
-0.427206 -0.136102 -0.007613 138 138 138
-0.427660 -0.138746 -0.007520 138 138 138
-0.427658 -0.141415 -0.007520 138 138 138
-0.427189 -0.144109 -0.007617 138 138 138
-0.425157 -0.146895 -0.008035 138 138 138
-0.423154 -0.149683 -0.008447 138 138 138
-0.419320 -0.152584 -0.009236 138 138 138
-0.379128 -0.157696 -0.017510 138 138 138
-0.379815 -0.160372 -0.017368 138 138 138
-0.380161 -0.163069 -0.017297 138 138 138
-0.380709 -0.165752 -0.017184 138 138 138
-0.381989 -0.168386 -0.016921 138 138 138
-0.381802 -0.171114 -0.016959 138 138 138
-0.381638 -0.173841 -0.016993 138 138 138
-0.381803 -0.176546 -0.016959 138 138 138
-0.381969 -0.179251 -0.016925 138 138 138
-0.380452 -0.182073 -0.017237 138 138 138
-0.378842 -0.184905 -0.017569 138 138 138
-0.377231 -0.187740 -0.017900 138 138 138
-0.374872 -0.190634 -0.018386 138 138 138
-0.371678 -0.193594 -0.019043 138 138 138
-0.369891 -0.196455 -0.019411 138 138 138
-0.368570 -0.199284 -0.019683 138 138 138
-0.365079 -0.202284 -0.020402 138 138 138
-0.361300 -0.205314 -0.021180 138 138 138
-0.357808 -0.208328 -0.021898 138 138 138
-0.352143 -0.211525 -0.023065 138 138 138
-0.348446 -0.214573 -0.023826 138 138 138
-0.344140 -0.217680 -0.024712 138 138 138
-0.340144 -0.220769 -0.025535 138 138 138
-0.335411 -0.223929 -0.026509 138 138 138
-0.328936 -0.227248 -0.027842 138 138 138
-0.322169 -0.230606 -0.029235 138 138 138
-0.317131 -0.233827 -0.030272 138 138 138
-0.315350 -0.236768 -0.030638 138 138 138
-0.314475 -0.239633 -0.030819 138 138 138
-0.313716 -0.242488 -0.030975 138 138 138
-0.312647 -0.245373 -0.031195 138 138 138
-0.311896 -0.248232 -0.031349 138 138 138
-0.311202 -0.251086 -0.031492 138 138 138
-0.310507 -0.253942 -0.031635 138 138 138
-0.309216 -0.256856 -0.031901 138 138 138
-0.307708 -0.259795 -0.032211 138 138 138
-0.306283 -0.262728 -0.032505 138 138 138
-0.304931 -0.265657 -0.032783 138 138 138
-0.303720 -0.268575 -0.033032 138 138 138
-0.302525 -0.271494 -0.033278 138 138 138
-0.301329 -0.274415 -0.033525 138 138 138
-0.300143 -0.277338 -0.033769 138 138 138
-0.298917 -0.280268 -0.034021 138 138 138
-0.297691 -0.283200 -0.034274 138 138 138
-0.296391 -0.286142 -0.034541 138 138 138
-0.294597 -0.289140 -0.034910 138 138 138
-0.292745 -0.292149 -0.035292 138 138 138
-0.290796 -0.295172 -0.035693 138 138 138
-0.288679 -0.298217 -0.036129 138 138 138
-0.286349 -0.301291 -0.036608 138 138 138
-0.284015 -0.304370 -0.037089 138 138 138
-0.281575 -0.307466 -0.037591 138 138 138
-0.278782 -0.310608 -0.038166 138 138 138
-0.275983 -0.313756 -0.038742 138 138 138
-0.272764 -0.316959 -0.039405 138 138 138
-0.267395 -0.320423 -0.040510 138 138 138
-0.261913 -0.323911 -0.041638 138 138 138
-0.254272 -0.327671 -0.043211 138 138 138
-0.249464 -0.331102 -0.044201 138 138 138
-0.244715 -0.334537 -0.045179 138 138 138
-0.241413 -0.337803 -0.045858 138 138 138
-0.238462 -0.341033 -0.046466 138 138 138
-0.235519 -0.344268 -0.047072 138 138 138
-0.232303 -0.347543 -0.047734 138 138 138
-0.229048 -0.350830 -0.048404 138 138 138
-0.225882 -0.354113 -0.049055 138 138 138
-0.222651 -0.357410 -0.049720 138 138 138
-0.219555 -0.360696 -0.050358 138 138 138
-0.217617 -0.363837 -0.050757 138 138 138
-0.215920 -0.366950 -0.051106 138 138 138
-0.214421 -0.370040 -0.051415 138 138 138
-0.212907 -0.373135 -0.051726 138 138 138
-0.211453 -0.376225 -0.052025 138 138 138
-0.209938 -0.379326 -0.052337 138 138 138
-0.207761 -0.382522 -0.052785 138 138 138
-0.204398 -0.385887 -0.053478 138 138 138
-0.200167 -0.389380 -0.054349 138 138 138
-0.192139 -0.393418 -0.056001 138 138 138
-0.151086 0.390403 -0.067469 100 100 100
-0.163661 0.385724 -0.064867 138 138 138
-0.169451 0.381994 -0.063669 138 138 138
-0.174006 0.378441 -0.062727 138 138 138
-0.177631 0.375023 -0.061977 138 138 138
-0.181526 0.371576 -0.061171 138 138 138
-0.185824 0.368085 -0.060282 138 138 138
-0.191071 0.364478 -0.059196 138 138 138
-0.197617 0.360714 -0.057841 138 138 138
-0.205608 0.356779 -0.056188 138 138 138
-0.217473 0.352366 -0.053733 138 138 138
-0.226503 0.348336 -0.051864 138 138 138
-0.236448 0.344210 -0.049807 138 138 138
-0.243404 0.340477 -0.048367 138 138 138
-0.248119 0.337035 -0.047392 138 138 138
-0.253385 0.333535 -0.046302 138 138 138
-0.263600 0.329446 -0.044189 138 138 138
-0.273771 0.325384 -0.042084 138 138 138
-0.279246 0.321903 -0.040951 138 138 138
-0.284096 0.318506 -0.039948 138 138 138
-0.287194 0.315325 -0.039307 138 138 138
-0.289954 0.312190 -0.038736 138 138 138
-0.293038 0.309023 -0.038097 138 138 138
-0.295734 0.305907 -0.037540 138 138 138
-0.298677 0.302768 -0.036931 138 138 138
-0.301230 0.299679 -0.036402 138 138 138
-0.303350 0.296644 -0.035964 138 138 138
-0.305454 0.293614 -0.035529 138 138 138
-0.307371 0.290610 -0.035132 138 138 138
-0.308717 0.287671 -0.034853 138 138 138
-0.309804 0.284762 -0.034628 138 138 138
-0.310861 0.281859 -0.034410 138 138 138
-0.312043 0.278944 -0.034165 138 138 138
-0.312343 0.276124 -0.034103 138 138 138
-0.312642 0.273304 -0.034041 138 138 138
-0.312942 0.270485 -0.033979 138 138 138
-0.313115 0.267679 -0.033943 138 138 138
-0.313159 0.264886 -0.033934 138 138 138
-0.313184 0.262096 -0.033929 138 138 138
-0.313103 0.259315 -0.033946 138 138 138
-0.313016 0.256535 -0.033964 138 138 138
-0.313142 0.253735 -0.033938 138 138 138
-0.313880 0.250877 -0.033785 138 138 138
-0.314626 0.248020 -0.033631 138 138 138
-0.315372 0.245165 -0.033476 138 138 138
-0.316215 0.242302 -0.033302 138 138 138
-0.317250 0.239424 -0.033088 138 138 138
-0.318289 0.236548 -0.032873 138 138 138
-0.319326 0.233674 -0.032658 138 138 138
-0.320391 0.230800 -0.032438 138 138 138
-0.321512 0.227923 -0.032206 138 138 138
-0.323045 0.225014 -0.031889 138 138 138
-0.324983 0.222074 -0.031488 138 138 138
-0.326812 0.219147 -0.031109 138 138 138
-0.328894 0.216203 -0.030678 138 138 138
-0.331627 0.213212 -0.030113 138 138 138
-0.333767 0.210273 -0.029670 138 138 138
-0.335903 0.207339 -0.029228 138 138 138
-0.338107 0.204404 -0.028772 138 138 138
-0.339960 0.201500 -0.028389 138 138 138
-0.341324 0.198637 -0.028106 138 138 138
-0.342687 0.195778 -0.027824 138 138 138
-0.344092 0.192917 -0.027534 138 138 138
-0.345459 0.190063 -0.027251 138 138 138
-0.346427 0.187240 -0.027050 138 138 138
-0.347355 0.184421 -0.026858 138 138 138
-0.348267 0.181606 -0.026670 138 138 138
-0.349186 0.178792 -0.026480 138 138 138
-0.350208 0.175973 -0.026268 138 138 138
-0.351227 0.173156 -0.026057 138 138 138
-0.352024 0.170356 -0.025892 138 138 138
-0.352886 0.167553 -0.025714 138 138 138
-0.353751 0.164752 -0.025535 138 138 138
-0.354528 0.161959 -0.025374 138 138 138
-0.355833 0.159134 -0.025104 138 138 138
-0.357078 0.156317 -0.024847 138 138 138
-0.357949 0.153523 -0.024666 138 138 138
-0.358588 0.150745 -0.024534 138 138 138
-0.359134 0.147973 -0.024421 138 138 138
-0.360068 0.145181 -0.024228 138 138 138
-0.361003 0.142391 -0.024035 138 138 138
-0.361927 0.139604 -0.023843 138 138 138
-0.362352 0.136844 -0.023755 138 138 138
-0.362727 0.134088 -0.023678 138 138 138
-0.363107 0.131333 -0.023599 138 138 138
-0.363485 0.128578 -0.023521 138 138 138
-0.363653 0.125834 -0.023486 138 138 138
-0.363658 0.123098 -0.023485 138 138 138
-0.363613 0.120365 -0.023494 138 138 138
-0.363569 0.117631 -0.023504 138 138 138
-0.363550 0.114897 -0.023508 138 138 138
-0.363572 0.112160 -0.023503 138 138 138
-0.363593 0.109424 -0.023499 138 138 138
-0.363615 0.106687 -0.023494 138 138 138
-0.363737 0.103947 -0.023469 138 138 138
-0.363776 0.101210 -0.023461 138 138 138
-0.363814 0.098473 -0.023453 138 138 138
-0.364020 0.095730 -0.023410 138 138 138
-0.364354 0.092983 -0.023341 138 138 138
-0.364552 0.090241 -0.023300 138 138 138
-0.365133 0.087487 -0.023180 138 138 138
-0.365806 0.084732 -0.023041 138 138 138
-0.366505 0.081976 -0.022896 138 138 138
-0.367605 0.079211 -0.022668 138 138 138
-0.369089 0.076436 -0.022362 138 138 138
-0.371270 0.073644 -0.021910 138 138 138
-0.373448 0.070858 -0.021459 138 138 138
-0.375728 0.068073 -0.020988 138 138 138
-0.378323 0.065285 -0.020451 138 138 138
-0.381247 0.062494 -0.019846 138 138 138
-0.384004 0.059714 -0.019275 138 138 138
-0.386251 0.056950 -0.018810 138 138 138
-0.388495 0.054191 -0.018346 138 138 138
-0.390732 0.051438 -0.017883 138 138 138
-0.392293 0.048701 -0.017560 138 138 138
-0.393495 0.045974 -0.017312 138 138 138
-0.394659 0.043250 -0.017071 138 138 138
-0.395822 0.040529 -0.016830 138 138 138
-0.396814 0.037812 -0.016625 138 138 138
-0.397573 0.035101 -0.016468 138 138 138
-0.398184 0.032393 -0.016341 138 138 138
-0.398642 0.029689 -0.016246 138 138 138
-0.399158 0.026984 -0.016140 138 138 138
-0.399652 0.024281 -0.016037 138 138 138
-0.400133 0.021579 -0.015938 138 138 138
-0.400613 0.018878 -0.015839 138 138 138
-0.401088 0.016179 -0.015740 138 138 138
-0.401504 0.013480 -0.015654 138 138 138
-0.401741 0.010783 -0.015605 138 138 138
-0.401865 0.008087 -0.015580 138 138 138
-0.401982 0.005391 -0.015555 138 138 138
-0.402099 0.002695 -0.015531 138 138 138
-0.401869 0.000000 -0.015579 138 138 138
-0.401592 -0.002696 -0.015636 138 138 138
-0.401316 -0.005392 -0.015693 138 138 138
-0.401040 -0.008089 -0.015750 138 138 138
-0.400793 -0.010787 -0.015801 138 138 138
-0.400556 -0.013485 -0.015850 138 138 138
-0.400319 -0.016183 -0.015900 138 138 138
-0.399989 -0.018883 -0.015968 138 138 138
-0.399680 -0.021583 -0.016032 138 138 138
-0.399480 -0.024283 -0.016073 138 138 138
-0.399184 -0.026984 -0.016134 138 138 138
-0.398729 -0.029688 -0.016229 138 138 138
-0.398318 -0.032392 -0.016314 138 138 138
-0.397999 -0.035095 -0.016380 138 138 138
-0.397680 -0.037800 -0.016446 138 138 138
-0.397334 -0.040505 -0.016517 138 138 138
-0.397041 -0.043210 -0.016578 138 138 138
-0.397061 -0.045911 -0.016574 138 138 138
-0.397087 -0.048611 -0.016568 138 138 138
-0.397266 -0.051308 -0.016531 138 138 138
-0.397446 -0.054004 -0.016494 138 138 138
-0.397534 -0.056703 -0.016476 138 138 138
-0.397590 -0.059402 -0.016464 138 138 138
-0.397633 -0.062101 -0.016455 138 138 138
-0.397675 -0.064800 -0.016447 138 138 138
-0.397704 -0.067499 -0.016441 138 138 138
-0.397719 -0.070198 -0.016437 138 138 138
-0.397736 -0.072898 -0.016434 138 138 138
-0.397851 -0.075594 -0.016410 138 138 138
-0.398237 -0.078282 -0.016330 138 138 138
-0.398573 -0.080971 -0.016261 138 138 138
-0.399041 -0.083655 -0.016164 138 138 138
-0.399722 -0.086331 -0.016023 138 138 138
-0.400403 -0.089005 -0.015882 138 138 138
-0.401270 -0.091672 -0.015703 138 138 138
-0.402336 -0.094329 -0.015482 138 138 138
-0.403836 -0.096968 -0.015172 138 138 138
-0.405398 -0.099601 -0.014849 138 138 138
-0.406959 -0.102231 -0.014526 138 138 138
-0.408855 -0.104844 -0.014133 138 138 138
-0.411015 -0.107442 -0.013686 138 138 138
-0.413306 -0.110030 -0.013212 138 138 138
-0.415593 -0.112613 -0.012739 138 138 138
-0.417762 -0.115197 -0.012290 138 138 138
-0.419729 -0.117786 -0.011883 138 138 138
-0.421454 -0.120381 -0.011526 138 138 138
-0.422482 -0.123007 -0.011314 138 138 138
-0.423509 -0.125631 -0.011101 138 138 138
-0.424535 -0.128252 -0.010889 138 138 138
-0.425510 -0.130874 -0.010687 138 138 138
-0.425972 -0.133521 -0.010592 138 138 138
-0.426427 -0.136167 -0.010497 138 138 138
-0.426882 -0.138812 -0.010403 138 138 138
-0.427179 -0.141465 -0.010342 138 138 138
-0.425955 -0.144204 -0.010595 138 138 138
-0.423953 -0.146989 -0.011009 138 138 138
-0.421947 -0.149779 -0.011424 138 138 138
-0.417915 -0.152694 -0.012259 138 138 138
-0.377796 -0.157804 -0.020560 138 138 138
-0.378114 -0.160505 -0.020494 138 138 138
-0.378819 -0.163181 -0.020348 138 138 138
-0.379948 -0.165829 -0.020115 138 138 138
-0.380011 -0.168543 -0.020101 138 138 138
-0.379825 -0.171274 -0.020140 138 138 138
-0.379638 -0.174005 -0.020179 138 138 138
-0.379670 -0.176722 -0.020172 138 138 138
-0.378760 -0.179503 -0.020360 138 138 138
-0.377148 -0.182336 -0.020694 138 138 138
-0.376193 -0.185125 -0.020891 138 138 138
-0.375362 -0.187907 -0.021063 138 138 138
-0.373942 -0.190734 -0.021357 138 138 138
-0.372420 -0.193572 -0.021672 138 138 138
-0.370258 -0.196461 -0.022120 138 138 138
-0.366873 -0.199448 -0.022820 138 138 138
-0.362688 -0.202504 -0.023686 138 138 138
-0.359163 -0.205516 -0.024415 138 138 138
-0.356238 -0.208489 -0.025021 138 138 138
-0.352818 -0.211507 -0.025728 138 138 138
-0.349140 -0.214554 -0.026489 138 138 138
-0.344761 -0.217666 -0.027395 138 138 138
-0.340608 -0.220768 -0.028255 138 138 138
-0.334224 -0.224068 -0.029576 138 138 138
-0.326105 -0.227530 -0.031255 138 138 138
-0.320828 -0.230762 -0.032347 138 138 138
-0.317068 -0.233872 -0.033125 138 138 138
-0.315030 -0.236837 -0.033547 138 138 138
-0.313487 -0.239762 -0.033866 138 138 138
-0.312378 -0.242651 -0.034096 138 138 138
-0.311544 -0.245517 -0.034268 138 138 138
-0.310850 -0.248371 -0.034412 138 138 138
-0.310155 -0.251228 -0.034556 138 138 138
-0.309328 -0.254098 -0.034727 138 138 138
-0.307848 -0.257032 -0.035033 138 138 138
-0.306338 -0.259973 -0.035345 138 138 138
-0.304844 -0.262915 -0.035655 138 138 138
-0.303568 -0.265838 -0.035919 138 138 138
-0.302355 -0.268758 -0.036170 138 138 138
-0.301141 -0.271681 -0.036421 138 138 138
-0.299939 -0.274605 -0.036670 138 138 138
-0.298726 -0.277532 -0.036921 138 138 138
-0.297516 -0.280462 -0.037171 138 138 138
-0.296310 -0.283394 -0.037420 138 138 138
-0.294710 -0.286370 -0.037751 138 138 138
-0.292742 -0.289390 -0.038159 138 138 138
-0.290770 -0.292413 -0.038567 138 138 138
-0.288800 -0.295441 -0.038974 138 138 138
-0.286414 -0.298519 -0.039468 138 138 138
-0.284073 -0.301597 -0.039952 138 138 138
-0.281734 -0.304680 -0.040436 138 138 138
-0.279004 -0.307812 -0.041001 138 138 138
-0.276092 -0.310970 -0.041604 138 138 138
-0.272685 -0.314192 -0.042309 138 138 138
-0.268606 -0.317500 -0.043153 138 138 138
-0.263471 -0.320941 -0.044215 138 138 138
-0.255233 -0.324763 -0.045920 138 138 138
-0.251125 -0.328105 -0.046770 138 138 138
-0.247044 -0.331453 -0.047614 138 138 138
-0.243996 -0.334682 -0.048245 138 138 138
-0.240693 -0.337950 -0.048928 138 138 138
-0.237774 -0.341177 -0.049532 138 138 138
-0.234636 -0.344438 -0.050182 138 138 138
-0.231417 -0.347715 -0.050848 138 138 138
-0.227748 -0.351056 -0.051607 138 138 138
-0.224350 -0.354370 -0.052310 138 138 138
-0.221115 -0.357670 -0.052979 138 138 138
-0.218444 -0.360904 -0.053532 138 138 138
-0.216606 -0.364033 -0.053912 138 138 138
-0.214765 -0.367166 -0.054293 138 138 138
-0.213188 -0.370268 -0.054619 138 138 138
-0.211862 -0.373340 -0.054894 138 138 138
-0.210463 -0.376424 -0.055183 138 138 138
-0.208560 -0.379580 -0.055577 138 138 138
-0.205264 -0.382932 -0.056259 138 138 138
-0.201640 -0.386336 -0.057009 138 138 138
-0.196442 -0.389969 -0.058085 138 138 138
-0.186258 -0.394315 -0.060192 100 100 100
-0.163051 0.385874 -0.067999 138 138 138
-0.170046 0.381978 -0.066544 138 138 138
-0.174729 0.378409 -0.065570 138 138 138
-0.178970 0.374908 -0.064688 138 138 138
-0.183113 0.371429 -0.063827 138 138 138
-0.187437 0.367936 -0.062928 138 138 138
-0.192758 0.364320 -0.061821 138 138 138
-0.198879 0.360613 -0.060548 138 138 138
-0.206534 0.356721 -0.058956 138 138 138
-0.216980 0.352489 -0.056783 138 138 138
-0.225249 0.348554 -0.055063 138 138 138
-0.233696 0.344615 -0.053307 138 138 138
-0.237751 0.341239 -0.052463 138 138 138
-0.241333 0.337929 -0.051718 138 138 138
-0.244729 0.334650 -0.051012 138 138 138
-0.250530 0.331087 -0.049805 138 138 138
-0.264553 0.326548 -0.046889 138 138 138
-0.276457 0.322290 -0.044413 138 138 138
-0.281452 0.318873 -0.043374 138 138 138
-0.285629 0.315563 -0.042505 138 138 138
-0.289054 0.312348 -0.041793 138 138 138
-0.292453 0.309143 -0.041086 138 138 138
-0.295637 0.305970 -0.040424 138 138 138
-0.298419 0.302849 -0.039845 138 138 138
-0.301308 0.299722 -0.039245 138 138 138
-0.303424 0.296686 -0.038804 138 138 138
-0.305538 0.293656 -0.038365 138 138 138
-0.307339 0.290663 -0.037990 138 138 138
-0.309007 0.287689 -0.037643 138 138 138
-0.310236 0.284765 -0.037388 138 138 138
-0.311401 0.281850 -0.037146 138 138 138
-0.312196 0.278976 -0.036980 138 138 138
-0.312495 0.276156 -0.036918 138 138 138
-0.312788 0.273336 -0.036857 138 138 138
-0.313076 0.270518 -0.036797 138 138 138
-0.313301 0.267706 -0.036750 138 138 138
-0.313216 0.264926 -0.036768 138 138 138
-0.313129 0.262146 -0.036786 138 138 138
-0.313041 0.259366 -0.036804 138 138 138
-0.312957 0.256585 -0.036822 138 138 138
-0.313090 0.253784 -0.036794 138 138 138
-0.313719 0.250935 -0.036663 138 138 138
-0.314466 0.248078 -0.036508 138 138 138
-0.315212 0.245222 -0.036353 138 138 138
-0.316085 0.242356 -0.036171 138 138 138
-0.317070 0.239482 -0.035966 138 138 138
-0.318136 0.236602 -0.035745 138 138 138
-0.319201 0.233725 -0.035523 138 138 138
-0.320201 0.230856 -0.035315 138 138 138
-0.321382 0.227974 -0.035070 138 138 138
-0.322565 0.225093 -0.034824 138 138 138
-0.324489 0.222154 -0.034423 138 138 138
-0.326446 0.219215 -0.034016 138 138 138
-0.328624 0.216263 -0.033563 138 138 138
-0.330928 0.213305 -0.033084 138 138 138
-0.333069 0.210365 -0.032639 138 138 138
-0.335206 0.207429 -0.032195 138 138 138
-0.337340 0.204498 -0.031751 138 138 138
-0.338963 0.201611 -0.031413 138 138 138
-0.340331 0.198746 -0.031129 138 138 138
-0.341695 0.195885 -0.030845 138 138 138
-0.343057 0.193026 -0.030562 138 138 138
-0.344353 0.190175 -0.030292 138 138 138
-0.345417 0.187343 -0.030071 138 138 138
-0.346331 0.184524 -0.029881 138 138 138
-0.347288 0.181704 -0.029682 138 138 138
-0.348332 0.178880 -0.029465 138 138 138
-0.349332 0.176061 -0.029257 138 138 138
-0.350328 0.173245 -0.029050 138 138 138
-0.351468 0.170421 -0.028812 138 138 138
-0.352297 0.167620 -0.028640 138 138 138
-0.353077 0.164823 -0.028478 138 138 138
-0.353946 0.162022 -0.028297 138 138 138
-0.355252 0.159197 -0.028025 138 138 138
-0.356557 0.156374 -0.027754 138 138 138
-0.357737 0.153562 -0.027509 138 138 138
-0.358156 0.150796 -0.027421 138 138 138
-0.358501 0.148035 -0.027350 138 138 138
-0.359371 0.145245 -0.027169 138 138 138
-0.360305 0.142454 -0.026974 138 138 138
-0.361021 0.139676 -0.026826 138 138 138
-0.361463 0.136914 -0.026734 138 138 138
-0.361905 0.134153 -0.026642 138 138 138
-0.362302 0.131396 -0.026559 138 138 138
-0.362646 0.128641 -0.026488 138 138 138
-0.362511 0.125911 -0.026516 138 138 138
-0.362449 0.123176 -0.026529 138 138 138
-0.362405 0.120441 -0.026538 138 138 138
-0.362360 0.117706 -0.026547 138 138 138
-0.362372 0.114968 -0.026544 138 138 138
-0.362394 0.112230 -0.026540 138 138 138
-0.362362 0.109494 -0.026547 138 138 138
-0.362322 0.106758 -0.026555 138 138 138
-0.362269 0.104023 -0.026566 138 138 138
-0.362207 0.101288 -0.026579 138 138 138
-0.362145 0.098553 -0.026592 138 138 138
-0.362134 0.095815 -0.026594 138 138 138
-0.362340 0.093071 -0.026551 138 138 138
-0.362514 0.090327 -0.026515 138 138 138
-0.362699 0.087584 -0.026477 138 138 138
-0.363374 0.084825 -0.026336 138 138 138
-0.364054 0.082067 -0.026195 138 138 138
-0.365028 0.079302 -0.025992 138 138 138
-0.365874 0.076543 -0.025816 138 138 138
-0.367666 0.073759 -0.025443 138 138 138
-0.369809 0.070969 -0.024998 138 138 138
-0.372081 0.068180 -0.024525 138 138 138
-0.374833 0.065384 -0.023953 138 138 138
-0.377609 0.062593 -0.023375 138 138 138
-0.380398 0.059807 -0.022796 138 138 138
-0.384277 0.057003 -0.021989 138 138 138
-0.386524 0.054242 -0.021521 138 138 138
-0.388665 0.051487 -0.021076 138 138 138
-0.390754 0.048738 -0.020642 138 138 138
-0.392426 0.046001 -0.020294 138 138 138
-0.393631 0.043275 -0.020043 138 138 138
-0.394835 0.040551 -0.019793 138 138 138
-0.395774 0.037834 -0.019598 138 138 138
-0.396630 0.035120 -0.019419 138 138 138
-0.397485 0.032408 -0.019242 138 138 138
-0.398253 0.029698 -0.019082 138 138 138
-0.398778 0.026993 -0.018973 138 138 138
-0.399255 0.024289 -0.018873 138 138 138
-0.399731 0.021586 -0.018775 138 138 138
-0.400206 0.018885 -0.018676 138 138 138
-0.400680 0.016184 -0.018577 138 138 138
-0.400991 0.013485 -0.018512 138 138 138
-0.401228 0.010787 -0.018463 138 138 138
-0.401465 0.008089 -0.018414 138 138 138
-0.401662 0.005393 -0.018373 138 138 138
-0.401659 0.002696 -0.018374 138 138 138
-0.401383 0.000000 -0.018431 138 138 138
-0.401150 -0.002697 -0.018479 138 138 138
-0.400922 -0.005394 -0.018527 138 138 138
-0.400698 -0.008092 -0.018574 138 138 138
-0.400514 -0.010790 -0.018612 138 138 138
-0.400330 -0.013488 -0.018650 138 138 138
-0.400146 -0.016187 -0.018688 138 138 138
-0.399924 -0.018887 -0.018734 138 138 138
-0.399697 -0.021587 -0.018782 138 138 138
-0.399496 -0.024287 -0.018823 138 138 138
-0.399295 -0.026988 -0.018865 138 138 138
-0.398874 -0.029691 -0.018953 138 138 138
-0.398512 -0.032395 -0.019028 138 138 138
-0.398193 -0.035099 -0.019095 138 138 138
-0.397874 -0.037803 -0.019161 138 138 138
-0.397565 -0.040508 -0.019225 138 138 138
-0.397341 -0.043213 -0.019272 138 138 138
-0.397346 -0.045913 -0.019271 138 138 138
-0.397351 -0.048614 -0.019270 138 138 138
-0.397356 -0.051315 -0.019269 138 138 138
-0.397344 -0.054016 -0.019271 138 138 138
-0.397274 -0.056718 -0.019286 138 138 138
-0.397251 -0.059420 -0.019290 138 138 138
-0.397293 -0.062119 -0.019282 138 138 138
-0.397335 -0.064819 -0.019273 138 138 138
-0.397353 -0.067520 -0.019269 138 138 138
-0.397369 -0.070220 -0.019266 138 138 138
-0.397381 -0.072920 -0.019263 138 138 138
-0.397363 -0.075622 -0.019267 138 138 138
-0.397435 -0.078320 -0.019252 138 138 138
-0.397752 -0.081011 -0.019186 138 138 138
-0.398089 -0.083700 -0.019116 138 138 138
-0.398728 -0.086379 -0.018983 138 138 138
-0.399443 -0.089054 -0.018834 138 138 138
-0.400503 -0.091715 -0.018614 138 138 138
-0.401570 -0.094373 -0.018392 138 138 138
-0.402636 -0.097029 -0.018170 138 138 138
-0.404112 -0.099668 -0.017864 138 138 138
-0.405805 -0.102294 -0.017511 138 138 138
-0.407931 -0.104900 -0.017069 138 138 138
-0.410052 -0.107501 -0.016628 138 138 138
-0.412266 -0.110093 -0.016168 138 138 138
-0.414555 -0.112678 -0.015692 138 138 138
-0.416679 -0.115265 -0.015250 138 138 138
-0.418677 -0.117854 -0.014834 138 138 138
-0.420422 -0.120451 -0.014471 138 138 138
-0.421756 -0.123063 -0.014194 138 138 138
-0.422784 -0.125688 -0.013980 138 138 138
-0.423810 -0.128311 -0.013767 138 138 138
-0.424693 -0.130939 -0.013583 138 138 138
-0.425274 -0.133580 -0.013462 138 138 138
-0.425766 -0.136226 -0.013360 138 138 138
-0.426181 -0.138874 -0.013274 138 138 138
-0.426595 -0.141522 -0.013187 138 138 138
-0.425024 -0.144281 -0.013514 138 138 138
-0.423000 -0.147069 -0.013935 138 138 138
-0.420973 -0.149862 -0.014357 138 138 138
-0.412421 -0.153047 -0.016135 138 138 138
-0.378554 -0.157785 -0.023179 138 138 138
-0.378118 -0.160532 -0.023270 138 138 138
-0.377683 -0.163280 -0.023360 138 138 138
-0.377195 -0.166033 -0.023462 138 138 138
-0.377267 -0.168750 -0.023447 138 138 138
-0.377338 -0.171467 -0.023432 138 138 138
-0.377410 -0.174184 -0.023417 138 138 138
-0.377253 -0.176916 -0.023450 138 138 138
-0.376462 -0.179692 -0.023614 138 138 138
-0.375669 -0.182471 -0.023779 138 138 138
-0.374877 -0.185250 -0.023944 138 138 138
-0.373747 -0.188056 -0.024179 138 138 138
-0.372019 -0.190908 -0.024538 138 138 138
-0.370289 -0.193763 -0.024898 138 138 138
-0.368309 -0.196641 -0.025310 138 138 138
-0.364486 -0.199664 -0.026105 138 138 138
-0.360517 -0.202706 -0.026930 138 138 138
-0.358236 -0.205624 -0.027405 138 138 138
-0.355235 -0.208604 -0.028029 138 138 138
-0.352394 -0.211578 -0.028620 138 138 138
-0.349547 -0.214557 -0.029212 138 138 138
-0.345382 -0.217652 -0.030078 138 138 138
-0.341072 -0.220767 -0.030974 138 138 138
-0.332832 -0.224224 -0.032688 138 138 138
-0.324807 -0.227680 -0.034357 138 138 138
-0.319772 -0.230893 -0.035405 138 138 138
-0.317006 -0.233918 -0.035980 138 138 138
-0.314966 -0.236884 -0.036404 138 138 138
-0.312932 -0.239854 -0.036827 138 138 138
-0.311702 -0.242754 -0.037083 138 138 138
-0.310810 -0.245627 -0.037268 138 138 138
-0.309918 -0.248501 -0.037454 138 138 138
-0.309106 -0.251369 -0.037623 138 138 138
-0.307987 -0.254269 -0.037855 138 138 138
-0.306478 -0.257208 -0.038169 138 138 138
-0.304989 -0.260148 -0.038479 138 138 138
-0.303523 -0.263090 -0.038784 138 138 138
-0.302337 -0.266006 -0.039031 138 138 138
-0.301150 -0.268925 -0.039278 138 138 138
-0.299804 -0.271863 -0.039557 138 138 138
-0.298427 -0.274807 -0.039844 138 138 138
-0.297376 -0.277720 -0.040062 138 138 138
-0.296296 -0.280638 -0.040287 138 138 138
-0.295089 -0.283572 -0.040538 138 138 138
-0.292914 -0.286611 -0.040990 138 138 138
-0.290761 -0.289653 -0.041438 138 138 138
