ply
format ascii 1.0
element vertex 1145
property float x
property float y
property float z
property uchar red
property uchar green
property uchar blue
end_header
-0.214702 0.281539 -0.161682 138 138 138
-0.254500 0.247992 -0.149818 138 138 138
-0.257427 0.242062 -0.148545 138 138 138
-0.260681 0.235901 -0.147179 138 138 138
-0.264358 0.229443 -0.145694 138 138 138
-0.267779 0.223191 -0.144285 138 138 138
-0.271741 0.216554 -0.142722 138 138 138
-0.277063 0.208933 -0.140773 138 138 138
-0.285135 0.199310 -0.138040 138 138 138
-0.293490 0.189510 -0.135230 138 138 138
-0.299147 0.181717 -0.133194 138 138 138
-0.303318 0.175034 -0.131584 138 138 138
-0.307325 0.168487 -0.130022 138 138 138
-0.310977 0.162217 -0.128564 138 138 138
-0.312576 0.157454 -0.127692 138 138 138
-0.314075 0.152774 -0.126850 138 138 138
-0.315166 0.148397 -0.126124 138 138 138
-0.315884 0.144298 -0.125506 138 138 138
-0.316171 0.140515 -0.125010 138 138 138
-0.316838 0.136465 -0.124408 138 138 138
-0.317486 0.132436 -0.123811 138 138 138
-0.317889 0.128589 -0.123285 138 138 138
-0.318452 0.124633 -0.122714 138 138 138
-0.319147 0.120589 -0.122107 138 138 138
-0.320246 0.116265 -0.121386 138 138 138
-0.321426 0.111892 -0.120643 138 138 138
-0.322531 0.107580 -0.119923 138 138 138
-0.323856 0.103121 -0.119141 138 138 138
-0.325221 0.098642 -0.118348 138 138 138
-0.326432 0.094280 -0.117600 138 138 138
-0.327622 0.089941 -0.116860 138 138 138
-0.329002 0.085477 -0.116066 138 138 138
-0.331040 0.080563 -0.115089 138 138 138
-0.333071 0.075664 -0.114114 138 138 138
-0.335743 0.070330 -0.112961 138 138 138
-0.338771 0.064763 -0.111710 138 138 138
-0.342414 0.058784 -0.110287 138 138 138
-0.345914 0.052919 -0.108906 138 138 138
-0.348834 0.047469 -0.107690 138 138 138
-0.350842 0.042658 -0.106730 138 138 138
-0.352847 0.037860 -0.105773 138 138 138
-0.354114 0.033578 -0.105023 138 138 138
-0.354712 0.029761 -0.104461 138 138 138
-0.355148 0.026060 -0.103945 138 138 138
-0.355584 0.022364 -0.103430 138 138 138
-0.355944 0.018726 -0.102937 138 138 138
-0.356209 0.015158 -0.102470 138 138 138
-0.356474 0.011594 -0.102005 138 138 138
-0.356645 0.008099 -0.101566 138 138 138
-0.356784 0.004630 -0.101136 138 138 138
-0.356920 0.001168 -0.100708 138 138 138
-0.356955 -0.002221 -0.100309 138 138 138
-0.357043 -0.005642 -0.099895 138 138 138
-0.357074 -0.009021 -0.099498 138 138 138
-0.357082 -0.012380 -0.099108 138 138 138
-0.357105 -0.015744 -0.098713 138 138 138
-0.357018 -0.019032 -0.098350 138 138 138
-0.356929 -0.022314 -0.097988 138 138 138
-0.357038 -0.025723 -0.097572 138 138 138
-0.357101 -0.029097 -0.097168 138 138 138
-0.357340 -0.032582 -0.096717 138 138 138
-0.357543 -0.036038 -0.096276 138 138 138
-0.357665 -0.039437 -0.095858 138 138 138
-0.357833 -0.042862 -0.095428 138 138 138
-0.357906 -0.046220 -0.095025 138 138 138
-0.357950 -0.049555 -0.094630 138 138 138
-0.358292 -0.053078 -0.094154 138 138 138
-0.359556 -0.057191 -0.093424 138 138 138
-0.361370 -0.061650 -0.092544 138 138 138
-0.363554 -0.066337 -0.091564 138 138 138
-0.368879 -0.073025 -0.089722 138 138 138
-0.373407 -0.079185 -0.088101 138 138 138
-0.378342 -0.085586 -0.086370 138 138 138
-0.381386 -0.090766 -0.085160 138 138 138
-0.384381 -0.095902 -0.083965 138 138 138
-0.386648 -0.100564 -0.082971 138 138 138
-0.388355 -0.104862 -0.082131 138 138 138
-0.390057 -0.109148 -0.081293 138 138 138
-0.390771 -0.112803 -0.080727 138 138 138
-0.391231 -0.116293 -0.080231 138 138 138
-0.391562 -0.119697 -0.079770 138 138 138
-0.391599 -0.122912 -0.079391 138 138 138
-0.390942 -0.125691 -0.079201 138 138 138
-0.389549 -0.128011 -0.079211 138 138 138
-0.387321 -0.129813 -0.079450 138 138 138
-0.385061 -0.131597 -0.079696 138 138 138
-0.382308 -0.133080 -0.080077 138 138 138
-0.379069 -0.134268 -0.080588 138 138 138
-0.375816 -0.135453 -0.081104 138 138 138
-0.372578 -0.136652 -0.081614 138 138 138
-0.368479 -0.137330 -0.082357 138 138 138
-0.364523 -0.138103 -0.083061 138 138 138
-0.360543 -0.138870 -0.083770 138 138 138
-0.358446 -0.140787 -0.083969 138 138 138
-0.355430 -0.142149 -0.084416 138 138 138
-0.353677 -0.144279 -0.084521 138 138 138
-0.351966 -0.146436 -0.084614 138 138 138
-0.350321 -0.148633 -0.084690 138 138 138
-0.348698 -0.150844 -0.084759 138 138 138
-0.347481 -0.153300 -0.084719 138 138 138
-0.346633 -0.155975 -0.084579 138 138 138
-0.345972 -0.158760 -0.084389 138 138 138
-0.346058 -0.161986 -0.083999 138 138 138
-0.345492 -0.164823 -0.083784 138 138 138
-0.344891 -0.167636 -0.083579 138 138 138
-0.344377 -0.170498 -0.083350 138 138 138
-0.343783 -0.173311 -0.083144 138 138 138
-0.343140 -0.176093 -0.082951 138 138 138
-0.342499 -0.178874 -0.082757 138 138 138
-0.341858 -0.181653 -0.082564 138 138 138
-0.340958 -0.184279 -0.082441 138 138 138
-0.339682 -0.186685 -0.082418 138 138 138
-0.338405 -0.189091 -0.082396 138 138 138
-0.337128 -0.191496 -0.082373 138 138 138
-0.335683 -0.193804 -0.082396 138 138 138
-0.333745 -0.195828 -0.082550 138 138 138
-0.331807 -0.197853 -0.082704 138 138 138
-0.329867 -0.199880 -0.082858 138 138 138
-0.327926 -0.201907 -0.083013 138 138 138
-0.325929 -0.203904 -0.083182 138 138 138
-0.323848 -0.205855 -0.083374 138 138 138
-0.321776 -0.207813 -0.083563 138 138 138
-0.319755 -0.209802 -0.083737 138 138 138
-0.317773 -0.211815 -0.083902 138 138 138
-0.315909 -0.213895 -0.084035 138 138 138
-0.314154 -0.216039 -0.084138 138 138 138
-0.312345 -0.218153 -0.084256 138 138 138
-0.310334 -0.220156 -0.084428 138 138 138
-0.308321 -0.222159 -0.084599 138 138 138
-0.306394 -0.224212 -0.084748 138 138 138
-0.304508 -0.226289 -0.084886 138 138 138
-0.302669 -0.228394 -0.085011 138 138 138
-0.300903 -0.230540 -0.085117 138 138 138
-0.299137 -0.232687 -0.085222 138 138 138
-0.297550 -0.234934 -0.085280 138 138 138
-0.295731 -0.237054 -0.085400 138 138 138
-0.293741 -0.239082 -0.085564 138 138 138
-0.291745 -0.241109 -0.085729 138 138 138
-0.289810 -0.243170 -0.085879 138 138 138
-0.288172 -0.245394 -0.085950 138 138 138
-0.286531 -0.247617 -0.086022 138 138 138
-0.284886 -0.249839 -0.086094 138 138 138
-0.283241 -0.252061 -0.086167 138 138 138
-0.281529 -0.254248 -0.086257 138 138 138
-0.279807 -0.256431 -0.086349 138 138 138
-0.278012 -0.258576 -0.086461 138 138 138
-0.275842 -0.260522 -0.086671 138 138 138
-0.273614 -0.262438 -0.086896 138 138 138
-0.271535 -0.264437 -0.087081 138 138 138
-0.269287 -0.266348 -0.087311 138 138 138
-0.266912 -0.268194 -0.087573 138 138 138
-0.264543 -0.270046 -0.087834 138 138 138
-0.262450 -0.272046 -0.088022 138 138 138
-0.260153 -0.273940 -0.088263 138 138 138
-0.257797 -0.275807 -0.088520 138 138 138
-0.255522 -0.277718 -0.088755 138 138 138
-0.253328 -0.279674 -0.088968 138 138 138
-0.251027 -0.281576 -0.089209 138 138 138
-0.248836 -0.283538 -0.089421 138 138 138
-0.246734 -0.285548 -0.089610 138 138 138
-0.244721 -0.287605 -0.089776 138 138 138
-0.242706 -0.289663 -0.089941 138 138 138
-0.240948 -0.291855 -0.090040 138 138 138
-0.239454 -0.294182 -0.090070 138 138 138
-0.238021 -0.296541 -0.090085 138 138 138
-0.236785 -0.299000 -0.090048 138 138 138
-0.235550 -0.301459 -0.090011 138 138 138
-0.233968 -0.303742 -0.090064 138 138 138
-0.232204 -0.305935 -0.090163 138 138 138
-0.230440 -0.308128 -0.090263 138 138 138
-0.228799 -0.310384 -0.090331 138 138 138
-0.227306 -0.312714 -0.090361 138 138 138
-0.225962 -0.315119 -0.090352 138 138 138
-0.224618 -0.317525 -0.090343 138 138 138
-0.223275 -0.319930 -0.090334 138 138 138
-0.221952 -0.322345 -0.090319 138 138 138
-0.221166 -0.325026 -0.090167 138 138 138
-0.220717 -0.327870 -0.089927 138 138 138
-0.220274 -0.330716 -0.089687 138 138 138
-0.219381 -0.333339 -0.089562 138 138 138
-0.218025 -0.335734 -0.089557 138 138 138
-0.216521 -0.338056 -0.089590 138 138 138
-0.214990 -0.340366 -0.089629 138 138 138
-0.213676 -0.342782 -0.089613 138 138 138
-0.212345 -0.345189 -0.089601 138 138 138
-0.210897 -0.347539 -0.089619 138 138 138
-0.209450 -0.349891 -0.089637 138 138 138
-0.207807 -0.352148 -0.089705 138 138 138
-0.206336 -0.354489 -0.089729 138 138 138
-0.205084 -0.356934 -0.089697 138 138 138
-0.203783 -0.359356 -0.089678 138 138 138
-0.202350 -0.361715 -0.089692 138 138 138
-0.200898 -0.364065 -0.089711 138 138 138
-0.199385 -0.366385 -0.089746 138 138 138
-0.197578 -0.368569 -0.089856 138 138 138
-0.195771 -0.370753 -0.089965 138 138 138
-0.193600 -0.372768 -0.090167 138 138 138
-0.191165 -0.374662 -0.090436 138 138 138
-0.186874 -0.375695 -0.091177 138 138 138
-0.181330 -0.376152 -0.092236 138 138 138
-0.174990 -0.376253 -0.093495 138 138 138
-0.166705 -0.375467 -0.095247 138 138 138
-0.159797 -0.375333 -0.096648 138 138 138
-0.154386 -0.375900 -0.097667 138 138 138
-0.149254 -0.376605 -0.098615 138 138 138
-0.144726 -0.377595 -0.099408 138 138 138
-0.141080 -0.378996 -0.099977 138 138 138
-0.137391 -0.380382 -0.100556 138 138 138
-0.133618 -0.381736 -0.101156 138 138 138
-0.129213 -0.382810 -0.101915 138 138 138
-0.124592 -0.383794 -0.102728 138 138 138
-0.119892 -0.384751 -0.103559 138 138 138
-0.115241 -0.385739 -0.104377 138 138 138
-0.110556 -0.386718 -0.105203 138 138 138
-0.104930 -0.387288 -0.106265 138 138 138
-0.095562 -0.386205 -0.108269 138 138 138
-0.062435 -0.374616 -0.116253 138 138 138
-0.056998 -0.375339 -0.117260 138 138 138
-0.049780 -0.375286 -0.118713 138 138 138
-0.043839 -0.375809 -0.119844 138 138 138
-0.039104 -0.376872 -0.120670 138 138 138
-0.034685 -0.378081 -0.121416 138 138 138
-0.029502 -0.378964 -0.122353 138 138 138
-0.025311 -0.380288 -0.123040 138 138 138
-0.020599 -0.381392 -0.123857 138 138 138
-0.015468 -0.382324 -0.124778 138 138 138
-0.010199 -0.383205 -0.125733 138 138 138
-0.004811 -0.384044 -0.126716 138 138 138
0.000864 -0.384770 -0.127770 138 138 138
0.006740 -0.385420 -0.128873 138 138 138
0.018088 -0.383752 -0.131341 100 100 100
-0.246620 0.253952 -0.155200 138 138 138
-0.254991 0.243949 -0.152350 138 138 138
-0.258854 0.237332 -0.150802 138 138 138
-0.262186 0.231125 -0.149409 138 138 138
-0.266011 0.224570 -0.147877 138 138 138
-0.270538 0.217512 -0.146144 138 138 138
-0.275352 0.210263 -0.144331 138 138 138
-0.281013 0.202410 -0.142277 138 138 138
-0.289499 0.192506 -0.139416 138 138 138
-0.294617 0.185101 -0.137524 138 138 138
-0.298921 0.178312 -0.135867 138 138 138
-0.302383 0.172156 -0.134454 138 138 138
-0.305997 0.165905 -0.132999 138 138 138
-0.309232 0.159944 -0.131654 138 138 138
-0.311499 0.154702 -0.130588 138 138 138
-0.312479 0.150401 -0.129890 138 138 138
-0.313517 0.146065 -0.129177 138 138 138
-0.314724 0.141616 -0.128416 138 138 138
-0.315398 0.137559 -0.127809 138 138 138
-0.315802 0.133701 -0.127278 138 138 138
-0.316207 0.129849 -0.126749 138 138 138
-0.316801 0.125867 -0.126166 138 138 138
-0.317515 0.121807 -0.125550 138 138 138
-0.318226 0.117755 -0.124936 138 138 138
-0.319147 0.113562 -0.124262 138 138 138
-0.320069 0.109375 -0.123590 138 138 138
-0.321181 0.105062 -0.122864 138 138 138
-0.322133 0.100869 -0.122185 138 138 138
-0.323167 0.096626 -0.121483 138 138 138
-0.324333 0.092297 -0.120744 138 138 138
-0.325560 0.087935 -0.119990 138 138 138
-0.326867 0.083525 -0.119214 138 138 138
-0.328413 0.078957 -0.118371 138 138 138
-0.330870 0.073765 -0.117273 138 138 138
-0.333714 0.068317 -0.116066 138 138 138
-0.336854 0.062677 -0.114778 138 138 138
-0.341449 0.056047 -0.113081 138 138 138
-0.344964 0.050179 -0.111690 138 138 138
-0.348565 0.044267 -0.110277 138 138 138
-0.350739 0.039350 -0.109267 138 138 138
-0.352473 0.034744 -0.108382 138 138 138
-0.353625 0.030545 -0.107662 138 138 138
-0.354252 0.026712 -0.107090 138 138 138
-0.354689 0.023013 -0.106572 138 138 138
-0.355015 0.019396 -0.106085 138 138 138
-0.355282 0.015825 -0.105616 138 138 138
-0.355598 0.012225 -0.105134 138 138 138
-0.355912 0.008632 -0.104653 138 138 138
-0.355991 0.005201 -0.104238 138 138 138
-0.356074 0.001773 -0.103822 138 138 138
-0.356151 -0.001647 -0.103409 138 138 138
-0.356213 -0.005053 -0.103001 138 138 138
-0.356214 -0.008413 -0.102610 138 138 138
-0.356216 -0.011770 -0.102219 138 138 138
-0.356237 -0.015135 -0.101823 138 138 138
-0.356123 -0.018406 -0.101466 138 138 138
-0.356005 -0.021672 -0.101110 138 138 138
-0.355824 -0.024891 -0.100772 138 138 138
-0.355660 -0.028118 -0.100429 138 138 138
-0.355859 -0.031580 -0.099987 138 138 138
-0.356098 -0.035063 -0.099533 138 138 138
-0.356251 -0.038485 -0.099105 138 138 138
-0.356433 -0.041921 -0.098668 138 138 138
-0.356592 -0.045338 -0.098239 138 138 138
-0.356637 -0.048676 -0.097842 138 138 138
-0.356734 -0.052043 -0.097431 138 138 138
-0.357205 -0.055648 -0.096916 138 138 138
-0.358328 -0.059666 -0.096223 138 138 138
-0.359707 -0.063841 -0.095460 138 138 138
-0.363029 -0.069253 -0.094161 138 138 138
-0.368342 -0.075924 -0.092315 138 138 138
-0.373601 -0.082540 -0.090486 138 138 138
-0.378176 -0.088701 -0.088848 138 138 138
-0.381235 -0.093883 -0.087629 138 138 138
-0.384350 -0.099088 -0.086396 138 138 138
-0.386525 -0.103685 -0.085423 138 138 138
-0.388228 -0.107974 -0.084581 138 138 138
-0.388835 -0.111566 -0.084041 138 138 138
-0.389442 -0.115151 -0.083502 138 138 138
-0.390048 -0.118730 -0.082964 138 138 138
-0.390007 -0.121900 -0.082604 138 138 138
-0.389313 -0.124658 -0.082422 138 138 138
-0.388112 -0.127100 -0.082380 138 138 138
-0.386078 -0.129025 -0.082566 138 138 138
-0.384128 -0.131004 -0.082729 138 138 138
-0.381044 -0.132285 -0.083201 138 138 138
-0.377842 -0.133497 -0.083705 138 138 138
-0.374700 -0.134753 -0.084192 138 138 138
-0.371576 -0.136024 -0.084674 138 138 138
-0.367753 -0.136873 -0.085345 138 138 138
-0.363794 -0.137646 -0.086053 138 138 138
-0.360562 -0.138869 -0.086561 138 138 138
-0.357476 -0.140186 -0.087030 138 138 138
-0.354491 -0.141569 -0.087470 138 138 138
-0.352737 -0.143700 -0.087576 138 138 138
-0.350981 -0.145832 -0.087681 138 138 138
-0.349187 -0.147942 -0.087798 138 138 138
-0.347581 -0.150165 -0.087863 138 138 138
-0.346213 -0.152532 -0.087863 138 138 138
-0.345049 -0.155021 -0.087808 138 138 138
-0.344240 -0.157721 -0.087657 138 138 138
-0.343929 -0.160715 -0.087371 138 138 138
-0.343324 -0.163531 -0.087166 138 138 138
-0.342720 -0.166346 -0.086960 138 138 138
-0.342121 -0.169162 -0.086753 138 138 138
-0.341284 -0.171836 -0.086610 138 138 138
-0.340567 -0.174578 -0.086436 138 138 138
-0.339926 -0.177364 -0.086241 138 138 138
-0.339288 -0.180149 -0.086046 138 138 138
-0.338467 -0.182825 -0.085900 138 138 138
-0.337585 -0.185465 -0.085771 138 138 138
-0.336410 -0.187932 -0.085720 138 138 138
-0.335131 -0.190340 -0.085698 138 138 138
-0.333666 -0.192639 -0.085726 138 138 138
-0.331939 -0.194788 -0.085824 138 138 138
-0.329995 -0.196814 -0.085980 138 138 138
-0.327986 -0.198803 -0.086153 138 138 138
-0.325975 -0.200794 -0.086327 138 138 138
-0.323872 -0.202734 -0.086525 138 138 138
-0.321842 -0.204717 -0.086703 138 138 138
-0.319811 -0.206701 -0.086881 138 138 138
-0.317779 -0.208687 -0.087060 138 138 138
-0.315736 -0.210669 -0.087241 138 138 138
-0.313902 -0.212770 -0.087366 138 138 138
-0.312146 -0.214916 -0.087470 138 138 138
-0.310389 -0.217063 -0.087574 138 138 138
-0.308631 -0.219210 -0.087678 138 138 138
-0.306868 -0.221356 -0.087784 138 138 138
-0.305074 -0.223485 -0.087898 138 138 138
-0.303281 -0.225617 -0.088011 138 138 138
-0.301488 -0.227749 -0.088124 138 138 138
-0.299711 -0.229891 -0.088233 138 138 138
-0.297996 -0.232069 -0.088325 138 138 138
-0.296198 -0.234202 -0.088440 138 138 138
-0.294329 -0.236297 -0.088572 138 138 138
-0.292332 -0.238323 -0.088739 138 138 138
-0.290244 -0.240302 -0.088929 138 138 138
-0.288222 -0.242318 -0.089102 138 138 138
-0.286399 -0.244445 -0.089222 138 138 138
-0.284759 -0.246671 -0.089294 138 138 138
-0.283204 -0.248945 -0.089342 138 138 138
-0.281649 -0.251218 -0.089391 138 138 138
-0.280072 -0.253481 -0.089446 138 138 138
-0.278348 -0.255665 -0.089539 138 138 138
-0.276472 -0.257769 -0.089672 138 138 138
-0.274439 -0.259790 -0.089847 138 138 138
-0.272213 -0.261711 -0.090072 138 138 138
-0.270147 -0.263718 -0.090254 138 138 138
-0.267883 -0.265623 -0.090489 138 138 138
-0.265727 -0.267588 -0.090695 138 138 138
-0.263635 -0.269588 -0.090884 138 138 138
-0.261476 -0.271554 -0.091090 138 138 138
-0.259165 -0.273443 -0.091336 138 138 138
-0.256853 -0.275335 -0.091581 138 138 138
-0.254538 -0.277227 -0.091828 138 138 138
-0.252132 -0.279074 -0.092098 138 138 138
-0.249858 -0.280993 -0.092332 138 138 138
-0.247870 -0.283061 -0.092492 138 138 138
-0.245881 -0.285131 -0.092652 138 138 138
-0.243891 -0.287202 -0.092812 138 138 138
-0.241899 -0.289274 -0.092972 138 138 138
-0.239997 -0.291393 -0.093109 138 138 138
-0.238147 -0.293541 -0.093232 138 138 138
-0.236487 -0.295786 -0.093305 138 138 138
-0.235000 -0.298120 -0.093333 138 138 138
-0.233757 -0.300578 -0.093298 138 138 138
-0.231992 -0.302772 -0.093399 138 138 138
-0.230226 -0.304966 -0.093499 138 138 138
-0.228460 -0.307161 -0.093600 138 138 138
-0.226762 -0.309392 -0.093682 138 138 138
-0.224949 -0.311565 -0.093795 138 138 138
-0.223445 -0.313894 -0.093827 138 138 138
-0.222084 -0.316295 -0.093821 138 138 138
-0.220725 -0.318696 -0.093816 138 138 138
-0.219244 -0.321037 -0.093842 138 138 138
-0.218334 -0.323660 -0.093720 138 138 138
-0.217502 -0.326321 -0.093578 138 138 138
-0.216883 -0.329084 -0.093382 138 138 138
-0.216264 -0.331846 -0.093185 138 138 138
-0.215698 -0.334631 -0.092975 138 138 138
-0.214526 -0.337119 -0.092922 138 138 138
-0.213210 -0.339537 -0.092906 138 138 138
-0.211895 -0.341955 -0.092890 138 138 138
-0.210537 -0.344352 -0.092884 138 138 138
-0.209087 -0.346704 -0.092903 138 138 138
-0.207637 -0.349057 -0.092921 138 138 138
-0.206161 -0.351397 -0.092947 138 138 138
-0.204418 -0.353610 -0.093040 138 138 138
-0.203076 -0.356016 -0.093031 138 138 138
-0.201863 -0.358482 -0.092989 138 138 138
-0.200528 -0.360890 -0.092977 138 138 138
-0.199132 -0.363270 -0.092982 138 138 138
-0.197505 -0.365540 -0.093045 138 138 138
-0.195697 -0.367725 -0.093156 138 138 138
-0.193695 -0.369821 -0.093315 138 138 138
-0.191495 -0.371826 -0.093525 138 138 138
-0.189065 -0.373725 -0.093794 138 138 138
-0.184292 -0.374536 -0.094661 138 138 138
-0.178626 -0.374942 -0.095755 138 138 138
-0.170850 -0.374381 -0.097387 138 138 138
-0.163123 -0.373859 -0.099004 138 138 138
-0.157094 -0.374134 -0.100186 138 138 138
-0.151969 -0.374837 -0.101137 138 138 138
-0.146829 -0.375542 -0.102090 138 138 138
-0.142972 -0.376843 -0.102716 138 138 138
-0.139333 -0.378248 -0.103286 138 138 138
-0.135687 -0.379657 -0.103856 138 138 138
-0.131737 -0.380933 -0.104503 138 138 138
-0.127123 -0.381916 -0.105319 138 138 138
-0.122469 -0.382889 -0.106143 138 138 138
-0.117826 -0.383874 -0.106964 138 138 138
-0.113177 -0.384866 -0.107785 138 138 138
-0.108515 -0.385859 -0.108608 138 138 138
-0.100182 -0.385226 -0.110361 138 138 138
-0.063250 -0.371904 -0.119350 138 138 138
-0.057657 -0.372555 -0.120401 138 138 138
-0.051583 -0.373002 -0.121572 138 138 138
-0.045967 -0.373663 -0.122627 138 138 138
-0.041205 -0.374709 -0.123464 138 138 138
-0.036752 -0.375900 -0.124223 138 138 138
-0.032338 -0.377114 -0.124971 138 138 138
-0.028007 -0.378372 -0.125697 138 138 138
-0.023812 -0.379696 -0.126388 138 138 138
-0.019162 -0.380829 -0.127193 138 138 138
-0.014168 -0.381823 -0.128083 138 138 138
-0.009170 -0.382822 -0.128974 138 138 138
-0.003711 -0.383633 -0.129979 138 138 138
0.002208 -0.384257 -0.131099 138 138 138
0.011477 -0.383461 -0.133059 138 138 138
-0.201878 0.287450 -0.171281 138 138 138
-0.249003 0.248486 -0.157192 138 138 138
-0.256023 0.239509 -0.154722 138 138 138
-0.260130 0.232723 -0.153098 138 138 138
-0.263715 0.226340 -0.151627 138 138 138
-0.267524 0.219809 -0.150093 138 138 138
-0.272212 0.212646 -0.148307 138 138 138
-0.277360 0.205165 -0.146392 138 138 138
-0.283836 0.196730 -0.144095 138 138 138
-0.290345 0.188296 -0.141793 138 138 138
-0.294101 0.181900 -0.140285 138 138 138
-0.297300 0.175927 -0.138940 138 138 138
-0.300845 0.169717 -0.137497 138 138 138
-0.303146 0.164427 -0.136414 138 138 138
-0.306566 0.158338 -0.135010 138 138 138
-0.309716 0.152459 -0.133685 138 138 138
-0.310769 0.148108 -0.132964 138 138 138
-0.311868 0.143732 -0.132230 138 138 138
-0.312729 0.139534 -0.131566 138 138 138
-0.313806 0.135190 -0.130840 138 138 138
-0.314522 0.131111 -0.130219 138 138 138
-0.315148 0.127104 -0.129624 138 138 138
-0.315735 0.123130 -0.129041 138 138 138
-0.316266 0.119203 -0.128474 138 138 138
-0.316852 0.115243 -0.127893 138 138 138
-0.317769 0.111056 -0.127218 138 138 138
-0.318727 0.106847 -0.126533 138 138 138
-0.319658 0.102664 -0.125856 138 138 138
-0.320378 0.098637 -0.125239 138 138 138
-0.321115 0.094605 -0.124619 138 138 138
-0.322223 0.090320 -0.123894 138 138 138
-0.323449 0.085961 -0.123137 138 138 138
-0.324672 0.081611 -0.122381 138 138 138
-0.326156 0.077089 -0.121552 138 138 138
-0.328667 0.071864 -0.120434 138 138 138
-0.331550 0.066394 -0.119211 138 138 138
-0.335726 0.060043 -0.117624 138 138 138
-0.340329 0.053417 -0.115918 138 138 138
-0.344195 0.047315 -0.114423 138 138 138
-0.347971 0.041291 -0.112955 138 138 138
-0.350449 0.036171 -0.111855 138 138 138
-0.351972 0.031716 -0.111027 138 138 138
-0.353114 0.027528 -0.110306 138 138 138
-0.353794 0.023663 -0.109717 138 138 138
-0.354142 0.020029 -0.109222 138 138 138
-0.354508 0.016388 -0.108722 138 138 138
-0.354874 0.012753 -0.108224 138 138 138
-0.355131 0.009196 -0.107756 138 138 138
-0.355210 0.005764 -0.107339 138 138 138
-0.355294 0.002333 -0.106921 138 138 138
-0.355393 -0.001104 -0.106499 138 138 138
-0.355352 -0.004442 -0.106118 138 138 138
-0.355352 -0.007804 -0.105725 138 138 138
-0.355353 -0.011162 -0.105332 138 138 138
-0.355340 -0.014506 -0.104944 138 138 138
-0.355223 -0.017778 -0.104586 138 138 138
-0.355092 -0.021036 -0.104232 138 138 138
-0.354905 -0.024254 -0.103893 138 138 138
-0.354775 -0.027505 -0.103540 138 138 138
-0.354717 -0.030801 -0.103166 138 138 138
-0.354663 -0.034094 -0.102793 138 138 138
-0.354835 -0.037531 -0.102356 138 138 138
-0.355032 -0.040980 -0.101914 138 138 138
-0.355235 -0.044428 -0.101469 138 138 138
-0.355322 -0.047796 -0.101058 138 138 138
-0.355492 -0.051213 -0.100625 138 138 138
-0.355941 -0.054806 -0.100114 138 138 138
-0.356390 -0.058393 -0.099604 138 138 138
-0.357187 -0.062198 -0.098998 138 138 138
-0.359952 -0.067257 -0.097848 138 138 138
-0.363032 -0.072505 -0.096611 138 138 138
-0.368254 -0.079107 -0.094783 138 138 138
-0.373754 -0.085865 -0.092880 138 138 138
-0.378010 -0.091814 -0.091324 138 138 138
-0.381230 -0.097090 -0.090056 138 138 138
-0.384184 -0.102185 -0.088863 138 138 138
-0.386285 -0.106729 -0.087907 138 138 138
-0.386946 -0.110358 -0.087349 138 138 138
-0.387699 -0.114038 -0.086766 138 138 138
-0.388452 -0.117712 -0.086185 138 138 138
-0.388317 -0.120826 -0.085848 138 138 138
-0.387637 -0.123597 -0.085662 138 138 138
-0.386926 -0.126346 -0.085485 138 138 138
-0.385210 -0.128470 -0.085584 138 138 138
-0.382979 -0.130277 -0.085824 138 138 138
-0.379923 -0.131577 -0.086291 138 138 138
-0.377106 -0.133029 -0.086691 138 138 138
-0.374138 -0.134393 -0.087132 138 138 138
-0.370603 -0.135414 -0.087729 138 138 138
-0.366935 -0.136359 -0.088361 138 138 138
-0.363037 -0.137172 -0.089054 138 138 138
-0.359694 -0.138329 -0.089596 138 138 138
-0.356494 -0.139578 -0.090097 138 138 138
-0.353552 -0.140989 -0.090528 138 138 138
-0.351795 -0.143121 -0.090634 138 138 138
-0.349747 -0.145078 -0.090820 138 138 138
-0.347960 -0.147194 -0.090935 138 138 138
-0.346398 -0.149447 -0.090987 138 138 138
-0.344907 -0.151743 -0.091021 138 138 138
-0.343726 -0.154223 -0.090970 138 138 138
-0.342630 -0.156755 -0.090896 138 138 138
-0.341933 -0.159522 -0.090714 138 138 138
-0.341236 -0.162288 -0.090532 138 138 138
-0.340546 -0.165055 -0.090348 138 138 138
-0.339930 -0.167865 -0.090145 138 138 138
-0.339074 -0.170531 -0.090006 138 138 138
-0.338218 -0.173195 -0.089868 138 138 138
-0.337362 -0.175859 -0.089730 138 138 138
-0.336719 -0.178645 -0.089535 138 138 138
-0.335874 -0.181311 -0.089394 138 138 138
-0.334991 -0.183955 -0.089264 138 138 138
-0.334109 -0.186597 -0.089134 138 138 138
-0.333131 -0.189182 -0.089030 138 138 138
-0.331588 -0.191440 -0.089078 138 138 138
-0.329853 -0.193587 -0.089178 138 138 138
-0.327974 -0.195654 -0.089317 138 138 138
-0.326014 -0.197675 -0.089478 138 138 138
-0.323789 -0.199546 -0.089709 138 138 138
-0.321710 -0.201503 -0.089901 138 138 138
-0.319677 -0.203488 -0.090081 138 138 138
-0.317622 -0.205463 -0.090266 138 138 138
-0.315530 -0.207418 -0.090461 138 138 138
-0.313437 -0.209375 -0.090656 138 138 138
-0.311829 -0.211607 -0.090720 138 138 138
-0.310287 -0.213877 -0.090767 138 138 138
-0.308592 -0.216062 -0.090855 138 138 138
-0.306896 -0.218247 -0.090943 138 138 138
-0.305222 -0.220445 -0.091025 138 138 138
-0.303729 -0.222745 -0.091058 138 138 138
-0.302073 -0.224954 -0.091135 138 138 138
-0.300291 -0.227095 -0.091246 138 138 138
-0.298509 -0.229237 -0.091356 138 138 138
-0.296665 -0.231345 -0.091483 138 138 138
-0.294834 -0.233462 -0.091606 138 138 138
-0.292920 -0.235535 -0.091751 138 138 138
-0.290791 -0.237492 -0.091953 138 138 138
-0.288717 -0.239481 -0.092141 138 138 138
-0.286909 -0.241616 -0.092257 138 138 138
-0.285168 -0.243790 -0.092356 138 138 138
-0.283425 -0.245963 -0.092455 138 138 138
-0.281665 -0.248128 -0.092558 138 138 138
-0.280106 -0.250402 -0.092607 138 138 138
-0.278611 -0.252711 -0.092640 138 138 138
-0.276888 -0.254898 -0.092733 138 138 138
-0.274930 -0.256960 -0.092889 138 138 138
-0.272964 -0.259021 -0.093046 138 138 138
-0.270860 -0.261008 -0.093240 138 138 138
-0.268864 -0.263056 -0.093404 138 138 138
-0.266899 -0.265121 -0.093561 138 138 138
-0.264820 -0.267128 -0.093747 138 138 138
-0.262726 -0.269129 -0.093937 138 138 138
-0.260489 -0.271056 -0.094164 138 138 138
-0.258176 -0.272946 -0.094411 138 138 138
-0.255862 -0.274838 -0.094659 138 138 138
-0.253639 -0.276780 -0.094882 138 138 138
-0.251426 -0.278730 -0.095102 138 138 138
-0.249213 -0.280681 -0.095322 138 138 138
-0.247110 -0.282692 -0.095512 138 138 138
-0.245119 -0.284762 -0.095673 138 138 138
-0.243128 -0.286834 -0.095834 138 138 138
-0.241135 -0.288907 -0.095995 138 138 138
-0.239284 -0.291054 -0.096119 138 138 138
-0.237434 -0.293203 -0.096242 138 138 138
-0.235583 -0.295352 -0.096366 138 138 138
-0.233793 -0.297534 -0.096473 138 138 138
-0.231998 -0.299714 -0.096582 138 138 138
-0.230217 -0.301903 -0.096686 138 138 138
-0.228518 -0.304134 -0.096769 138 138 138
-0.226819 -0.306366 -0.096853 138 138 138
-0.225120 -0.308598 -0.096936 138 138 138
-0.223238 -0.310739 -0.097066 138 138 138
-0.221299 -0.312854 -0.097212 138 138 138
-0.219494 -0.315037 -0.097322 138 138 138
-0.218132 -0.317441 -0.097317 138 138 138
-0.216619 -0.319770 -0.097351 138 138 138
-0.215709 -0.322397 -0.097228 138 138 138
-0.214800 -0.325023 -0.097105 138 138 138
-0.213891 -0.327648 -0.096982 138 138 138
-0.213230 -0.330394 -0.096795 138 138 138
-0.212674 -0.333189 -0.096581 138 138 138
-0.212122 -0.335983 -0.096366 138 138 138
-0.211427 -0.338706 -0.096189 138 138 138
-0.210111 -0.341126 -0.096172 138 138 138
-0.208727 -0.343514 -0.096174 138 138 138
-0.207275 -0.345868 -0.096192 138 138 138
-0.205823 -0.348223 -0.096211 138 138 138
-0.204371 -0.350578 -0.096230 138 138 138
-0.202841 -0.352895 -0.096269 138 138 138
-0.201411 -0.355261 -0.096282 138 138 138
-0.199976 -0.357624 -0.096296 138 138 138
-0.198689 -0.360058 -0.096272 138 138 138
-0.197403 -0.362492 -0.096248 138 138 138
-0.195468 -0.364620 -0.096391 138 138 138
-0.193366 -0.366670 -0.096577 138 138 138
-0.191264 -0.368722 -0.096762 138 138 138
-0.189237 -0.370812 -0.096928 138 138 138
-0.186557 -0.372598 -0.097262 138 138 138
-0.182001 -0.373514 -0.098077 138 138 138
-0.175150 -0.373372 -0.099480 138 138 138
-0.165907 -0.372137 -0.101495 138 138 138
-0.159716 -0.372331 -0.102725 138 138 138
-0.154592 -0.373029 -0.103680 138 138 138
-0.149442 -0.373723 -0.104642 138 138 138
-0.144957 -0.374732 -0.105431 138 138 138
-0.141252 -0.376105 -0.106021 138 138 138
-0.137608 -0.377511 -0.106594 138 138 138
-0.133888 -0.378889 -0.107186 138 138 138
-0.129653 -0.380039 -0.107908 138 138 138
-0.125030 -0.381021 -0.108729 138 138 138
-0.120408 -0.382011 -0.109549 138 138 138
-0.115765 -0.383000 -0.110373 138 138 138
-0.111108 -0.383991 -0.111200 138 138 138
-0.103925 -0.383861 -0.112668 138 138 138
-0.065576 -0.369864 -0.122065 138 138 138
-0.059411 -0.370254 -0.123267 138 138 138
-0.053801 -0.370902 -0.124326 138 138 138
-0.047973 -0.371463 -0.125440 138 138 138
-0.043470 -0.372620 -0.126216 138 138 138
-0.039169 -0.373872 -0.126940 138 138 138
-0.034824 -0.375112 -0.127675 138 138 138
-0.030957 -0.376569 -0.128287 138 138 138
-0.026713 -0.377867 -0.128994 138 138 138
-0.022439 -0.379159 -0.129708 138 138 138
-0.017738 -0.380273 -0.130530 138 138 138
-0.012667 -0.381234 -0.131443 138 138 138
-0.007506 -0.382167 -0.132379 138 138 138
-0.002079 -0.382994 -0.133381 138 138 138
0.003611 -0.383718 -0.134448 138 138 138
-0.202842 0.282970 -0.173733 138 138 138
-0.249502 0.244432 -0.159723 138 138 138
-0.256949 0.235154 -0.157121 138 138 138
-0.261415 0.228114 -0.155386 138 138 138
-0.265143 0.221638 -0.153868 138 138 138
-0.269227 0.214916 -0.152249 138 138 138
-0.273079 0.208383 -0.150699 138 138 138
-0.278955 0.200380 -0.148565 138 138 138
-0.283270 0.193545 -0.146885 138 138 138
-0.289172 0.185568 -0.144749 138 138 138
-0.292539 0.179464 -0.143348 138 138 138
-0.295674 0.173545 -0.142016 138 138 138
-0.298195 0.168085 -0.140862 138 138 138
-0.300502 0.162794 -0.139772 138 138 138
-0.302858 0.157479 -0.138670 138 138 138
-0.305416 0.152030 -0.137510 138 138 138
-0.309058 0.145814 -0.136040 138 138 138
-0.309892 0.141631 -0.135379 138 138 138
-0.310658 0.137504 -0.134739 138 138 138
-0.311782 0.133128 -0.133997 138 138 138
-0.312839 0.128808 -0.133275 138 138 138
-0.313591 0.124713 -0.132642 138 138 138
-0.314125 0.120780 -0.132071 138 138 138
-0.314714 0.116814 -0.131486 138 138 138
-0.315464 0.112740 -0.130855 138 138 138
-0.316384 0.108553 -0.130177 138 138 138
-0.317210 0.104440 -0.129526 138 138 138
-0.317946 0.100397 -0.128902 138 138 138
-0.318681 0.096363 -0.128279 138 138 138
-0.319323 0.092399 -0.127683 138 138 138
-0.319814 0.088548 -0.127131 138 138 138
-0.320859 0.084316 -0.126422 138 138 138
-0.322241 0.079858 -0.125618 138 138 138
-0.324251 0.074973 -0.124636 138 138 138
-0.326256 0.070103 -0.123657 138 138 138
-0.329960 0.064070 -0.122196 138 138 138
-0.334696 0.057342 -0.120443 138 138 138
-0.339720 0.050435 -0.118611 138 138 138
-0.343990 0.044065 -0.116995 138 138 138
-0.347575 0.038181 -0.115576 138 138 138
-0.350183 0.032980 -0.114435 138 138 138
-0.351416 0.028727 -0.113685 138 138 138
-0.352594 0.024520 -0.112952 138 138 138
-0.353339 0.020614 -0.112342 138 138 138
-0.353782 0.016919 -0.111818 138 138 138
-0.354148 0.013281 -0.111317 138 138 138
-0.354348 0.009761 -0.110863 138 138 138
-0.354451 0.006312 -0.110437 138 138 138
-0.354642 0.002807 -0.109987 138 138 138
-0.354715 -0.000613 -0.109570 138 138 138
-0.354627 -0.003922 -0.109200 138 138 138
-0.354539 -0.007227 -0.108830 138 138 138
-0.354491 -0.010554 -0.108449 138 138 138
-0.354440 -0.013875 -0.108070 138 138 138
-0.354308 -0.017139 -0.107713 138 138 138
-0.354177 -0.020400 -0.107357 138 138 138
-0.353986 -0.023616 -0.107019 138 138 138
-0.353896 -0.026896 -0.106652 138 138 138
-0.353838 -0.030193 -0.106277 138 138 138
-0.353781 -0.033487 -0.105902 138 138 138
-0.353739 -0.036787 -0.105523 138 138 138
-0.353671 -0.040065 -0.105152 138 138 138
-0.353832 -0.043488 -0.104717 138 138 138
-0.354006 -0.046915 -0.104280 138 138 138
-0.354248 -0.050381 -0.103824 138 138 138
-0.354699 -0.053978 -0.103310 138 138 138
-0.355107 -0.057541 -0.102809 138 138 138
-0.355437 -0.061049 -0.102330 138 138 138
-0.357444 -0.065626 -0.101384 138 138 138
-0.360473 -0.070846 -0.100156 138 138 138
-0.363860 -0.076282 -0.098829 138 138 138
-0.370051 -0.083486 -0.096725 138 138 138
-0.374597 -0.089625 -0.095080 138 138 138
-0.378073 -0.095069 -0.093735 138 138 138
-0.381191 -0.100272 -0.092490 138 138 138
-0.383878 -0.105191 -0.091366 138 138 138
-0.385451 -0.109398 -0.090553 138 138 138
-0.386207 -0.113083 -0.089966 138 138 138
-0.386962 -0.116761 -0.089381 138 138 138
-0.386607 -0.119740 -0.089104 138 138 138
-0.385928 -0.122514 -0.088916 138 138 138
-0.385249 -0.125287 -0.088729 138 138 138
-0.383924 -0.127657 -0.088720 138 138 138
-0.382000 -0.129656 -0.088876 138 138 138
-0.379510 -0.131307 -0.089189 138 138 138
-0.376692 -0.132759 -0.089591 138 138 138
-0.373167 -0.133783 -0.090188 138 138 138
-0.369630 -0.134804 -0.090787 138 138 138
-0.366085 -0.135826 -0.091388 138 138 138
-0.362376 -0.136756 -0.092033 138 138 138
-0.358893 -0.137829 -0.092615 138 138 138
-0.355512 -0.138970 -0.093168 138 138 138
-0.352610 -0.140408 -0.093590 138 138 138
-0.350595 -0.142385 -0.093767 138 138 138
-0.348388 -0.144249 -0.093997 138 138 138
-0.346816 -0.146497 -0.094053 138 138 138
-0.345234 -0.148740 -0.094111 138 138 138
-0.343662 -0.150989 -0.094167 138 138 138
-0.342344 -0.153391 -0.094153 138 138 138
-0.341279 -0.155943 -0.094070 138 138 138
-0.340601 -0.158724 -0.093881 138 138 138
-0.339924 -0.161504 -0.093693 138 138 138
-0.339246 -0.164281 -0.093504 138 138 138
-0.338520 -0.167028 -0.093330 138 138 138
-0.337443 -0.169566 -0.093251 138 138 138
-0.336563 -0.172220 -0.093118 138 138 138
-0.335684 -0.174872 -0.092985 138 138 138
-0.334563 -0.177382 -0.092919 138 138 138
-0.333239 -0.179773 -0.092907 138 138 138
-0.332372 -0.182430 -0.092772 138 138 138
-0.331505 -0.185085 -0.092636 138 138 138
-0.330639 -0.187739 -0.092501 138 138 138
-0.329072 -0.189987 -0.092556 138 138 138
-0.327219 -0.192071 -0.092688 138 138 138
-0.325333 -0.194137 -0.092828 138 138 138
-0.323431 -0.196196 -0.092973 138 138 138
-0.321529 -0.198256 -0.093118 138 138 138
-0.319265 -0.200111 -0.093361 138 138 138
-0.317042 -0.201992 -0.093592 138 138 138
-0.314969 -0.203961 -0.093782 138 138 138
-0.312955 -0.205965 -0.093957 138 138 138
-0.311156 -0.208092 -0.094073 138 138 138
-0.309634 -0.210376 -0.094114 138 138 138
-0.308223 -0.212723 -0.094126 138 138 138
-0.306812 -0.215070 -0.094137 138 138 138
-0.305223 -0.217318 -0.094196 138 138 138
-0.303571 -0.219532 -0.094272 138 138 138
-0.302054 -0.221821 -0.094312 138 138 138
-0.300579 -0.224134 -0.094340 138 138 138
-0.299052 -0.226418 -0.094382 138 138 138
-0.297269 -0.228561 -0.094493 138 138 138
-0.295392 -0.230654 -0.094629 138 138 138
-0.293485 -0.232732 -0.094773 138 138 138
-0.291467 -0.234750 -0.094947 138 138 138
-0.289399 -0.236743 -0.095133 138 138 138
-0.287358 -0.238752 -0.095312 138 138 138
-0.285616 -0.240926 -0.095411 138 138 138
-0.283874 -0.243101 -0.095510 138 138 138
-0.282131 -0.245276 -0.095609 138 138 138
-0.280371 -0.247443 -0.095713 138 138 138
-0.278663 -0.249640 -0.095802 138 138 138
-0.277071 -0.251899 -0.095860 138 138 138
-0.275350 -0.254090 -0.095953 138 138 138
-0.273405 -0.256162 -0.096105 138 138 138
-0.271560 -0.258289 -0.096231 138 138 138
-0.269822 -0.260474 -0.096328 138 138 138
-0.267861 -0.262542 -0.096484 138 138 138
-0.265845 -0.264582 -0.096654 138 138 138
-0.263827 -0.266623 -0.096825 138 138 138
-0.261813 -0.268667 -0.096994 138 138 138
-0.259603 -0.270611 -0.097215 138 138 138
-0.257447 -0.272585 -0.097422 138 138 138
-0.255289 -0.274560 -0.097629 138 138 138
-0.253097 -0.276519 -0.097844 138 138 138
-0.250858 -0.278457 -0.098072 138 138 138
-0.248690 -0.280433 -0.098281 138 138 138
-0.246504 -0.282402 -0.098494 138 138 138
-0.244357 -0.284393 -0.098697 138 138 138
-0.242364 -0.286466 -0.098859 138 138 138
-0.240421 -0.288566 -0.099008 138 138 138
-0.238571 -0.290714 -0.099132 138 138 138
-0.236688 -0.292848 -0.099264 138 138 138
-0.234742 -0.294951 -0.099413 138 138 138
-0.232904 -0.297109 -0.099533 138 138 138
-0.230896 -0.299183 -0.099698 138 138 138
-0.228791 -0.301210 -0.099888 138 138 138
-0.226877 -0.303335 -0.100028 138 138 138
-0.225177 -0.305569 -0.100111 138 138 138
-0.223464 -0.307797 -0.100198 138 138 138
-0.221524 -0.309912 -0.100344 138 138 138
-0.219583 -0.312029 -0.100490 138 138 138
-0.217647 -0.314149 -0.100635 138 138 138
-0.215868 -0.316349 -0.100738 138 138 138
-0.214593 -0.318799 -0.100710 138 138 138
-0.213600 -0.321389 -0.100608 138 138 138
-0.212500 -0.323924 -0.100534 138 138 138
-0.211399 -0.326459 -0.100460 138 138 138
-0.210262 -0.328974 -0.100396 138 138 138
-0.209357 -0.331603 -0.100271 138 138 138
-0.209004 -0.334500 -0.100003 138 138 138
-0.208651 -0.337393 -0.099735 138 138 138
-0.208195 -0.340234 -0.099494 138 138 138
-0.206882 -0.342659 -0.099477 138 138 138
-0.205333 -0.344969 -0.099521 138 138 138
-0.203785 -0.347281 -0.099564 138 138 138
-0.202236 -0.349592 -0.099608 138 138 138
-0.201009 -0.352058 -0.099568 138 138 138
-0.199794 -0.354529 -0.099525 138 138 138
-0.198351 -0.356891 -0.099541 138 138 138
-0.197058 -0.359325 -0.099518 138 138 138
-0.195809 -0.361779 -0.099484 138 138 138
-0.193783 -0.363867 -0.099651 138 138 138
-0.191757 -0.365955 -0.099817 138 138 138
-0.189730 -0.368045 -0.099984 138 138 138
-0.187165 -0.369885 -0.100290 138 138 138
-0.183249 -0.371097 -0.100944 138 138 138
-0.177686 -0.371549 -0.102021 138 138 138
-0.170779 -0.371388 -0.103445 138 138 138
-0.162331 -0.370527 -0.105263 138 138 138
-0.157235 -0.371232 -0.106217 138 138 138
-0.152089 -0.371923 -0.107182 138 138 138
-0.147372 -0.372820 -0.108035 138 138 138
-0.143259 -0.374003 -0.108733 138 138 138
-0.139528 -0.375366 -0.109331 138 138 138
-0.135800 -0.376737 -0.109928 138 138 138
-0.131965 -0.378065 -0.110552 138 138 138
-0.127540 -0.379132 -0.111326 138 138 138
-0.122888 -0.380104 -0.112158 138 138 138
-0.118350 -0.381135 -0.112959 138 138 138
-0.113700 -0.382124 -0.113789 138 138 138
-0.107330 -0.382351 -0.115057 138 138 138
-0.067737 -0.367750 -0.124821 138 138 138
-0.061789 -0.368231 -0.125973 138 138 138
-0.056902 -0.369194 -0.126854 138 138 138
-0.051017 -0.369723 -0.127988 138 138 138
-0.045757 -0.370540 -0.128962 138 138 138
-0.041585 -0.371846 -0.129656 138 138 138
-0.037519 -0.373204 -0.130324 138 138 138
-0.033678 -0.374668 -0.130933 138 138 138
-0.029768 -0.376108 -0.131559 138 138 138
-0.025521 -0.377406 -0.132270 138 138 138
-0.021146 -0.378656 -0.133012 138 138 138
-0.016085 -0.379616 -0.133929 138 138 138
-0.011006 -0.380578 -0.134848 138 138 138
-0.005449 -0.381342 -0.135888 138 138 138
-0.000082 -0.382198 -0.136879 138 138 138
0.009153 -0.381408 -0.138849 100 100 100
-0.202530 0.279446 -0.176553 138 138 138
-0.246701 0.242832 -0.163214 138 138 138
-0.256073 0.232140 -0.160039 138 138 138
-0.260938 0.224815 -0.158182 138 138 138
-0.265248 0.217918 -0.156488 138 138 138
-0.269453 0.211118 -0.154828 138 138 138
-0.273824 0.204214 -0.153121 138 138 138
-0.278187 0.197335 -0.151419 138 138 138
-0.282704 0.190362 -0.149674 138 138 138
-0.286759 0.183745 -0.148065 138 138 138
-0.290216 0.177581 -0.146633 138 138 138
-0.293090 0.171856 -0.145371 138 138 138
-0.294718 0.167047 -0.144471 138 138 138
-0.296811 0.161913 -0.143438 138 138 138
-0.298613 0.156999 -0.142491 138 138 138
-0.301369 0.151409 -0.141269 138 138 138
-0.304538 0.145536 -0.139929 138 138 138
-0.307570 0.139775 -0.138630 138 138 138
-0.308622 0.135445 -0.137905 138 138 138
-0.309693 0.131110 -0.137175 138 138 138
-0.310723 0.126811 -0.136458 138 138 138
-0.311750 0.122522 -0.135742 138 138 138
-0.312574 0.118385 -0.135086 138 138 138
-0.313205 0.114391 -0.134486 138 138 138
-0.314076 0.110236 -0.133819 138 138 138
-0.314975 0.106067 -0.133143 138 138 138
-0.315652 0.102061 -0.132533 138 138 138
-0.316293 0.098088 -0.131933 138 138 138
-0.316934 0.094120 -0.131334 138 138 138
-0.317386 0.090292 -0.130791 138 138 138
-0.317838 0.086470 -0.130248 138 138 138
-0.318366 0.082600 -0.129684 138 138 138
-0.319938 0.078012 -0.128821 138 138 138
-0.321919 0.073150 -0.127844 138 138 138
-0.324131 0.068140 -0.126801 138 138 138
-0.328742 0.061489 -0.125075 138 138 138
-0.333703 0.054615 -0.123251 138 138 138
-0.339929 0.046894 -0.121070 138 138 138
-0.344139 0.040575 -0.119465 138 138 138
-0.347272 0.035009 -0.118168 138 138 138
-0.349658 0.029966 -0.117086 138 138 138
-0.350880 0.025725 -0.116337 138 138 138
-0.352035 0.021538 -0.115607 138 138 138
-0.352862 0.017582 -0.114972 138 138 138
-0.353422 0.013811 -0.114413 138 138 138
-0.353606 0.010300 -0.113961 138 138 138
-0.353798 0.006789 -0.113508 138 138 138
-0.353989 0.003283 -0.113055 138 138 138
-0.354023 -0.000113 -0.112648 138 138 138
-0.353935 -0.003424 -0.112276 138 138 138
-0.353847 -0.006731 -0.111904 138 138 138
-0.353736 -0.010018 -0.111539 138 138 138
-0.353561 -0.013258 -0.111192 138 138 138
-0.353392 -0.016500 -0.110845 138 138 138
-0.353262 -0.019763 -0.110487 138 138 138
-0.353071 -0.022982 -0.110146 138 138 138
-0.353014 -0.026286 -0.109768 138 138 138
-0.352960 -0.029587 -0.109390 138 138 138
-0.352907 -0.032885 -0.109012 138 138 138
-0.352891 -0.036204 -0.108624 138 138 138
-0.352824 -0.039484 -0.108251 138 138 138
-0.352756 -0.042761 -0.107878 138 138 138
-0.352689 -0.046034 -0.107506 138 138 138
-0.352922 -0.049497 -0.107050 138 138 138
-0.353256 -0.053020 -0.106566 138 138 138
-0.353588 -0.056537 -0.106084 138 138 138
-0.353966 -0.060079 -0.105589 138 138 138
-0.355370 -0.064272 -0.104808 138 138 138
-0.357914 -0.069186 -0.103709 138 138 138
-0.361189 -0.074554 -0.102407 138 138 138
-0.365910 -0.080829 -0.100703 138 138 138
-0.371420 -0.087586 -0.098781 138 138 138
-0.375086 -0.093156 -0.097375 138 138 138
-0.378217 -0.098373 -0.096121 138 138 138
-0.381067 -0.103399 -0.094946 138 138 138
-0.382806 -0.107715 -0.094082 138 138 138
-0.384465 -0.111971 -0.093241 138 138 138
-0.385469 -0.115808 -0.092583 138 138 138
-0.384894 -0.118653 -0.092365 138 138 138
-0.384215 -0.121430 -0.092177 138 138 138
-0.383536 -0.124205 -0.091988 138 138 138
-0.382602 -0.126820 -0.091870 138 138 138
-0.380561 -0.128750 -0.092060 138 138 138
-0.378305 -0.130548 -0.092308 138 138 138
-0.375673 -0.132117 -0.092661 138 138 138
-0.372171 -0.133156 -0.093254 138 138 138
-0.368627 -0.134175 -0.093857 138 138 138
-0.364980 -0.135138 -0.094489 138 138 138
-0.361507 -0.136213 -0.095071 138 138 138
-0.358075 -0.137319 -0.095642 138 138 138
-0.354637 -0.138428 -0.096213 138 138 138
-0.351545 -0.139752 -0.096689 138 138 138
-0.349292 -0.141588 -0.096932 138 138 138
-0.347236 -0.143545 -0.097121 138 138 138
-0.345649 -0.145786 -0.097181 138 138 138
-0.344015 -0.148000 -0.097254 138 138 138
-0.342467 -0.150266 -0.097303 138 138 138
-0.341081 -0.152629 -0.097307 138 138 138
-0.340134 -0.155253 -0.097191 138 138 138
-0.339381 -0.157993 -0.097022 138 138 138
-0.338658 -0.160747 -0.096845 138 138 138
-0.337981 -0.163527 -0.096655 138 138 138
-0.337211 -0.166251 -0.096491 138 138 138
-0.336214 -0.168838 -0.096390 138 138 138
-0.335033 -0.171318 -0.096339 138 138 138
-0.334153 -0.173972 -0.096205 138 138 138
-0.332988 -0.176459 -0.096150 138 138 138
-0.331524 -0.178771 -0.096177 138 138 138
-0.330059 -0.181083 -0.096203 138 138 138
-0.328928 -0.183588 -0.096139 138 138 138
-0.328061 -0.186246 -0.096002 138 138 138
-0.326396 -0.188442 -0.096084 138 138 138
-0.324540 -0.190528 -0.096217 138 138 138
-0.322683 -0.192616 -0.096350 138 138 138
-0.320825 -0.194704 -0.096483 138 138 138
-0.318883 -0.196745 -0.096639 138 138 138
-0.316406 -0.198483 -0.096940 138 138 138
-0.314465 -0.200529 -0.097095 138 138 138
-0.312449 -0.202534 -0.097270 138 138 138
-0.310432 -0.204540 -0.097446 138 138 138
-0.308953 -0.206852 -0.097475 138 138 138
-0.307502 -0.209180 -0.097497 138 138 138
-0.306089 -0.211530 -0.097509 138 138 138
-0.304676 -0.213879 -0.097520 138 138 138
-0.303294 -0.216246 -0.097523 138 138 138
-0.301917 -0.218616 -0.097525 138 138 138
-0.300376 -0.220895 -0.097571 138 138 138
-0.298900 -0.223210 -0.097599 138 138 138
-0.297412 -0.225519 -0.097631 138 138 138
-0.295864 -0.227795 -0.097679 138 138 138
-0.293971 -0.229881 -0.097820 138 138 138
-0.291995 -0.231924 -0.097982 138 138 138
-0.290019 -0.233967 -0.098145 138 138 138
-0.288004 -0.235992 -0.098318 138 138 138
-0.286066 -0.238059 -0.098470 138 138 138
-0.284308 -0.240227 -0.098573 138 138 138
-0.282546 -0.242393 -0.098678 138 138 138
-0.280783 -0.244560 -0.098782 138 138 138
-0.279020 -0.246728 -0.098887 138 138 138
-0.277351 -0.248947 -0.098966 138 138 138
-0.275725 -0.251191 -0.099033 138 138 138
-0.273992 -0.253378 -0.099129 138 138 138
-0.272174 -0.255520 -0.099248 138 138 138
-0.270338 -0.257654 -0.099371 138 138 138
-0.268633 -0.259859 -0.099460 138 138 138
-0.266927 -0.262064 -0.099548 138 138 138
-0.265032 -0.264170 -0.099687 138 138 138
-0.263013 -0.266212 -0.099858 138 138 138
-0.261011 -0.268265 -0.100025 138 138 138
-0.259035 -0.270333 -0.100185 138 138 138
-0.256930 -0.272335 -0.100379 138 138 138
-0.254738 -0.274294 -0.100595 138 138 138
-0.252545 -0.276253 -0.100812 138 138 138
-0.250344 -0.278211 -0.101031 138 138 138
-0.248178 -0.280190 -0.101240 138 138 138
-0.245991 -0.282160 -0.101454 138 138 138
-0.243802 -0.284131 -0.101669 138 138 138
-0.241617 -0.286106 -0.101882 138 138 138
-0.239674 -0.288207 -0.102031 138 138 138
-0.237729 -0.290309 -0.102181 138 138 138
-0.235782 -0.292411 -0.102331 138 138 138
-0.233835 -0.294515 -0.102480 138 138 138
-0.232014 -0.296684 -0.102596 138 138 138
-0.229894 -0.298703 -0.102791 138 138 138
-0.227733 -0.300704 -0.102997 138 138 138
-0.225578 -0.302709 -0.103200 138 138 138
-0.223621 -0.304816 -0.103352 138 138 138
-0.221749 -0.306966 -0.103480 138 138 138
-0.219893 -0.309127 -0.103605 138 138 138
-0.218056 -0.311298 -0.103724 138 138 138
-0.216223 -0.313472 -0.103842 138 138 138
-0.214471 -0.315688 -0.103938 138 138 138
-0.212665 -0.317878 -0.104049 138 138 138
-0.210858 -0.320068 -0.104160 138 138 138
-0.209756 -0.322607 -0.104085 138 138 138
-0.208655 -0.325145 -0.104011 138 138 138
-0.207432 -0.327623 -0.103969 138 138 138
-0.206277 -0.330133 -0.103908 138 138 138
-0.205123 -0.332644 -0.103848 138 138 138
-0.204439 -0.335382 -0.103665 138 138 138
-0.204049 -0.338261 -0.103405 138 138 138
-0.203465 -0.341044 -0.103196 138 138 138
-0.202947 -0.343857 -0.102970 138 138 138
-0.201397 -0.346170 -0.103014 138 138 138
-0.199846 -0.348485 -0.103058 138 138 138
-0.198814 -0.351047 -0.102967 138 138 138
-0.197838 -0.353636 -0.102861 138 138 138
-0.196724 -0.356157 -0.102791 138 138 138
-0.195332 -0.358547 -0.102793 138 138 138
-0.193930 -0.360931 -0.102799 138 138 138
-0.192149 -0.363137 -0.102902 138 138 138
-0.190223 -0.365275 -0.103044 138 138 138
-0.187732 -0.367150 -0.103331 138 138 138
-0.184639 -0.368746 -0.103775 138 138 138
-0.180098 -0.369670 -0.104593 138 138 138
-0.174630 -0.370171 -0.105651 138 138 138
-0.165680 -0.369066 -0.107609 138 138 138
-0.159853 -0.369425 -0.108757 138 138 138
-0.154739 -0.370125 -0.109719 138 138 138
-0.149957 -0.370988 -0.110594 138 138 138
-0.145950 -0.372214 -0.111267 138 138 138
-0.141873 -0.373415 -0.111959 138 138 138
-0.137713 -0.374585 -0.112670 138 138 138
-0.133879 -0.375911 -0.113297 138 138 138
-0.129965 -0.377206 -0.113944 138 138 138
-0.125287 -0.378161 -0.114786 138 138 138
-0.120533 -0.379091 -0.115648 138 138 138
-0.116081 -0.380165 -0.116430 138 138 138
-0.110252 -0.380627 -0.117566 138 138 138
-0.070808 -0.366045 -0.127342 138 138 138
-0.064094 -0.366177 -0.128697 138 138 138
-0.059206 -0.367134 -0.129583 138 138 138
-0.054680 -0.368262 -0.130374 138 138 138
-0.048885 -0.368835 -0.131490 138 138 138
-0.044458 -0.370022 -0.132254 138 138 138
-0.040368 -0.371366 -0.132931 138 138 138
-0.036384 -0.372763 -0.133580 138 138 138
-0.032511 -0.374215 -0.134200 138 138 138
-0.028578 -0.375646 -0.134834 138 138 138
-0.024326 -0.376945 -0.135550 138 138 138
-0.019423 -0.377967 -0.136430 138 138 138
-0.014413 -0.378952 -0.137337 138 138 138
-0.009052 -0.379795 -0.138333 138 138 138
-0.003416 -0.380528 -0.139398 138 138 138
0.004104 -0.380463 -0.140941 138 138 138
-0.196370 0.284101 -0.181539 138 138 138
-0.201365 0.276557 -0.179620 138 138 138
-0.205279 0.269834 -0.178021 138 138 138
-0.254877 0.229364 -0.163051 138 138 138
-0.260157 0.221741 -0.161065 138 138 138
