ply
format ascii 1.0
element vertex 1176
property float x
property float y
property float z
property uchar red
property uchar green
property uchar blue
end_header
-0.077731 -0.350939 0.289493 177 177 177
-0.074807 -0.351373 0.289399 177 177 177
-0.071910 -0.351854 0.289310 178 178 178
-0.068935 -0.352216 0.289208 179 179 179
-0.066124 -0.352841 0.289133 179 179 179
-0.063365 -0.353549 0.289067 180 180 180
-0.060603 -0.354256 0.289000 180 180 180
-0.058171 -0.355478 0.288986 180 180 180
-0.055976 -0.357069 0.289011 180 180 180
-0.053782 -0.358659 0.289035 181 181 181
-0.051588 -0.360249 0.289059 181 181 181
-0.049719 -0.362338 0.289135 182 182 182
-0.047747 -0.364266 0.289194 182 182 182
-0.045816 -0.366255 0.289260 183 183 183
-0.044031 -0.368463 0.289348 183 183 183
-0.042237 -0.370654 0.289435 182 182 182
-0.040216 -0.372497 0.289486 182 182 182
-0.037804 -0.373741 0.289475 184 184 184
-0.034839 -0.374148 0.289377 187 187 187
-0.030769 -0.372888 0.289106 188 188 188
-0.028096 -0.373747 0.289054 189 189 189
-0.020719 -0.367523 0.288267 189 189 189
-0.016111 -0.365494 0.287915 189 189 189
-0.013027 -0.365767 0.287802 189 189 189
-0.010041 -0.366191 0.287704 189 189 189
-0.006853 -0.366316 0.287576 188 188 188
-0.003178 -0.365723 0.287372 185 185 185
0.000082 -0.365754 0.287233 184 184 184
0.003343 -0.365790 0.287094 184 184 184
0.006607 -0.365827 0.286955 184 184 184
0.010173 -0.365424 0.286771 183 183 183
0.013940 -0.364732 0.286555 181 181 181
0.017663 -0.364116 0.286348 180 180 180
0.021054 -0.363994 0.286192 180 180 180
0.024392 -0.363955 0.286044 180 180 180
0.027719 -0.363941 0.285899 180 180 180
0.031049 -0.363926 0.285753 180 180 180
0.034431 -0.363843 0.285600 180 180 180
0.037822 -0.363752 0.285447 181 181 181
0.041399 -0.363399 0.285265 182 182 182
0.045722 -0.361977 0.284971 184 184 184
0.050391 -0.360066 0.284625 186 186 186
0.055223 -0.357936 0.284256 186 186 186
0.059612 -0.356457 0.283954 185 185 185
0.063837 -0.355224 0.283679 185 185 185
0.067907 -0.354225 0.283427 184 184 184
0.071948 -0.353278 0.283181 185 185 185
0.075913 -0.352449 0.282947 185 185 185
0.080494 -0.350754 0.282621 187 187 187
0.085140 -0.348982 0.282287 188 188 188
0.090109 -0.346764 0.281905 188 188 188
0.095786 -0.343565 0.281418 188 188 188
0.100701 -0.341457 0.281047 188 188 188
0.104665 -0.340702 0.280819 187 187 187
0.108122 -0.340666 0.280666 187 187 187
0.111755 -0.340390 0.280488 187 187 187
0.115398 -0.340107 0.280309 188 188 188
0.119093 -0.339760 0.280122 189 189 189
0.124620 -0.336872 0.279666 190 190 190
0.130320 -0.333764 0.279186 190 190 190
0.136312 -0.330271 0.278664 190 190 190
0.141830 -0.327453 0.278213 190 190 190
0.146585 -0.325705 0.277876 190 190 190
0.151331 -0.323983 0.277541 190 190 190
0.156183 -0.322128 0.277191 190 190 190
0.161142 -0.320141 0.276827 190 190 190
0.167087 -0.316822 0.276320 191 191 191
0.172466 -0.314293 0.275897 191 191 191
0.178253 -0.311228 0.275416 191 191 191
0.183798 -0.308509 0.274971 191 191 191
0.189070 -0.306178 0.274568 191 191 191
0.194479 -0.303677 0.274146 193 193 193
0.201639 -0.298830 0.273471 196 196 196
0.211279 -0.290672 0.272441 197 197 197
0.224977 -0.277102 0.270828 196 196 196
0.239680 -0.262249 0.269076 196 196 196
0.282328 -0.210076 0.263310 193 193 193
0.289382 -0.205649 0.262672 191 191 191
0.295470 -0.202535 0.262174 191 191 191
0.301127 -0.200012 0.261740 192 192 192
0.309940 -0.193320 0.260855 194 194 194
0.323307 -0.180634 0.259323 200 200 200
0.341536 -0.161583 0.257103 202 202 202
-0.335247 0.203944 0.255929 108 108 108
-0.339824 0.185027 0.257567 149 149 149
-0.340039 0.176665 0.258211 155 155 155
-0.340102 0.168706 0.258819 158 158 158
-0.340823 0.159216 0.259571 155 155 155
-0.346843 0.137174 0.261510 168 168 168
-0.350834 0.120057 0.262985 138 138 138
-0.351499 0.110889 0.263711 138 138 138
-0.352006 0.102135 0.264398 138 138 138
-0.352933 0.092438 0.265175 138 138 138
-0.353457 0.083730 0.265860 138 138 138
-0.353851 0.075365 0.266513 138 138 138
-0.355640 0.063787 0.267471 138 138 138
-0.358830 0.049011 0.268733 138 138 138
-0.360686 0.037399 0.269697 157 157 157
-0.360873 0.029701 0.270290 156 156 156
-0.360420 0.023514 0.270740 157 157 157
-0.359591 0.018217 0.271106 157 157 157
-0.358740 0.012991 0.271465 158 158 158
-0.357720 0.008173 0.271787 157 157 157
-0.356749 0.003263 0.272117 156 156 156
-0.355705 -0.001463 0.272430 153 153 153
-0.354711 -0.006285 0.272753 151 151 151
-0.353458 -0.010502 0.273018 149 149 149
-0.352172 -0.014630 0.273276 147 147 147
-0.351020 -0.019045 0.273561 146 146 146
-0.349899 -0.023513 0.273851 144 144 144
-0.348831 -0.028082 0.274151 142 142 142
-0.347855 -0.032841 0.274470 139 139 139
-0.346695 -0.037172 0.274748 138 138 138
-0.345456 -0.041312 0.275008 138 138 138
-0.344776 -0.046674 0.275386 138 138 138
-0.344288 -0.052436 0.275802 138 138 138
-0.344133 -0.058910 0.276287 138 138 138
-0.344048 -0.065509 0.276785 138 138 138
-0.344925 -0.074186 0.277482 138 138 138
-0.348025 -0.087678 0.278643 146 146 146
-0.351721 -0.102400 0.279924 150 150 150
-0.351644 -0.108860 0.280411 150 150 150
-0.350920 -0.113893 0.280762 146 146 146
-0.349944 -0.118363 0.281058 144 144 144
-0.349019 -0.122925 0.281364 144 144 144
-0.348092 -0.127467 0.281669 144 144 144
-0.347047 -0.131739 0.281947 144 144 144
-0.346158 -0.136327 0.282257 144 144 144
-0.345053 -0.140441 0.282521 144 144 144
-0.343850 -0.144330 0.282764 143 143 143
-0.342723 -0.148369 0.283021 143 143 143
-0.341555 -0.152304 0.283269 144 144 144
-0.340400 -0.156256 0.283518 145 145 145
-0.339247 -0.160198 0.283767 146 146 146
-0.337854 -0.163622 0.283966 145 145 145
-0.336366 -0.166837 0.284145 144 144 144
-0.334892 -0.170073 0.284326 144 144 144
-0.333368 -0.173194 0.284497 146 146 146
-0.331832 -0.176279 0.284664 146 146 146
-0.330255 -0.179273 0.284822 147 147 147
-0.328639 -0.182177 0.284972 147 147 147
-0.326989 -0.185003 0.285114 148 148 148
-0.325300 -0.187741 0.285248 147 147 147
-0.323573 -0.190394 0.285374 147 147 147
-0.321898 -0.193148 0.285509 148 148 148
-0.320120 -0.195684 0.285624 148 148 148
-0.318309 -0.198145 0.285732 148 148 148
-0.316484 -0.200575 0.285836 149 149 149
-0.314622 -0.202923 0.285933 146 146 146
-0.312759 -0.205264 0.286029 148 148 148
-0.310829 -0.207465 0.286112 150 150 150
-0.308897 -0.209658 0.286193 152 152 152
-0.306963 -0.211842 0.286275 153 153 153
-0.305028 -0.214022 0.286355 155 155 155
-0.303054 -0.216117 0.286428 156 156 156
-0.301051 -0.218153 0.286495 156 156 156
-0.299035 -0.220159 0.286559 157 157 157
-0.296933 -0.221992 0.286606 159 159 159
-0.294794 -0.223749 0.286645 160 160 160
-0.292660 -0.225514 0.286686 159 159 159
-0.290673 -0.227565 0.286754 160 160 160
-0.288686 -0.229613 0.286823 160 160 160
-0.286701 -0.231661 0.286891 161 161 161
-0.284705 -0.233685 0.286958 161 161 161
-0.282806 -0.235893 0.287042 161 161 161
-0.280935 -0.238151 0.287132 162 162 162
-0.279057 -0.240392 0.287219 162 162 162
-0.277181 -0.242631 0.287307 162 162 162
-0.275306 -0.244869 0.287395 162 162 162
-0.273437 -0.247113 0.287483 163 163 163
-0.271497 -0.249216 0.287558 166 166 166
-0.269486 -0.251181 0.287619 166 166 166
-0.267497 -0.253185 0.287684 165 165 165
-0.265485 -0.255142 0.287745 165 165 165
-0.263327 -0.256818 0.287777 164 164 164
-0.261222 -0.258595 0.287820 164 164 164
-0.259199 -0.260522 0.287878 164 164 164
-0.257175 -0.262445 0.287935 164 164 164
-0.255144 -0.264352 0.287991 165 165 165
-0.253070 -0.266177 0.288038 165 165 165
-0.251018 -0.268038 0.288090 164 164 164
-0.249000 -0.269962 0.288147 163 163 163
-0.246983 -0.271884 0.288205 163 163 163
-0.244967 -0.273806 0.288263 162 162 162
-0.242910 -0.275648 0.288312 162 162 162
-0.240895 -0.277567 0.288370 163 163 163
-0.238850 -0.279427 0.288421 163 163 163
-0.236806 -0.281286 0.288473 163 163 163
-0.234825 -0.283257 0.288536 164 164 164
-0.232811 -0.285166 0.288592 165 165 165
-0.230604 -0.286721 0.288614 165 165 165
-0.228398 -0.288276 0.288635 166 166 166
-0.226069 -0.289607 0.288634 166 166 166
-0.223740 -0.290939 0.288633 166 166 166
-0.221411 -0.292270 0.288632 166 166 166
-0.219054 -0.293551 0.288626 166 166 166
-0.216489 -0.294459 0.288583 167 167 167
-0.213882 -0.295293 0.288532 168 168 168
-0.211275 -0.296130 0.288481 168 168 168
-0.208654 -0.296945 0.288428 168 168 168
-0.206012 -0.297724 0.288371 168 168 168
-0.203391 -0.298544 0.288318 168 168 168
-0.200779 -0.299382 0.288268 168 168 168
-0.198166 -0.300221 0.288217 168 168 168
-0.195552 -0.301060 0.288166 168 168 168
-0.192939 -0.301905 0.288115 168 168 168
-0.190323 -0.302745 0.288064 167 167 167
-0.187644 -0.303478 0.288003 167 167 167
-0.184963 -0.304211 0.287941 167 167 167
-0.182282 -0.304945 0.287879 168 168 168
-0.179783 -0.306000 0.287849 167 167 167
-0.177330 -0.307135 0.287828 167 167 167
-0.174907 -0.308323 0.287812 166 166 166
-0.172494 -0.309529 0.287798 165 165 165
-0.170140 -0.310838 0.287794 166 166 166
-0.167787 -0.312148 0.287790 166 166 166
-0.165434 -0.313458 0.287787 166 166 166
-0.163080 -0.314767 0.287783 167 167 167
-0.160769 -0.316149 0.287786 167 167 167
-0.158553 -0.317693 0.287807 168 168 168
-0.156388 -0.319322 0.287835 169 169 169
-0.154176 -0.320869 0.287856 169 169 169
-0.151964 -0.322416 0.287876 170 170 170
-0.149752 -0.323963 0.287897 170 170 170
-0.147600 -0.325608 0.287927 170 170 170
-0.145504 -0.327347 0.287968 171 171 171
-0.143291 -0.328888 0.287988 172 172 172
-0.140934 -0.330189 0.287983 173 173 173
-0.138464 -0.331301 0.287959 173 173 173
-0.135976 -0.332384 0.287932 174 174 174
-0.133474 -0.333445 0.287903 174 174 174
-0.130970 -0.334506 0.287874 174 174 174
-0.128423 -0.335495 0.287837 174 174 174
-0.125784 -0.336335 0.287785 175 175 175
-0.123112 -0.337123 0.287728 175 175 175
-0.120446 -0.337924 0.287672 175 175 175
-0.117807 -0.338771 0.287621 175 175 175
-0.115168 -0.339620 0.287569 175 175 175
-0.112546 -0.340499 0.287521 175 175 175
-0.109922 -0.341379 0.287473 175 175 175
-0.107298 -0.342259 0.287425 174 174 174
-0.104673 -0.343139 0.287376 174 174 174
-0.102063 -0.344046 0.287331 174 174 174
-0.099664 -0.345295 0.287321 173 173 173
-0.097232 -0.346492 0.287305 172 172 172
-0.094796 -0.347682 0.287288 173 173 173
-0.092389 -0.348919 0.287277 173 173 173
-0.090014 -0.350208 0.287270 173 173 173
-0.087638 -0.351496 0.287264 174 174 174
-0.085143 -0.352595 0.287238 175 175 175
-0.082282 -0.353116 0.287152 176 176 176
-0.079496 -0.353760 0.287079 177 177 177
-0.076709 -0.354404 0.287006 178 178 178
-0.073659 -0.354640 0.286890 178 178 178
-0.070552 -0.354790 0.286765 179 179 179
-0.067685 -0.355320 0.286680 179 179 179
-0.064836 -0.355883 0.286597 179 179 179
-0.062078 -0.356591 0.286530 180 180 180
-0.059514 -0.357605 0.286495 179 179 179
-0.057288 -0.359143 0.286514 179 179 179
-0.055436 -0.361259 0.286593 180 180 180
-0.054028 -0.364058 0.286744 179 179 179
-0.052244 -0.366271 0.286834 180 180 180
-0.049990 -0.367757 0.286848 180 180 180
-0.048056 -0.369733 0.286914 181 181 181
-0.046111 -0.371691 0.286977 180 180 180
-0.044092 -0.373532 0.287028 180 180 180
-0.042074 -0.375372 0.287080 180 180 180
-0.040056 -0.377211 0.287131 180 180 180
-0.037771 -0.378643 0.287139 182 182 182
-0.035209 -0.379654 0.287104 185 185 185
-0.032259 -0.380083 0.287007 187 187 187
-0.029145 -0.380267 0.286884 187 187 187
-0.026025 -0.380448 0.286761 188 188 188
-0.022421 -0.379908 0.286562 189 189 189
-0.018153 -0.378383 0.286259 190 190 190
-0.013820 -0.376774 0.285947 190 190 190
-0.008300 -0.373408 0.285449 191 191 191
-0.004187 -0.372156 0.285174 188 188 188
0.001517 -0.368555 0.284650 184 184 184
0.004777 -0.368593 0.284510 184 184 184
0.008183 -0.368421 0.284347 183 183 183
0.011941 -0.367737 0.284130 182 182 182
0.015746 -0.366993 0.283907 181 181 181
0.019452 -0.366404 0.283700 179 179 179
0.022800 -0.366347 0.283549 179 179 179
0.026130 -0.366322 0.283401 179 179 179
0.029466 -0.366295 0.283252 178 178 178
0.032832 -0.366232 0.283100 179 179 179
0.036220 -0.366142 0.282944 180 180 180
0.039611 -0.366053 0.282789 179 179 179
0.043068 -0.365876 0.282624 181 181 181
0.047485 -0.364322 0.282312 183 183 183
0.052025 -0.362603 0.281982 185 185 185
0.056695 -0.360712 0.281634 185 185 185
0.061222 -0.359038 0.281308 184 184 184
0.065375 -0.357914 0.281041 184 184 184
0.069557 -0.356758 0.280769 184 184 184
0.073718 -0.355643 0.280502 184 184 184
0.077914 -0.354489 0.280231 185 185 185
0.082549 -0.352724 0.279893 186 186 186
0.086979 -0.351263 0.279588 187 187 187
0.091801 -0.349262 0.279224 187 187 187
0.097188 -0.346479 0.278777 187 187 187
0.101876 -0.344696 0.278436 186 186 186
0.105659 -0.344196 0.278232 186 186 186
0.109233 -0.343996 0.278060 186 186 186
0.112942 -0.343613 0.277868 187 187 187
0.116610 -0.343296 0.277683 187 187 187
0.120424 -0.342783 0.277477 188 188 188
0.126132 -0.339653 0.276989 188 188 188
0.132028 -0.336281 0.276474 190 190 190
0.138048 -0.332758 0.275942 190 190 190
0.143475 -0.330073 0.275500 189 189 189
0.148374 -0.328132 0.275138 189 189 189
0.153352 -0.326097 0.274765 189 189 189
0.158148 -0.324326 0.274420 189 189 189
0.162995 -0.322499 0.274069 188 188 188
0.168411 -0.319909 0.273634 190 190 190
0.174148 -0.316900 0.273154 190 190 190
0.180021 -0.313725 0.272655 190 190 190
0.185564 -0.311017 0.272207 190 190 190
0.190912 -0.308590 0.271788 191 191 191
0.196563 -0.305769 0.271326 192 192 192
0.202923 -0.302013 0.270761 196 196 196
0.217406 -0.287367 0.269013 197 197 197
0.232472 -0.272006 0.267186 195 195 195
0.249294 -0.254366 0.265108 199 199 199
0.284278 -0.212562 0.260398 194 194 194
0.291856 -0.207448 0.259677 191 191 191
0.298129 -0.204098 0.259147 191 191 191
0.304772 -0.200277 0.258566 193 193 193
0.314135 -0.192878 0.257593 195 195 195
0.326322 -0.181786 0.256216 199 199 199
0.343486 -0.164185 0.254126 201 201 201
-0.340693 0.190986 0.254099 152 152 152
-0.342347 0.179131 0.255083 153 153 153
-0.342541 0.170834 0.255729 158 158 158
-0.343152 0.161579 0.256468 155 155 155
-0.345950 0.147155 0.257701 151 151 151
-0.350989 0.127477 0.259436 138 138 138
-0.352353 0.116611 0.260332 138 138 138
-0.352138 0.109533 0.260867 138 138 138
-0.352549 0.101009 0.261540 138 138 138
-0.352954 0.092539 0.262209 138 138 138
-0.353709 0.083286 0.262954 138 138 138
-0.354768 0.073368 0.263763 138 138 138
-0.356655 0.061566 0.264754 138 138 138
-0.361496 0.042955 0.266399 148 148 148
-0.362860 0.032499 0.267263 155 155 155
-0.362945 0.025049 0.267839 156 156 156
-0.362175 0.019605 0.268223 157 157 157
-0.361390 0.014217 0.268603 158 158 158
-0.360365 0.009400 0.268927 158 158 158
-0.359373 0.004526 0.269258 157 157 157
-0.358303 -0.000150 0.269570 155 155 155
-0.357305 -0.004974 0.269896 155 155 155
-0.356124 -0.009364 0.270181 151 151 151
-0.354838 -0.013499 0.270442 150 150 150
-0.353571 -0.017663 0.270706 150 150 150
-0.352167 -0.021504 0.270939 148 148 148
-0.350806 -0.025427 0.271180 146 146 146
-0.349746 -0.030011 0.271485 144 144 144
-0.348727 -0.034669 0.271798 142 142 142
-0.347557 -0.038973 0.272077 139 139 139
-0.346528 -0.043575 0.272385 138 138 138
-0.345762 -0.048742 0.272748 138 138 138
-0.345283 -0.054521 0.273171 138 138 138
-0.345566 -0.061955 0.273755 138 138 138
-0.345966 -0.069612 0.274361 141 141 141
-0.347348 -0.079384 0.275173 141 141 141
-0.352216 -0.096721 0.276722 157 157 157
-0.353602 -0.106394 0.277527 151 151 151
-0.353131 -0.111990 0.277936 149 149 149
-0.352187 -0.116539 0.278244 146 146 146
-0.351184 -0.120944 0.278538 145 145 145
-0.350206 -0.125386 0.278836 145 145 145
-0.349296 -0.129957 0.279147 146 146 146
-0.348403 -0.134550 0.279460 147 147 147
-0.347369 -0.138824 0.279743 147 147 147
-0.346163 -0.142715 0.279988 146 146 146
-0.345020 -0.146727 0.280246 146 146 146
-0.343781 -0.150524 0.280483 146 146 146
-0.342505 -0.154227 0.280711 147 147 147
-0.341350 -0.158174 0.280963 148 148 148
-0.340039 -0.161779 0.281182 147 147 147
-0.338627 -0.165160 0.281379 145 145 145
-0.337139 -0.168373 0.281560 145 145 145
-0.335642 -0.171557 0.281738 145 145 145
-0.334098 -0.174633 0.281906 145 145 145
-0.332561 -0.177716 0.282075 145 145 145
-0.330985 -0.180709 0.282235 146 146 146
-0.329347 -0.183564 0.282381 146 146 146
-0.327695 -0.186384 0.282525 147 147 147
-0.326006 -0.189119 0.282660 146 146 146
-0.324319 -0.191851 0.282795 146 146 146
-0.322513 -0.194334 0.282906 146 146 146
-0.320685 -0.196768 0.283012 146 146 146
-0.318860 -0.199199 0.283118 147 147 147
-0.317026 -0.201607 0.283221 146 146 146
-0.315137 -0.203899 0.283314 144 144 144
-0.313262 -0.206216 0.283409 146 146 146
-0.311435 -0.208621 0.283512 148 148 148
-0.309548 -0.210904 0.283604 150 150 150
-0.307615 -0.213088 0.283686 152 152 152
-0.305645 -0.215194 0.283761 153 153 153
-0.303671 -0.217289 0.283834 154 154 154
-0.301671 -0.219329 0.283902 155 155 155
-0.299663 -0.221348 0.283968 155 155 155
-0.297656 -0.223366 0.284034 155 155 155
-0.295629 -0.225341 0.284096 157 157 157
-0.293609 -0.227329 0.284159 157 157 157
-0.291613 -0.229358 0.284227 158 158 158
-0.289607 -0.231365 0.284292 158 158 158
-0.287602 -0.233372 0.284357 159 159 159
-0.285619 -0.235416 0.284426 160 160 160
-0.283854 -0.237882 0.284537 160 160 160
-0.282008 -0.240185 0.284633 160 160 160
-0.280131 -0.242424 0.284721 160 160 160
-0.278257 -0.244662 0.284810 160 160 160
-0.276384 -0.246899 0.284899 161 161 161
-0.274512 -0.249135 0.284988 161 161 161
-0.272649 -0.251381 0.285078 163 163 163
-0.270788 -0.253627 0.285168 164 164 164
-0.268713 -0.255461 0.285217 164 164 164
-0.266555 -0.257136 0.285250 163 163 163
-0.264397 -0.258810 0.285282 163 163 163
-0.262311 -0.260617 0.285329 163 163 163
-0.260289 -0.262543 0.285387 163 163 163
-0.258267 -0.264465 0.285445 163 163 163
-0.256240 -0.266376 0.285502 163 163 163
-0.254194 -0.268249 0.285555 163 163 163
-0.252167 -0.270155 0.285612 163 163 163
-0.250118 -0.272015 0.285664 162 162 162
-0.248070 -0.273875 0.285716 162 162 162
-0.245927 -0.275558 0.285750 161 161 161
-0.243815 -0.277295 0.285790 161 161 161
-0.241788 -0.279188 0.285845 161 161 161
-0.239797 -0.281145 0.285907 161 161 161
-0.237824 -0.283131 0.285973 162 162 162
-0.235791 -0.285004 0.286026 163 163 163
-0.233587 -0.286563 0.286048 163 163 163
-0.231383 -0.288120 0.286070 163 163 163
-0.229178 -0.289675 0.286092 163 163 163
-0.226974 -0.291229 0.286113 163 163 163
-0.224701 -0.292660 0.286123 164 164 164
-0.222340 -0.293930 0.286115 164 164 164
-0.219880 -0.295023 0.286090 165 165 165
-0.217347 -0.295985 0.286052 167 167 167
-0.214740 -0.296818 0.286000 167 167 167
-0.212134 -0.297653 0.285949 167 167 167
-0.209526 -0.298488 0.285897 168 168 168
-0.206938 -0.299360 0.285849 167 167 167
-0.204315 -0.300174 0.285796 168 168 168
-0.201697 -0.300998 0.285743 167 167 167
-0.199075 -0.301819 0.285689 167 167 167
-0.196451 -0.302638 0.285636 167 167 167
-0.193815 -0.303437 0.285580 167 167 167
-0.191176 -0.304237 0.285525 167 167 167
-0.188536 -0.305034 0.285469 167 167 167
-0.185858 -0.305770 0.285407 167 167 167
-0.183178 -0.306504 0.285344 167 167 167
-0.180682 -0.307560 0.285315 167 167 167
-0.178225 -0.308685 0.285292 166 166 166
-0.175816 -0.309894 0.285278 166 166 166
-0.173430 -0.311144 0.285268 165 165 165
-0.171043 -0.312394 0.285258 165 165 165
-0.168704 -0.313724 0.285257 165 165 165
-0.166382 -0.315084 0.285258 166 166 166
-0.164047 -0.316424 0.285258 166 166 166
-0.161717 -0.317770 0.285258 167 167 167
-0.159596 -0.319473 0.285295 167 167 167
-0.157521 -0.321251 0.285339 168 168 168
-0.155447 -0.323028 0.285384 168 168 168
-0.153295 -0.324673 0.285415 168 168 168
-0.151085 -0.326218 0.285435 169 169 169
-0.148981 -0.327940 0.285474 169 169 169
-0.146770 -0.329482 0.285495 170 170 170
-0.144550 -0.331008 0.285513 170 170 170
-0.142196 -0.332309 0.285509 171 171 171
-0.139842 -0.333610 0.285504 171 171 171
-0.137436 -0.334824 0.285491 172 172 172
-0.134949 -0.335906 0.285464 173 173 173
-0.132462 -0.336988 0.285437 173 173 173
-0.129941 -0.338017 0.285404 174 174 174
-0.127281 -0.338817 0.285347 174 174 174
-0.124590 -0.339569 0.285286 174 174 174
-0.121885 -0.340301 0.285222 174 174 174
-0.119176 -0.341030 0.285158 175 175 175
-0.116537 -0.341874 0.285106 175 175 175
-0.113911 -0.342743 0.285056 175 175 175
-0.111290 -0.343623 0.285007 174 174 174
-0.108668 -0.344502 0.284958 174 174 174
-0.106069 -0.345420 0.284914 173 173 173
-0.103474 -0.346348 0.284870 172 172 172
-0.100894 -0.347301 0.284828 171 171 171
-0.098467 -0.348502 0.284813 172 172 172
-0.096033 -0.349691 0.284796 172 172 172
-0.093634 -0.350938 0.284786 173 173 173
-0.091261 -0.352226 0.284780 173 173 173
-0.088990 -0.353677 0.284790 174 174 174
-0.086848 -0.355332 0.284822 174 174 174
-0.084370 -0.356454 0.284799 177 177 177
-0.081557 -0.357047 0.284720 179 179 179
-0.078773 -0.357692 0.284646 180 180 180
-0.075561 -0.357664 0.284501 180 180 180
-0.072167 -0.357359 0.284327 180 180 180
-0.069298 -0.357881 0.284240 179 179 179
-0.066445 -0.358434 0.284156 179 179 179
-0.063591 -0.358987 0.284071 179 179 179
-0.060917 -0.359826 0.284017 179 179 179
-0.059417 -0.362485 0.284155 178 178 178
-0.057935 -0.365168 0.284295 178 178 178
-0.056481 -0.367887 0.284440 178 178 178
-0.054880 -0.370373 0.284560 180 180 180
-0.052944 -0.372341 0.284625 178 178 178
-0.051078 -0.374412 0.284702 178 178 178
-0.049142 -0.376374 0.284767 178 178 178
-0.047115 -0.378193 0.284816 178 178 178
-0.045088 -0.380010 0.284866 178 178 178
-0.042624 -0.381162 0.284845 178 178 178
-0.039868 -0.381871 0.284778 177 177 177
-0.037036 -0.382468 0.284698 181 181 181
-0.034094 -0.382902 0.284601 183 183 183
-0.031048 -0.383185 0.284487 185 185 185
-0.027935 -0.383370 0.284363 185 185 185
-0.024681 -0.383349 0.284217 186 186 186
-0.021310 -0.383159 0.284053 187 187 187
-0.017626 -0.382510 0.283840 187 187 187
-0.013283 -0.380886 0.283522 188 188 188
-0.008969 -0.379319 0.283210 190 190 190
-0.004901 -0.378130 0.282938 191 191 191
0.001273 -0.373836 0.282334 187 187 187
0.006209 -0.371392 0.281928 184 184 184
0.010013 -0.370636 0.281701 183 183 183
0.013856 -0.369831 0.281468 182 182 182
0.017706 -0.369025 0.281236 181 181 181
0.021175 -0.368787 0.281063 178 178 178
0.024625 -0.368582 0.280894 176 176 176
0.027977 -0.368528 0.280742 177 177 177
0.031421 -0.368347 0.280575 177 177 177
0.034866 -0.368170 0.280408 177 177 177
0.038315 -0.367994 0.280242 177 177 177
0.041792 -0.367785 0.280072 178 178 178
0.045648 -0.367036 0.279843 181 181 181
0.049702 -0.366012 0.279584 182 182 182
0.054083 -0.364528 0.279276 184 184 184
0.058443 -0.363087 0.278972 183 183 183
0.062815 -0.361642 0.278667 183 183 183
0.067026 -0.360437 0.278387 183 183 183
0.071213 -0.359279 0.278112 183 183 183
0.075429 -0.358089 0.277834 183 183 183
0.079956 -0.356472 0.277509 185 185 185
0.084335 -0.355075 0.277207 186 186 186
0.088853 -0.353495 0.276885 186 186 186
0.093491 -0.351759 0.276546 186 186 186
0.098628 -0.349334 0.276132 185 185 185
0.102756 -0.348341 0.275872 185 185 185
0.106704 -0.347610 0.275641 185 185 185
0.110404 -0.347233 0.275447 185 185 185
0.114274 -0.346629 0.275229 186 186 186
0.117956 -0.346294 0.275040 186 186 186
0.122717 -0.344469 0.274689 187 187 187
0.128439 -0.341328 0.274193 188 188 188
0.134277 -0.338047 0.273682 189 189 189
0.139866 -0.335129 0.273210 189 189 189
0.145119 -0.332692 0.272790 189 189 189
0.150162 -0.330558 0.272402 188 188 188
0.155373 -0.328210 0.271990 188 188 188
0.160258 -0.326324 0.271628 188 188 188
0.165385 -0.324122 0.271232 188 188 188
0.170716 -0.321657 0.270806 188 188 188
0.176251 -0.318932 0.270351 189 189 189
0.181825 -0.316171 0.269891 189 189 189
0.187329 -0.313524 0.269443 190 190 190
0.192749 -0.311006 0.269009 190 190 190
0.198738 -0.307739 0.268493 192 192 192
0.207432 -0.300858 0.267578 196 196 196
0.226284 -0.280396 0.265169 196 196 196
0.242447 -0.263622 0.263162 194 194 194
0.259819 -0.245312 0.260984 201 201 201
0.285702 -0.215747 0.257564 196 196 196
0.294560 -0.208943 0.256648 192 192 192
0.300905 -0.205509 0.256102 192 192 192
0.308369 -0.200613 0.255395 193 193 193
0.319014 -0.191543 0.254225 196 196 196
0.329675 -0.182496 0.253057 197 197 197
0.345095 -0.167233 0.251200 201 201 201
-0.341240 0.197750 0.250543 149 149 149
-0.344272 0.182525 0.251862 155 155 155
-0.344739 0.173547 0.252581 158 158 158
-0.345208 0.164607 0.253298 155 155 155
-0.347169 0.152140 0.254355 149 149 149
-0.350124 0.137366 0.255636 138 138 138
-0.352732 0.123493 0.256832 138 138 138
-0.353362 0.114378 0.257569 138 138 138
-0.352806 0.108108 0.258031 138 138 138
-0.352764 0.100655 0.258609 138 138 138
-0.352975 0.092639 0.259241 138 138 138
-0.353973 0.082816 0.260050 138 138 138
-0.355501 0.071802 0.260975 138 138 138
-0.357578 0.059558 0.262020 138 138 138
-0.364043 0.037176 0.264050 152 152 152
-0.365279 0.027033 0.264894 153 153 153
-0.364720 0.021084 0.265331 156 156 156
-0.363988 0.015562 0.265728 158 158 158
-0.363036 0.010566 0.266074 158 158 158
-0.362088 0.005583 0.266418 157 157 157
-0.361029 0.000872 0.266737 156 156 156
-0.359966 -0.003813 0.267054 155 155 155
-0.358810 -0.008269 0.267348 155 155 155
-0.357536 -0.012438 0.267615 154 154 154
-0.356266 -0.016604 0.267882 153 153 153
-0.354876 -0.020483 0.268121 151 151 151
-0.353435 -0.024233 0.268348 150 150 150
-0.352013 -0.028015 0.268578 149 149 149
-0.350618 -0.031842 0.268813 146 146 146
-0.349598 -0.036495 0.269129 144 144 144
-0.348455 -0.040855 0.269417 141 141 141
-0.347686 -0.046031 0.269785 140 140 140
-0.347053 -0.051487 0.270180 141 141 141
-0.346901 -0.057982 0.270678 140 140 140
-0.347026 -0.065058 0.271234 142 142 142
-0.347906 -0.073761 0.271950 141 141 141
-0.351721 -0.088851 0.273295 153 153 153
-0.355427 -0.103628 0.274610 152 152 152
-0.355121 -0.109599 0.275060 151 151 151
-0.354433 -0.114715 0.275427 148 148 148
-0.353463 -0.119202 0.275732 146 146 146
-0.352515 -0.123720 0.276041 147 147 147
-0.351587 -0.128265 0.276353 147 147 147
-0.350667 -0.132809 0.276665 149 149 149
-0.349703 -0.137243 0.276966 150 150 150
-0.348589 -0.141339 0.277235 150 150 150
-0.347477 -0.145427 0.277503 150 150 150
-0.346271 -0.149299 0.277750 150 150 150
-0.344941 -0.152894 0.277969 150 150 150
-0.343613 -0.156483 0.278189 150 150 150
-0.342223 -0.159930 0.278394 150 150 150
-0.340812 -0.163321 0.278595 148 148 148
-0.339399 -0.166698 0.278794 146 146 146
-0.337911 -0.169907 0.278976 146 146 146
-0.336383 -0.173024 0.279150 145 145 145
-0.334839 -0.176097 0.279320 145 145 145
-0.333293 -0.179158 0.279488 145 145 145
-0.331701 -0.182115 0.279647 145 145 145
-0.330051 -0.184944 0.279793 145 145 145
-0.328400 -0.187763 0.279938 146 146 146
-0.326711 -0.190497 0.280074 145 145 145
-0.324925 -0.193023 0.280191 145 145 145
-0.323056 -0.195375 0.280290 145 145 145
-0.321235 -0.197820 0.280398 144 144 144
-0.319411 -0.200251 0.280505 145 145 145
-0.317539 -0.202581 0.280602 144 144 144
-0.315647 -0.204866 0.280695 144 144 144
-0.313766 -0.207168 0.280789 145 145 145
-0.311938 -0.209572 0.280894 147 147 147
-0.310112 -0.211974 0.280999 148 148 148
-0.308236 -0.214271 0.281094 149 149 149
-0.306261 -0.216366 0.281168 151 151 151
-0.304287 -0.218459 0.281242 152 152 152
-0.302291 -0.220504 0.281311 153 153 153
-0.300283 -0.222522 0.281378 153 153 153
-0.298329 -0.224643 0.281455 154 154 154
-0.296403 -0.226815 0.281538 155 155 155
-0.294485 -0.228999 0.281621 155 155 155
-0.292479 -0.231006 0.281687 156 156 156
-0.290474 -0.233012 0.281753 156 156 156
-0.288492 -0.235060 0.281823 157 157 157
-0.286516 -0.237116 0.281895 159 159 159
-0.284759 -0.239592 0.282008 158 158 158
-0.283003 -0.242066 0.282122 158 158 158
-0.281205 -0.244454 0.282227 158 158 158
-0.279332 -0.246691 0.282317 159 159 159
-0.277460 -0.248926 0.282406 159 159 159
-0.275589 -0.251159 0.282496 160 160 160
-0.273723 -0.253396 0.282586 161 161 161
-0.271732 -0.255391 0.282652 162 162 162
-0.269703 -0.257308 0.282710 162 162 162
-0.267622 -0.259127 0.282758 163 163 163
-0.265467 -0.260800 0.282791 162 162 162
-0.263398 -0.262637 0.282841 162 162 162
-0.261375 -0.264556 0.282900 162 162 162
-0.259348 -0.266465 0.282957 162 162 162
-0.257273 -0.268282 0.283005 162 162 162
-0.255214 -0.270127 0.283056 162 162 162
-0.253215 -0.272080 0.283118 162 162 162
-0.251160 -0.273926 0.283169 161 161 161
-0.248995 -0.275566 0.283200 161 161 161
-0.246830 -0.277205 0.283230 161 161 161
-0.244724 -0.278950 0.283271 160 160 160
-0.242698 -0.280841 0.283327 160 160 160
-0.240673 -0.282732 0.283383 160 160 160
-0.238627 -0.284582 0.283435 160 160 160
-0.236554 -0.286379 0.283482 160 160 160
-0.234351 -0.287936 0.283504 160 160 160
-0.232148 -0.289494 0.283526 161 161 161
-0.229947 -0.291053 0.283549 161 161 161
-0.227752 -0.292622 0.283572 162 162 162
-0.225466 -0.294026 0.283579 162 162 162
-0.223104 -0.295292 0.283571 163 163 163
-0.220646 -0.296386 0.283546 163 163 163
-0.218203 -0.297508 0.283524 166 166 166
-0.215598 -0.298341 0.283471 167 167 167
-0.212993 -0.299176 0.283419 167 167 167
-0.210387 -0.300011 0.283367 167 167 167
-0.207779 -0.300847 0.283315 167 167 167
-0.205178 -0.301696 0.283265 167 167 167
-0.202551 -0.302502 0.283209 167 167 167
-0.199919 -0.303301 0.283153 167 167 167
-0.197285 -0.304100 0.283097 167 167 167
-0.194650 -0.304899 0.283041 167 167 167
-0.192013 -0.305698 0.282985 167 167 167
-0.189374 -0.306496 0.282928 167 167 167
-0.186733 -0.307294 0.282872 167 167 167
-0.184074 -0.308061 0.282812 167 167 167
-0.181575 -0.309109 0.282781 166 166 166
-0.179114 -0.310226 0.282758 166 166 166
-0.176716 -0.311452 0.282745 166 166 166
-0.174345 -0.312725 0.282738 166 166 166
-0.171974 -0.313997 0.282730 166 166 166
-0.169597 -0.315261 0.282722 165 165 165
-0.167229 -0.316539 0.282715 165 165 165
-0.164908 -0.317899 0.282717 166 166 166
-0.162785 -0.319596 0.282753 166 166 166
-0.160707 -0.321368 0.282798 167 167 167
-0.158637 -0.323151 0.282843 167 167 167
-0.156567 -0.324932 0.282889 167 167 167
-0.154498 -0.326713 0.282935 167 167 167
-0.152399 -0.328442 0.282975 168 168 168
-0.150185 -0.329974 0.282995 168 168 168
-0.147970 -0.331506 0.283014 169 169 169
-0.145756 -0.333037 0.283034 169 169 169
-0.143455 -0.334423 0.283038 170 170 170
-0.141103 -0.335723 0.283034 171 171 171
-0.138750 -0.337023 0.283029 171 171 171
-0.136362 -0.338263 0.283019 172 172 172
-0.133856 -0.339310 0.282987 173 173 173
-0.131338 -0.340339 0.282954 173 173 173
-0.128756 -0.341262 0.282910 174 174 174
-0.126065 -0.342010 0.282848 174 174 174
-0.123363 -0.342742 0.282783 174 174 174
-0.120659 -0.343474 0.282719 174 174 174
-0.117953 -0.344206 0.282654 175 175 175
-0.115271 -0.344979 0.282594 174 174 174
-0.112655 -0.345862 0.282545 173 173 173
-0.109983 -0.346656 0.282487 172 172 172
-0.107310 -0.347451 0.282429 172 172 172
-0.104636 -0.348246 0.282371 171 171 171
-0.101934 -0.349001 0.282308 171 171 171
-0.099631 -0.350398 0.282313 172 172 172
-0.097268 -0.351697 0.282308 172 172 172
-0.094885 -0.352965 0.282300 172 172 172
-0.092741 -0.354614 0.282332 173 173 173
-0.090600 -0.356268 0.282364 174 174 174
-0.088460 -0.357921 0.282397 174 174 174
-0.086321 -0.359574 0.282429 175 175 175
-0.083713 -0.360485 0.282383 178 178 178
-0.080833 -0.360971 0.282291 181 181 181
-0.077458 -0.360682 0.282118 181 181 181
-0.073891 -0.360099 0.281912 180 180 180
-0.070907 -0.360437 0.281805 180 180 180
-0.069040 -0.362522 0.281883 180 180 180
-0.067350 -0.364881 0.281990 182 182 182
-0.065661 -0.367237 0.282098 182 182 182
-0.063997 -0.369628 0.282209 182 182 182
-0.062294 -0.371952 0.282313 181 181 181
-0.060280 -0.373794 0.282366 178 178 178
-0.058378 -0.375804 0.282437 177 177 177
-0.056605 -0.378010 0.282529 175 175 175
-0.054834 -0.380215 0.282621 175 175 175
-0.052635 -0.381762 0.282642 172 172 172
-0.049884 -0.382466 0.282574 176 176 176
-0.047130 -0.383167 0.282504 176 176 176
-0.044379 -0.383876 0.282436 175 175 175
-0.041626 -0.384584 0.282367 175 175 175
-0.038771 -0.385142 0.282283 177 177 177
-0.035856 -0.385612 0.282188 180 180 180
-0.032839 -0.385932 0.282078 181 181 181
-0.029818 -0.386252 0.281967 182 182 182
-0.026692 -0.386416 0.281840 184 184 184
-0.023335 -0.386242 0.281675 185 185 185
-0.019964 -0.386054 0.281509 185 185 185
-0.016589 -0.385866 0.281343 187 187 187
-0.012909 -0.385231 0.281129 187 187 187
-0.009067 -0.384365 0.280889 190 190 190
-0.005217 -0.383497 0.280649 193 193 193
0.002590 -0.376794 0.279777 189 189 189
0.008697 -0.372633 0.279180 184 184 184
0.012517 -0.371858 0.278948 183 183 183
0.016345 -0.371082 0.278716 183 183 183
0.020113 -0.370402 0.278494 179 179 179
0.023543 -0.370223 0.278326 176 176 176
0.026697 -0.370455 0.278202 174 174 174
0.030065 -0.370381 0.278045 175 175 175
0.033641 -0.370011 0.277856 176 176 176
0.037088 -0.369835 0.277688 176 176 176
0.040562 -0.369627 0.277516 176 176 176
0.044380 -0.368931 0.277290 180 180 180
0.048241 -0.368180 0.277058 180 180 180
0.052110 -0.367428 0.276826 181 181 181
0.056500 -0.365939 0.276513 181 181 181
0.060977 -0.364337 0.276188 182 182 182
0.065326 -0.362931 0.275883 182 182 182
0.069381 -0.361956 0.275626 183 183 183
0.073499 -0.360901 0.275359 183 183 183
0.077815 -0.359577 0.275062 184 184 184
0.081849 -0.358663 0.274810 184 184 184
0.086210 -0.357297 0.274508 185 185 185
0.090763 -0.355674 0.274178 185 185 185
0.095345 -0.354021 0.273843 185 185 185
0.099593 -0.352850 0.273562 184 184 184
0.103581 -0.352054 0.273321 184 184 184
0.107578 -0.351256 0.273079 184 184 184
0.111337 -0.350798 0.272875 184 184 184
0.115378 -0.349955 0.272628 185 185 185
0.119300 -0.349288 0.272400 185 185 185
0.125010 -0.346154 0.271900 187 187 187
0.130790 -0.342944 0.271391 188 188 188
0.136891 -0.339311 0.270835 188 188 188
0.142040 -0.337009 0.270425 187 187 187
0.147127 -0.334807 0.270025 187 187 187
0.152215 -0.332619 0.269627 188 188 188
0.157394 -0.330323 0.269216 187 187 187
0.162516 -0.328119 0.268815 187 187 187
0.167792 -0.325722 0.268391 187 187 187
0.173168 -0.323206 0.267955 187 187 187
0.178773 -0.320395 0.267484 187 187 187
0.184541 -0.317383 0.266991 188 188 188
0.189701 -0.315208 0.266591 189 189 189
0.195228 -0.312556 0.266136 190 190 190
0.201400 -0.309054 0.265587 192 192 192
0.212684 -0.298720 0.264277 197 197 197
0.237425 -0.270435 0.260968 193 193 193
0.250298 -0.258117 0.259432 193 193 193
0.265945 -0.242162 0.257490 201 201 201
0.288034 -0.217718 0.254598 196 196 196
0.297155 -0.210583 0.253634 192 192 192
0.304343 -0.206044 0.252958 192 192 192
0.311948 -0.200979 0.252223 194 194 194
0.322534 -0.192013 0.251051 195 195 195
0.333389 -0.182736 0.249842 196 196 196
0.350546 -0.165232 0.247711 202 202 202
-0.341130 0.206140 0.246817 159 159 159
-0.346010 0.186387 0.248591 157 157 157
-0.346942 0.176256 0.249430 157 157 157
-0.347295 0.167568 0.250130 155 155 155
-0.348174 0.157659 0.250949 148 148 148
-0.350392 0.144598 0.252076 171 171 171
-0.352534 0.131780 0.253182 138 138 138
-0.353881 0.120919 0.254097 138 138 138
-0.353956 0.113125 0.254713 138 138 138
-0.353364 0.106943 0.255172 138 138 138
-0.352937 0.100398 0.255667 138 138 138
-0.352996 0.092739 0.256272 138 138 138
-0.354180 0.082480 0.257133 138 138 138
-0.356244 0.070210 0.258191 138 138 138
-0.364450 0.043683 0.260650 142 142 142
-0.367307 0.029730 0.261877 150 150 150
-0.367000 0.023182 0.262378 152 152 152
-0.366455 0.017212 0.262822 155 155 155
-0.365670 0.011819 0.263211 157 157 157
-0.364803 0.006640 0.263579 157 157 157
-0.363765 0.001869 0.263907 157 157 157
-0.362734 -0.002896 0.264235 156 156 156
-0.361599 -0.007406 0.264538 155 155 155
-0.360283 -0.011489 0.264799 155 155 155
-0.358969 -0.015562 0.265060 155 155 155
-0.357603 -0.019502 0.265307 155 155 155
-0.356205 -0.023357 0.265547 154 154 154
-0.354810 -0.027205 0.265786 153 153 153
-0.353385 -0.030972 0.266018 151 151 151
-0.351947 -0.034697 0.266245 148 148 148
-0.350511 -0.038416 0.266473 145 145 145
-0.349716 -0.043546 0.266840 144 144 144
-0.349121 -0.049101 0.267250 145 145 145
-0.348876 -0.055408 0.267735 144 144 144
-0.348743 -0.061936 0.268242 146 146 146
-0.349114 -0.069544 0.268857 148 148 148
-0.350733 -0.079860 0.269742 148 148 148
-0.356781 -0.099822 0.271586 152 152 152
-0.357436 -0.107910 0.272252 152 152 152
-0.356768 -0.113082 0.272628 150 150 150
-0.355776 -0.117532 0.272933 149 149 149
-0.354826 -0.122055 0.273245 148 148 148
-0.353890 -0.126592 0.273560 149 149 149
-0.352962 -0.131130 0.273874 150 150 150
-0.352029 -0.135641 0.274187 153 153 153
-0.350985 -0.139895 0.274474 153 153 153
-0.349936 -0.144126 0.274759 153 153 153
-0.348762 -0.148073 0.275016 153 153 153
-0.347406 -0.151621 0.275233 153 153 153
-0.346025 -0.155105 0.275445 152 152 152
-0.344638 -0.158564 0.275654 152 152 152
-0.343149 -0.161798 0.275840 150 150 150
-0.341612 -0.164920 0.276016 149 149 149
-0.340170 -0.168233 0.276211 147 147 147
-0.338652 -0.171378 0.276390 147 147 147
-0.337123 -0.174489 0.276565 146 146 146
-0.335579 -0.177560 0.276736 146 146 146
-0.334024 -0.180599 0.276904 146 146 146
-0.332396 -0.183478 0.277057 145 145 145
-0.330754 -0.186322 0.277206 144 144 144
-0.329105 -0.189141 0.277353 145 145 145
-0.327360 -0.191758 0.277479 144 144 144
-0.325490 -0.194110 0.277579 144 144 144
-0.323621 -0.196461 0.277679 144 144 144
-0.321756 -0.198812 0.277780 144 144 144
-0.319943 -0.201268 0.277890 143 143 143
-0.318048 -0.203549 0.277984 142 142 142
-0.316156 -0.205832 0.278077 143 143 143
-0.314268 -0.208119 0.278172 144 144 144
-0.312441 -0.210522 0.278278 146 146 146
-0.310590 -0.212874 0.278378 147 147 147
-0.308713 -0.215165 0.278473 148 148 148
-0.306850 -0.217484 0.278571 149 149 149
-0.304904 -0.219629 0.278651 150 150 150
-0.302911 -0.221678 0.278722 150 150 150
-0.300951 -0.223789 0.278799 152 152 152
-0.299016 -0.225946 0.278881 153 153 153
-0.297097 -0.228130 0.278965 154 154 154
-0.295212 -0.230377 0.279057 154 154 154
-0.293330 -0.232624 0.279148 154 154 154
-0.291363 -0.234703 0.279222 155 155 155
-0.289383 -0.236751 0.279293 156 156 156
-0.287419 -0.238826 0.279367 157 157 157
-0.285662 -0.241301 0.279482 157 157 157
-0.283864 -0.243691 0.279588 157 157 157
-0.282021 -0.245986 0.279685 157 157 157
-0.280234 -0.248386 0.279793 157 157 157
-0.278383 -0.250658 0.279887 158 158 158
-0.276532 -0.252925 0.279982 158 158 158
-0.274600 -0.255034 0.280060 159 159 159
-0.272584 -0.256977 0.280121 159 159 159
-0.270569 -0.258919 0.280182 160 160 160
-0.268554 -0.260860 0.280243 160 160 160
-0.266533 -0.262785 0.280303 161 161 161
-0.264457 -0.264603 0.280352 161 161 161
-0.262382 -0.266420 0.280400 161 161 161
-0.260307 -0.268236 0.280449 161 161 161
-0.258233 -0.270052 0.280498 161 161 161
-0.256160 -0.271866 0.280546 161 161 161
-0.254151 -0.273798 0.280607 160 160 160
-0.252055 -0.275564 0.280651 160 160 160
-0.249895 -0.277211 0.280682 160 160 160
-0.247732 -0.278849 0.280713 160 160 160
-0.245632 -0.280603 0.280755 160 160 160
-0.243607 -0.282493 0.280812 159 159 159
-0.241540 -0.284304 0.280861 159 159 159
-0.239450 -0.286069 0.280904 158 158 158
-0.237314 -0.287749 0.280940 158 158 158
-0.235128 -0.289336 0.280965 159 159 159
-0.232933 -0.290904 0.280989 160 160 160
-0.230738 -0.292472 0.281012 160 160 160
-0.228424 -0.293823 0.281013 161 161 161
-0.226072 -0.295105 0.281008 161 161 161
-0.223725 -0.296396 0.281003 162 162 162
-0.221418 -0.297759 0.281005 162 162 162
-0.218987 -0.298901 0.280984 164 164 164
-0.216455 -0.299863 0.280945 166 166 166
-0.213852 -0.300698 0.280893 166 166 166
-0.211252 -0.301542 0.280841 166 166 166
-0.208682 -0.302441 0.280795 167 167 167
-0.206061 -0.303253 0.280740 167 167 167
-0.203375 -0.303952 0.280673 167 167 167
-0.200751 -0.304762 0.280617 167 167 167
-0.198118 -0.305560 0.280561 167 167 167
-0.195484 -0.306359 0.280504 167 167 167
-0.192849 -0.307159 0.280447 167 167 167
-0.190211 -0.307956 0.280390 167 167 167
-0.187572 -0.308754 0.280333 167 167 167
-0.184989 -0.309652 0.280286 167 167 167
-0.182460 -0.310646 0.280250 166 166 166
-0.180001 -0.311762 0.280226 166 166 166
-0.177598 -0.312976 0.280212 166 166 166
-0.175228 -0.314248 0.280205 166 166 166
-0.172858 -0.315520 0.280197 166 166 166
-0.170503 -0.316818 0.280192 165 165 165
-0.168215 -0.318232 0.280199 165 165 165
-0.166026 -0.319814 0.280225 165 165 165
-0.163896 -0.321496 0.280260 166 166 166
-0.161803 -0.323237 0.280302 166 166 166
-0.159733 -0.325018 0.280348 166 166 166
-0.157677 -0.326818 0.280396 167 167 167
-0.155672 -0.328705 0.280454 167 167 167
-0.153583 -0.330446 0.280496 167 167 167
-0.151377 -0.331988 0.280517 168 168 168
-0.149167 -0.333524 0.280537 168 168 168
-0.146956 -0.335057 0.280557 169 169 169
-0.144712 -0.336535 0.280572 169 169 169
-0.142363 -0.337835 0.280567 170 170 170
-0.140007 -0.339126 0.280562 171 171 171
-0.137594 -0.340321 0.280546 171 171 171
-0.135180 -0.341517 0.280531 172 172 172
-0.132731 -0.342653 0.280509 173 173 173
-0.130217 -0.343685 0.280476 173 173 173
-0.127537 -0.344447 0.280414 174 174 174
-0.124838 -0.345178 0.280349 174 174 174
-0.122122 -0.345885 0.280281 174 174 174
-0.119399 -0.346586 0.280213 173 173 173
-0.116601 -0.347166 0.280131 173 173 173
-0.113808 -0.347757 0.280051 173 173 173
-0.111139 -0.348552 0.279992 172 172 172
-0.108468 -0.349347 0.279934 172 172 172
-0.105786 -0.350126 0.279873 171 171 171
-0.103026 -0.350784 0.279800 171 171 171
-0.100672 -0.352095 0.279796 172 172 172
-0.098511 -0.353716 0.279825 172 172 172
-0.096488 -0.355555 0.279878 172 172 172
-0.094349 -0.357208 0.279911 172 172 172
-0.092211 -0.358860 0.279944 173 173 173
-0.090072 -0.360511 0.279976 173 173 173
-0.087935 -0.362161 0.280009 174 174 174
-0.086198 -0.364444 0.280110 175 175 175
-0.084380 -0.366593 0.280196 177 177 177
-0.082048 -0.367932 0.280196 181 181 181
-0.079614 -0.369110 0.280178 181 181 181
-0.077177 -0.370285 0.280160 181 181 181
-0.074740 -0.371460 0.280141 180 180 180
-0.072115 -0.372343 0.280092 180 180 180
-0.069784 -0.373685 0.280091 179 179 179
-0.067767 -0.375515 0.280144 179 179 179
-0.065745 -0.377333 0.280195 178 178 178
-0.063731 -0.379162 0.280247 177 177 177
-0.061905 -0.381279 0.280331 175 175 175
-0.059398 -0.382345 0.280301 174 174 174
-0.056691 -0.383107 0.280238 172 172 172
-0.053983 -0.383869 0.280175 170 170 170
-0.051394 -0.384817 0.280132 170 170 170
-0.048870 -0.385864 0.280099 171 171 171
-0.046130 -0.386584 0.280032 173 173 173
-0.043377 -0.387288 0.279962 172 172 172
-0.040523 -0.387840 0.279876 174 174 174
-0.037615 -0.388317 0.279781 176 176 176
-0.034602 -0.388638 0.279670 177 177 177
-0.031503 -0.388834 0.279545 178 178 178
-0.028381 -0.389001 0.279416 178 178 178
-0.025118 -0.388962 0.279265 178 178 178
-0.021648 -0.388621 0.279080 180 180 180
-0.018173 -0.388279 0.278896 182 182 182
-0.014692 -0.387937 0.278711 183 183 183
-0.011232 -0.387632 0.278530 185 185 185
-0.007474 -0.386894 0.278301 187 187 187
-0.003709 -0.386154 0.278072 189 189 189
0.002231 -0.382219 0.277493 190 190 190
0.011242 -0.373792 0.276421 184 184 184
0.015065 -0.373018 0.276187 183 183 183
0.019067 -0.371992 0.275924 179 179 179
0.022507 -0.371798 0.275753 177 177 177
0.025678 -0.372002 0.275625 175 175 175
0.028842 -0.372222 0.275499 174 174 174
0.032307 -0.372010 0.275325 174 174 174
0.035862 -0.371674 0.275137 175 175 175
0.039334 -0.371466 0.274963 175 175 175
0.043113 -0.370822 0.274741 179 179 179
0.046971 -0.370074 0.274507 179 179 179
0.050818 -0.369350 0.274275 180 180 180
0.054873 -0.368336 0.274011 180 180 180
0.059164 -0.366997 0.273711 181 181 181
0.063627 -0.365424 0.273385 181 181 181
0.067696 -0.364425 0.273122 182 182 182
0.071755 -0.363449 0.272861 182 182 182
0.075991 -0.362233 0.272573 183 183 183
0.079980 -0.361379 0.272325 183 183 183
0.083957 -0.360549 0.272079 183 183 183
0.088330 -0.359172 0.271772 183 183 183
0.092938 -0.357477 0.271429 183 183 183
0.097420 -0.355973 0.271108 184 184 184
0.101418 -0.355157 0.270862 184 184 184
0.105392 -0.354384 0.270621 183 183 183
0.109190 -0.353866 0.270408 183 183 183
0.113056 -0.353261 0.270185 184 184 184
0.117067 -0.352463 0.269940 184 184 184
0.121762 -0.350729 0.269590 185 185 185
0.127371 -0.347748 0.269101 186 186 186
0.133373 -0.344240 0.268553 187 187 187
0.139282 -0.340884 0.268021 187 187 187
0.144531 -0.338453 0.267591 186 186 186
0.149686 -0.336167 0.267178 186 186 186
0.154751 -0.334019 0.266779 186 186 186
0.160092 -0.331510 0.266339 186 186 186
0.165189 -0.329351 0.265938 185 185 185
0.170336 -0.327138 0.265530 184 184 184
0.175801 -0.324510 0.265075 185 185 185
0.181360 -0.321772 0.264608 186 186 186
0.187200 -0.318673 0.264099 187 187 187
0.192534 -0.316273 0.263668 189 189 189
0.198393 -0.313185 0.263159 191 191 191
0.206393 -0.307247 0.262329 194 194 194
0.232237 -0.277470 0.258814 191 191 191
0.246406 -0.263410 0.257066 192 192 192
0.256318 -0.255084 0.255961 194 194 194
0.272035 -0.239084 0.253989 200 200 200
0.290606 -0.219371 0.251596 197 197 197
0.299992 -0.211905 0.250583 193 193 193
0.307786 -0.206579 0.249810 193 193 193
0.315514 -0.201370 0.249050 195 195 195
0.326691 -0.191651 0.247778 196 196 196
0.338758 -0.180812 0.246378 196 196 196
-0.342363 0.211306 0.243393 168 168 168
-0.347296 0.191361 0.245205 157 157 157
-0.348811 0.179784 0.246195 156 156 156
-0.349361 0.170592 0.246952 154 154 154
-0.349642 0.162092 0.247640 150 150 150
-0.351349 0.150211 0.248664 139 139 139
-0.352931 0.138690 0.249652 138 138 138
-0.354267 0.127809 0.250579 138 138 138
-0.354855 0.118761 0.251325 138 138 138
-0.354455 0.112097 0.251837 138 138 138
-0.353774 0.106127 0.252281 138 138 138
-0.353444 0.099357 0.252804 138 138 138
-0.353148 0.092533 0.253333 138 138 138
-0.354576 0.081698 0.254260 138 138 138
-0.356986 0.068621 0.255411 138 138 138
-0.368239 0.034993 0.258601 143 143 143
-0.369221 0.025422 0.259408 149 149 149
-0.368787 0.019179 0.259884 152 152 152
-0.368060 0.013639 0.260291 153 153 153
-0.367258 0.008295 0.260679 156 156 156
-0.366431 0.003031 0.261060 157 157 157
-0.365509 -0.001997 0.261418 157 157 157
-0.364387 -0.006544 0.261728 156 156 156
-0.363089 -0.010674 0.261996 156 156 156
-0.361854 -0.014935 0.262279 156 156 156
-0.360483 -0.018869 0.262529 157 157 157
-0.359024 -0.022592 0.262758 158 158 158
-0.357607 -0.026395 0.262995 158 158 158
-0.356181 -0.030168 0.263230 155 155 155
-0.354836 -0.034106 0.263481 152 152 152
-0.353562 -0.038191 0.263747 149 149 149
-0.352404 -0.042521 0.264038 147 147 147
-0.351280 -0.046912 0.264336 147 147 147
-0.350772 -0.052651 0.264769 148 148 148
-0.350714 -0.059363 0.265300 148 148 148
-0.350977 -0.066755 0.265900 150 150 150
-0.351706 -0.075141 0.266600 152 152 152
-0.355718 -0.090694 0.268021 156 156 156
-0.359210 -0.105033 0.269322 152 152 152
-0.359144 -0.111535 0.269836 152 152 152
-0.358174 -0.116042 0.270150 150 150 150
-0.357181 -0.120482 0.270457 150 150 150
-0.356205 -0.124944 0.270767 150 150 150
-0.355248 -0.129429 0.271080 152 152 152
-0.354313 -0.133945 0.271396 154 154 154
-0.353290 -0.138255 0.271692 155 155 155
-0.352249 -0.142511 0.271983 155 155 155
-0.351270 -0.146885 0.272286 155 155 155
-0.349818 -0.150234 0.272485 155 155 155
-0.348416 -0.153679 0.272695 154 154 154
-0.347035 -0.157159 0.272908 154 154 154
-0.345576 -0.160463 0.273104 152 152 152
-0.344083 -0.163682 0.273291 151 151 151
-0.342545 -0.166800 0.273469 149 149 149
-0.340975 -0.169840 0.273638 148 148 148
-0.339392 -0.172844 0.273805 147 147 147
-0.337863 -0.175952 0.273982 146 146 146
-0.336319 -0.179022 0.274155 146 146 146
-0.334710 -0.181946 0.274313 146 146 146
-0.333083 -0.184824 0.274468 145 145 145
-0.331445 -0.187673 0.274619 144 144 144
-0.329796 -0.190491 0.274767 144 144 144
-0.327925 -0.192846 0.274869 144 144 144
-0.326055 -0.195198 0.274970 143 143 143
-0.324187 -0.197547 0.275071 143 143 143
-0.322320 -0.199895 0.275172 143 143 143
-0.320431 -0.202191 0.275268 143 143 143
-0.318548 -0.204497 0.275365 142 142 142
-0.316666 -0.206798 0.275461 142 142 142
-0.314776 -0.209079 0.275556 143 143 143
-0.312937 -0.211458 0.275661 144 144 144
-0.311050 -0.213735 0.275755 146 146 146
-0.309170 -0.216020 0.275850 147 147 147
-0.307308 -0.218338 0.275949 147 147 147
-0.305447 -0.220653 0.276048 148 148 148
-0.303573 -0.222938 0.276144 149 149 149
-0.301637 -0.225094 0.276226 150 150 150
