ply
format ascii 1.0
element vertex 1151
property float x
property float y
property float z
property uchar red
property uchar green
property uchar blue
end_header
0.180394 -0.370192 -0.050025 138 138 138
0.183189 -0.369312 -0.050216 138 138 138
0.185986 -0.368431 -0.050408 138 138 138
0.188785 -0.367550 -0.050600 138 138 138
0.191586 -0.366665 -0.050792 138 138 138
0.194388 -0.365792 -0.050982 138 138 138
0.197192 -0.364918 -0.051172 138 138 138
0.200033 -0.363582 -0.051463 138 138 138
0.202843 -0.362676 -0.051660 138 138 138
0.205652 -0.361817 -0.051847 138 138 138
0.208464 -0.360940 -0.052038 138 138 138
0.211278 -0.360062 -0.052229 142 142 142
0.214053 -0.359676 -0.052313 144 144 144
0.216827 -0.359319 -0.052391 146 146 146
0.219614 -0.358817 -0.052500 149 149 149
0.222408 -0.358241 -0.052625 151 151 151
0.225229 -0.357362 -0.052817 154 154 154
0.228071 -0.356266 -0.053055 156 156 156
0.230938 -0.354913 -0.053350 158 158 158
0.233842 -0.353172 -0.053728 160 160 160
0.236781 -0.351094 -0.054180 162 162 162
0.239738 -0.348854 -0.054668 165 165 165
0.242708 -0.346530 -0.055174 168 168 168
0.245851 -0.342395 -0.056073 172 172 172
0.249275 -0.335373 -0.057601 175 175 175
0.253231 -0.322917 -0.060312 177 177 177
0.256783 -0.314921 -0.062051 178 178 178
0.260018 -0.310366 -0.063043 177 177 177
0.263274 -0.305692 -0.064059 174 174 174
0.266494 -0.301476 -0.064977 171 171 171
0.269643 -0.298052 -0.065722 171 171 171
0.272759 -0.295022 -0.066381 169 169 169
0.275857 -0.292242 -0.066986 167 167 167
0.278958 -0.289475 -0.067588 165 165 165
0.282041 -0.286941 -0.068140 162 162 162
0.285041 -0.285244 -0.068509 161 161 161
0.288043 -0.283562 -0.068875 160 160 160
0.291138 -0.281048 -0.069422 156 156 156
0.294279 -0.278155 -0.070051 153 153 153
0.297321 -0.276228 -0.070471 150 150 150
0.300388 -0.274103 -0.070933 146 146 146
0.303688 -0.269948 -0.071837 139 139 139
0.307266 -0.263396 -0.073263 138 138 138
0.311371 -0.252357 -0.075665 138 138 138
0.315076 -0.244986 -0.077269 138 138 138
0.318401 -0.241021 -0.078131 138 138 138
0.321695 -0.237389 -0.078922 138 138 138
0.325010 -0.233647 -0.079736 138 138 138
0.328368 -0.229611 -0.080614 138 138 138
0.331640 -0.226352 -0.081323 141 141 141
0.334897 -0.223286 -0.081990 143 143 143
0.338193 -0.219941 -0.082718 145 145 145
0.341588 -0.215857 -0.083607 147 147 147
0.345054 -0.211270 -0.084605 150 150 150
0.349003 -0.202913 -0.086423 149 149 149
0.353544 -0.190021 -0.089229 154 154 154
0.366737 -0.109573 -0.106734 165 165 165
-0.374024 -0.123464 -0.106770 138 138 138
-0.370530 -0.127330 -0.105924 138 138 138
-0.367221 -0.129830 -0.105378 138 138 138
-0.363935 -0.132182 -0.104864 138 138 138
-0.360778 -0.133553 -0.104564 138 138 138
-0.357533 -0.135647 -0.104106 138 138 138
-0.354276 -0.137883 -0.103617 138 138 138
-0.351023 -0.140117 -0.103129 138 138 138
-0.347744 -0.142598 -0.102586 138 138 138
-0.344271 -0.146721 -0.101685 138 138 138
-0.340143 -0.156364 -0.099576 138 138 138
-0.334615 -0.177906 -0.094865 138 138 138
-0.329988 -0.192211 -0.091738 138 138 138
-0.326346 -0.198368 -0.090391 138 138 138
-0.322913 -0.202832 -0.089415 138 138 138
-0.319452 -0.207631 -0.088366 138 138 138
-0.315997 -0.212459 -0.087310 138 138 138
-0.312408 -0.218563 -0.085975 138 138 138
-0.308982 -0.223325 -0.084934 138 138 138
-0.305566 -0.228087 -0.083893 138 138 138
-0.302150 -0.232936 -0.082832 138 138 138
-0.298665 -0.238516 -0.081612 138 138 138
-0.295225 -0.243787 -0.080460 138 138 138
-0.291745 -0.249538 -0.079202 138 138 138
-0.288275 -0.255312 -0.077940 138 138 138
-0.284929 -0.260008 -0.076913 138 138 138
-0.281618 -0.264461 -0.075939 138 138 138
-0.278419 -0.267922 -0.075182 138 138 138
-0.275163 -0.272012 -0.074288 138 138 138
-0.271910 -0.276156 -0.073382 138 138 138
-0.268738 -0.279567 -0.072636 138 138 138
-0.265458 -0.284157 -0.071632 138 138 138
-0.262098 -0.289664 -0.070428 138 138 138
-0.258439 -0.298394 -0.068519 138 138 138
-0.254785 -0.307263 -0.066580 138 138 138
-0.251346 -0.314048 -0.065096 138 138 138
-0.247990 -0.320094 -0.063774 138 138 138
-0.244534 -0.327366 -0.062184 138 138 138
-0.240997 -0.335693 -0.060363 138 138 138
-0.237760 -0.340889 -0.059227 138 138 138
-0.234656 -0.344696 -0.058395 138 138 138
-0.231627 -0.347753 -0.057726 138 138 138
-0.228632 -0.350491 -0.057127 138 138 138
-0.225541 -0.354404 -0.056272 138 138 138
-0.222481 -0.358058 -0.055473 138 138 138
-0.219313 -0.363097 -0.054371 138 138 138
-0.215962 -0.370462 -0.052761 138 138 138
-0.212476 -0.379680 -0.050745 138 138 138
-0.209254 -0.385866 -0.049392 138 138 138
-0.206235 -0.389654 -0.048564 138 138 138
-0.203264 -0.392927 -0.047848 138 138 138
-0.200354 -0.395511 -0.047283 138 138 138
-0.197488 -0.397586 -0.046830 138 138 138
-0.194630 -0.399618 -0.046385 138 138 138
-0.191784 -0.401545 -0.045964 138 138 138
-0.188986 -0.402867 -0.045675 138 138 138
-0.186233 -0.403606 -0.045513 138 138 138
-0.183466 -0.404557 -0.045305 138 138 138
-0.180714 -0.405327 -0.045137 138 138 138
-0.177960 -0.406160 -0.044955 138 138 138
-0.175204 -0.407032 -0.044764 138 138 138
-0.172453 -0.407860 -0.044583 138 138 138
-0.169707 -0.408650 -0.044410 138 138 138
-0.166969 -0.409337 -0.044260 138 138 138
-0.164216 -0.410268 -0.044057 138 138 138
-0.161463 -0.411247 -0.043842 138 138 138
-0.158714 -0.412182 -0.043638 138 138 138
-0.155949 -0.413427 -0.043366 138 138 138
-0.153178 -0.414798 -0.043066 138 138 138
-0.150421 -0.415994 -0.042804 138 138 138
-0.147666 -0.417188 -0.042543 138 138 138
-0.144915 -0.418370 -0.042285 138 138 138
-0.142166 -0.419547 -0.042027 138 138 138
-0.139439 -0.420369 -0.041848 138 138 138
-0.136739 -0.420716 -0.041772 138 138 138
-0.134055 -0.420786 -0.041757 138 138 138
-0.131375 -0.420769 -0.041760 138 138 138
-0.128698 -0.420677 -0.041780 138 138 138
-0.126015 -0.420725 -0.041770 138 138 138
-0.123315 -0.421124 -0.041683 138 138 138
-0.120615 -0.421522 -0.041596 138 138 138
-0.117914 -0.421976 -0.041496 138 138 138
-0.115212 -0.422475 -0.041387 138 138 138
-0.112510 -0.422998 -0.041273 138 138 138
-0.109813 -0.423439 -0.041176 138 138 138
-0.107128 -0.423594 -0.041143 138 138 138
-0.104446 -0.423688 -0.041122 138 138 138
-0.101773 -0.423585 -0.041145 138 138 138
-0.099105 -0.423316 -0.041203 138 138 138
-0.096440 -0.422960 -0.041281 138 138 138
-0.093767 -0.422807 -0.041315 138 138 138
-0.091091 -0.422738 -0.041330 138 138 138
-0.088414 -0.422669 -0.041345 138 138 138
-0.085731 -0.422799 -0.041316 138 138 138
-0.083048 -0.422943 -0.041285 138 138 138
-0.080364 -0.423087 -0.041253 138 138 138
-0.077683 -0.423188 -0.041231 138 138 138
-0.075002 -0.423281 -0.041211 138 138 138
-0.072318 -0.423454 -0.041173 138 138 138
-0.069631 -0.423797 -0.041098 138 138 138
-0.066944 -0.424142 -0.041023 138 138 138
-0.064254 -0.424637 -0.040914 138 138 138
-0.061567 -0.425071 -0.040820 138 138 138
-0.058873 -0.425855 -0.040648 138 138 138
-0.056180 -0.426639 -0.040477 138 138 138
-0.053486 -0.427557 -0.040276 138 138 138
-0.050794 -0.428476 -0.040075 138 138 138
-0.048104 -0.429362 -0.039881 138 138 138
-0.045416 -0.430263 -0.039684 138 138 138
-0.042728 -0.431277 -0.039463 138 138 138
-0.040039 -0.432474 -0.039201 138 138 138
-0.037353 -0.433671 -0.038939 138 138 138
-0.034670 -0.434867 -0.038678 138 138 138
-0.031987 -0.436170 -0.038393 138 138 138
-0.029308 -0.437422 -0.038119 138 138 138
-0.026631 -0.438649 -0.037851 138 138 138
-0.023958 -0.439875 -0.037583 138 138 138
-0.021288 -0.440927 -0.037352 138 138 138
-0.018621 -0.441963 -0.037126 138 138 138
-0.015957 -0.442706 -0.036963 138 138 138
-0.013298 -0.443020 -0.036895 138 138 138
-0.010639 -0.443325 -0.036828 138 138 138
-0.007981 -0.443568 -0.036775 138 138 138
-0.005323 -0.443810 -0.036722 138 138 138
-0.002666 -0.444053 -0.036669 138 138 138
-0.000009 -0.443877 -0.036707 138 138 138
0.002648 -0.443708 -0.036744 138 138 138
0.005305 -0.443574 -0.036774 138 138 138
0.007962 -0.443596 -0.036769 138 138 138
0.010620 -0.443327 -0.036828 138 138 138
0.013285 -0.441797 -0.037162 138 138 138
0.015953 -0.440331 -0.037483 138 138 138
0.018624 -0.438935 -0.037788 138 138 138
0.021307 -0.436451 -0.038331 138 138 138
0.024004 -0.432912 -0.039105 138 138 138
0.026709 -0.429442 -0.039864 138 138 138
0.029407 -0.427165 -0.040362 138 138 138
0.032105 -0.425260 -0.040778 138 138 138
0.034807 -0.423353 -0.041195 138 138 138
0.037510 -0.421704 -0.041556 138 138 138
0.040200 -0.421034 -0.041702 138 138 138
0.042892 -0.420364 -0.041849 138 138 138
0.045578 -0.420104 -0.041906 138 138 138
0.048264 -0.419859 -0.041959 138 138 138
0.050956 -0.419374 -0.042065 138 138 138
0.053651 -0.418775 -0.042196 138 138 138
0.056345 -0.418246 -0.042312 138 138 138
0.059040 -0.417750 -0.042420 138 138 138
0.061733 -0.417391 -0.042499 138 138 138
0.064421 -0.417239 -0.042532 138 138 138
0.067110 -0.417089 -0.042565 138 138 138
0.069792 -0.417176 -0.042546 138 138 138
0.072474 -0.417263 -0.042527 138 138 138
0.075145 -0.417754 -0.042420 138 138 138
0.077810 -0.418386 -0.042281 138 138 138
0.080492 -0.418423 -0.042273 138 138 138
0.083184 -0.418137 -0.042336 138 138 138
0.085878 -0.417851 -0.042398 138 138 138
0.088602 -0.416693 -0.042651 138 138 138
0.091334 -0.415382 -0.042938 138 138 138
0.094069 -0.414060 -0.043227 138 138 138
0.096818 -0.412414 -0.043587 138 138 138
0.099638 -0.409069 -0.044318 138 138 138
0.102460 -0.405824 -0.045028 138 138 138
0.105293 -0.402485 -0.045758 138 138 138
0.108130 -0.399204 -0.046475 138 138 138
0.110967 -0.396087 -0.047157 138 138 138
0.113815 -0.392872 -0.047860 138 138 138
0.116640 -0.390322 -0.048418 138 138 138
0.119420 -0.388875 -0.048734 138 138 138
0.122231 -0.386826 -0.049182 138 138 138
0.125001 -0.385701 -0.049428 138 138 138
0.127781 -0.384439 -0.049704 138 138 138
0.130581 -0.382829 -0.050056 138 138 138
0.133374 -0.381411 -0.050366 138 138 138
0.136147 -0.380435 -0.050580 138 138 138
0.138915 -0.379604 -0.050761 138 138 138
0.141684 -0.378772 -0.050943 138 138 138
0.144437 -0.378265 -0.051054 138 138 138
0.147184 -0.377879 -0.051139 138 138 138
0.149932 -0.377492 -0.051223 138 138 138
0.152681 -0.377104 -0.051308 138 138 138
0.155433 -0.376688 -0.051399 138 138 138
0.158207 -0.375910 -0.051569 138 138 138
0.160983 -0.375131 -0.051739 138 138 138
0.163761 -0.374351 -0.051910 138 138 138
0.166536 -0.373641 -0.052065 138 138 138
0.169336 -0.372561 -0.052301 138 138 138
0.172137 -0.371508 -0.052532 138 138 138
0.174940 -0.370455 -0.052762 138 138 138
0.177743 -0.369437 -0.052984 138 138 138
0.180538 -0.368556 -0.053177 138 138 138
0.183334 -0.367694 -0.053365 138 138 138
0.186130 -0.366861 -0.053548 138 138 138
0.188926 -0.366045 -0.053726 138 138 138
0.191724 -0.365237 -0.053903 138 138 138
0.194525 -0.364393 -0.054087 138 138 138
0.197330 -0.363538 -0.054274 138 138 138
0.200144 -0.362575 -0.054485 138 138 138
0.202952 -0.361715 -0.054673 138 138 138
0.205763 -0.360855 -0.054861 138 138 138
0.208576 -0.359983 -0.055052 138 138 138
0.211371 -0.359357 -0.055189 140 140 140
0.214137 -0.359094 -0.055246 142 142 142
0.216908 -0.358788 -0.055313 144 144 144
0.219685 -0.358420 -0.055393 147 147 147
0.222465 -0.358023 -0.055480 149 149 149
0.225299 -0.356999 -0.055704 152 152 152
0.228142 -0.355903 -0.055944 154 154 154
0.230994 -0.354725 -0.056201 156 156 156
0.233911 -0.352848 -0.056612 159 159 159
0.236851 -0.350762 -0.057068 161 161 161
0.239804 -0.348583 -0.057544 163 163 163
0.242800 -0.345978 -0.058114 167 167 167
0.245926 -0.342038 -0.058976 172 172 172
0.249318 -0.335372 -0.060433 173 173 173
0.253228 -0.323401 -0.063051 177 177 177
0.256764 -0.315581 -0.064761 177 177 177
0.260013 -0.310878 -0.065789 176 176 176
0.263270 -0.306185 -0.066815 172 172 172
0.266500 -0.301871 -0.067758 170 170 170
0.269622 -0.298725 -0.068446 169 169 169
0.272721 -0.295860 -0.069073 168 168 168
0.275817 -0.293093 -0.069678 166 166 166
0.278948 -0.290035 -0.070347 165 165 165
0.282009 -0.287710 -0.070855 164 164 164
0.285076 -0.285376 -0.071365 162 162 162
0.288114 -0.283358 -0.071807 157 157 157
0.291244 -0.280528 -0.072425 155 155 155
0.294387 -0.277634 -0.073058 152 152 152
0.297463 -0.275403 -0.073546 149 149 149
0.300729 -0.271499 -0.074400 143 143 143
0.304137 -0.266400 -0.075515 138 138 138
0.308529 -0.252693 -0.078512 138 138 138
0.312317 -0.244528 -0.080297 138 138 138
0.315561 -0.241242 -0.081016 138 138 138
0.318808 -0.237984 -0.081728 138 138 138
0.322079 -0.234591 -0.082470 138 138 138
0.325402 -0.230809 -0.083297 138 138 138
0.328691 -0.227374 -0.084048 139 139 139
0.331945 -0.224294 -0.084722 141 141 141
0.335201 -0.221255 -0.085386 143 143 143
0.338599 -0.217100 -0.086295 144 144 144
0.341999 -0.213006 -0.087190 147 147 147
0.345762 -0.206064 -0.088708 147 147 147
0.349883 -0.196390 -0.090823 150 150 150
0.355489 -0.175146 -0.095468 162 162 162
0.367463 -0.104380 -0.110942 168 168 168
-0.371168 -0.122907 -0.109952 138 138 138
-0.367553 -0.127737 -0.108890 138 138 138
-0.364267 -0.130072 -0.108377 138 138 138
-0.361038 -0.131990 -0.107956 138 138 138
-0.357809 -0.133945 -0.107526 138 138 138
-0.354467 -0.136839 -0.106890 138 138 138
-0.351212 -0.139074 -0.106399 138 138 138
-0.347919 -0.141657 -0.105832 138 138 138
-0.344534 -0.145051 -0.105086 138 138 138
-0.340926 -0.150349 -0.103922 138 138 138
-0.335599 -0.170142 -0.099573 138 138 138
-0.331449 -0.180335 -0.097333 138 138 138
-0.327244 -0.191187 -0.094948 138 138 138
-0.323596 -0.197437 -0.093575 138 138 138
-0.320096 -0.202516 -0.092459 138 138 138
-0.316640 -0.207303 -0.091407 138 138 138
-0.313086 -0.213040 -0.090147 138 138 138
-0.309489 -0.219276 -0.088776 138 138 138
-0.305970 -0.224922 -0.087536 138 138 138
-0.302536 -0.229905 -0.086441 138 138 138
-0.299070 -0.235272 -0.085262 138 138 138
-0.295673 -0.240111 -0.084198 138 138 138
-0.292289 -0.244912 -0.083143 138 138 138
-0.288765 -0.251140 -0.081775 138 138 138
-0.285325 -0.256694 -0.080554 138 138 138
-0.281965 -0.261586 -0.079479 138 138 138
-0.278746 -0.265204 -0.078685 138 138 138
-0.275565 -0.268515 -0.077957 138 138 138
-0.272365 -0.272087 -0.077172 138 138 138
-0.269149 -0.275905 -0.076333 138 138 138
-0.265962 -0.279499 -0.075543 138 138 138
-0.262749 -0.283441 -0.074677 138 138 138
-0.259402 -0.288857 -0.073487 138 138 138
-0.255846 -0.296590 -0.071788 138 138 138
-0.252049 -0.307049 -0.069490 138 138 138
-0.248619 -0.313802 -0.068006 138 138 138
-0.245147 -0.321171 -0.066387 138 138 138
-0.241388 -0.331858 -0.064038 138 138 138
-0.238023 -0.338422 -0.062596 138 138 138
-0.234886 -0.342573 -0.061684 138 138 138
-0.231785 -0.346411 -0.060841 138 138 138
-0.228785 -0.349184 -0.060231 138 138 138
-0.225731 -0.352648 -0.059470 138 138 138
-0.222644 -0.356595 -0.058603 138 138 138
-0.219523 -0.361032 -0.057628 138 138 138
-0.216224 -0.367753 -0.056151 138 138 138
-0.212738 -0.376920 -0.054137 138 138 138
-0.209461 -0.383736 -0.052639 138 138 138
-0.206405 -0.387960 -0.051711 138 138 138
-0.203437 -0.391178 -0.051004 138 138 138
-0.200529 -0.393701 -0.050449 138 138 138
-0.197685 -0.395453 -0.050064 138 138 138
-0.194845 -0.397203 -0.049680 138 138 138
-0.192000 -0.399076 -0.049268 138 138 138
-0.189162 -0.400901 -0.048867 138 138 138
-0.186395 -0.401808 -0.048668 138 138 138
-0.183616 -0.402894 -0.048429 138 138 138
-0.180857 -0.403732 -0.048245 138 138 138
-0.178105 -0.404495 -0.048077 138 138 138
-0.175355 -0.405258 -0.047910 138 138 138
-0.172602 -0.406082 -0.047729 138 138 138
-0.169860 -0.406770 -0.047578 138 138 138
-0.167119 -0.407458 -0.047426 138 138 138
-0.164371 -0.408290 -0.047244 138 138 138
-0.161616 -0.409248 -0.047033 138 138 138
-0.158864 -0.410205 -0.046823 138 138 138
-0.156109 -0.411223 -0.046599 138 138 138
-0.153342 -0.412493 -0.046320 138 138 138
-0.150582 -0.413690 -0.046057 138 138 138
-0.147824 -0.414887 -0.045794 138 138 138
-0.145069 -0.416082 -0.045531 138 138 138
-0.142317 -0.417262 -0.045272 138 138 138
-0.139613 -0.417613 -0.045195 138 138 138
-0.136910 -0.417961 -0.045119 138 138 138
-0.134213 -0.418205 -0.045065 138 138 138
-0.131526 -0.418255 -0.045054 138 138 138
-0.128833 -0.418429 -0.045016 138 138 138
-0.126118 -0.419064 -0.044876 138 138 138
-0.123412 -0.419547 -0.044770 138 138 138
-0.120710 -0.419965 -0.044678 138 138 138
-0.118008 -0.420385 -0.044586 138 138 138
-0.115303 -0.420892 -0.044475 138 138 138
-0.112596 -0.421488 -0.044344 138 138 138
-0.109893 -0.422013 -0.044228 138 138 138
-0.107198 -0.422365 -0.044151 138 138 138
-0.104504 -0.422718 -0.044073 138 138 138
-0.101823 -0.422744 -0.044068 138 138 138
-0.099158 -0.422387 -0.044146 138 138 138
-0.096492 -0.422030 -0.044224 138 138 138
-0.093821 -0.421781 -0.044279 138 138 138
-0.091143 -0.421712 -0.044294 138 138 138
-0.088458 -0.421838 -0.044267 138 138 138
-0.085768 -0.422120 -0.044205 138 138 138
-0.083087 -0.422160 -0.044196 138 138 138
-0.080404 -0.422268 -0.044172 138 138 138
-0.077720 -0.422387 -0.044146 138 138 138
-0.075038 -0.422497 -0.044122 138 138 138
-0.072348 -0.422840 -0.044047 138 138 138
-0.069660 -0.423182 -0.043971 138 138 138
-0.066972 -0.423525 -0.043896 138 138 138
-0.064285 -0.423877 -0.043819 138 138 138
-0.061591 -0.424510 -0.043680 138 138 138
-0.058896 -0.425295 -0.043507 138 138 138
-0.056202 -0.426079 -0.043335 138 138 138
-0.053508 -0.426954 -0.043143 138 138 138
-0.050814 -0.427874 -0.042940 138 138 138
-0.048123 -0.428796 -0.042738 138 138 138
-0.045434 -0.429721 -0.042534 138 138 138
-0.042742 -0.430872 -0.042282 138 138 138
-0.040053 -0.432025 -0.042028 138 138 138
-0.037367 -0.433177 -0.041775 138 138 138
-0.034683 -0.434328 -0.041522 138 138 138
-0.032001 -0.435502 -0.041264 138 138 138
-0.029321 -0.436704 -0.041000 138 138 138
-0.026644 -0.437932 -0.040730 138 138 138
-0.023969 -0.439127 -0.040468 138 138 138
-0.021298 -0.440165 -0.040239 138 138 138
-0.018629 -0.441211 -0.040010 138 138 138
-0.015966 -0.441769 -0.039887 138 138 138
-0.013304 -0.442301 -0.039770 138 138 138
-0.010644 -0.442544 -0.039717 138 138 138
-0.007984 -0.442787 -0.039664 138 138 138
-0.005326 -0.443029 -0.039610 138 138 138
-0.002668 -0.442989 -0.039619 138 138 138
-0.000009 -0.442809 -0.039659 138 138 138
0.002649 -0.442628 -0.039698 138 138 138
0.005308 -0.442448 -0.039738 138 138 138
0.007968 -0.442183 -0.039796 138 138 138
0.010632 -0.440788 -0.040103 138 138 138
0.013300 -0.439393 -0.040409 138 138 138
0.015971 -0.437995 -0.040716 138 138 138
0.018648 -0.436036 -0.041147 138 138 138
0.021343 -0.432572 -0.041908 138 138 138
0.024045 -0.429019 -0.042689 138 138 138
0.026748 -0.426190 -0.043310 138 138 138
0.029444 -0.424357 -0.043713 138 138 138
0.032143 -0.422686 -0.044080 138 138 138
0.034845 -0.421013 -0.044448 138 138 138
0.037540 -0.420087 -0.044651 138 138 138
0.040233 -0.419416 -0.044799 138 138 138
0.042927 -0.418744 -0.044946 138 138 138
0.045622 -0.418097 -0.045089 138 138 138
0.048320 -0.417345 -0.045254 138 138 138
0.051021 -0.416534 -0.045432 138 138 138
0.053717 -0.416037 -0.045541 138 138 138
0.056415 -0.415540 -0.045650 138 138 138
0.059110 -0.415154 -0.045735 138 138 138
0.061801 -0.415001 -0.045769 138 138 138
0.064492 -0.414848 -0.045802 138 138 138
0.067184 -0.414690 -0.045837 138 138 138
0.069877 -0.414520 -0.045875 138 138 138
0.072556 -0.414817 -0.045809 138 138 138
0.075228 -0.415352 -0.045692 138 138 138
0.077896 -0.415986 -0.045552 138 138 138
0.080573 -0.416292 -0.045485 138 138 138
0.083268 -0.416006 -0.045548 138 138 138
0.085989 -0.414970 -0.045776 138 138 138
0.088718 -0.413758 -0.046042 138 138 138
0.091450 -0.412546 -0.046308 138 138 138
0.094174 -0.411618 -0.046512 138 138 138
0.096985 -0.408425 -0.047214 138 138 138
0.099806 -0.405159 -0.047932 138 138 138
0.102629 -0.402021 -0.048621 138 138 138
0.105450 -0.399086 -0.049266 138 138 138
0.108285 -0.395941 -0.049957 138 138 138
0.111127 -0.392824 -0.050642 138 138 138
0.113951 -0.390229 -0.051212 138 138 138
0.116745 -0.388449 -0.051603 138 138 138
0.119529 -0.386959 -0.051931 138 138 138
0.122309 -0.385605 -0.052228 138 138 138
0.125082 -0.384479 -0.052476 138 138 138
0.127856 -0.383351 -0.052723 138 138 138
0.130658 -0.381740 -0.053077 138 138 138
0.133438 -0.380619 -0.053324 138 138 138
0.136216 -0.379572 -0.053554 138 138 138
0.138985 -0.378740 -0.053736 138 138 138
0.141756 -0.377907 -0.053919 138 138 138
0.144528 -0.377073 -0.054103 138 138 138
0.147291 -0.376434 -0.054243 138 138 138
0.150050 -0.375904 -0.054360 138 138 138
0.152801 -0.375516 -0.054445 138 138 138
0.155572 -0.374799 -0.054603 138 138 138
0.158342 -0.374136 -0.054748 138 138 138
0.161109 -0.373540 -0.054879 138 138 138
0.163877 -0.372944 -0.055010 138 138 138
0.166661 -0.372126 -0.055190 138 138 138
0.169462 -0.371070 -0.055422 138 138 138
0.172271 -0.369917 -0.055675 138 138 138
0.175083 -0.368762 -0.055929 138 138 138
0.177880 -0.367864 -0.056126 138 138 138
0.180675 -0.367030 -0.056309 138 138 138
0.183471 -0.366197 -0.056493 138 138 138
0.186269 -0.365362 -0.056676 138 138 138
0.189064 -0.364592 -0.056845 138 138 138
0.191863 -0.363788 -0.057022 138 138 138
0.194666 -0.362945 -0.057207 138 138 138
0.197472 -0.362100 -0.057393 138 138 138
0.200250 -0.361643 -0.057493 138 138 138
0.203061 -0.360765 -0.057686 138 138 138
0.205874 -0.359892 -0.057878 138 138 138
0.208687 -0.359037 -0.058066 138 138 138
0.211454 -0.358774 -0.058124 139 139 139
0.214222 -0.358512 -0.058181 141 141 141
0.216990 -0.358249 -0.058239 143 143 143
0.219767 -0.357889 -0.058318 145 145 145
0.222563 -0.357317 -0.058444 148 148 148
0.225378 -0.356527 -0.058617 150 150 150
0.228218 -0.355484 -0.058847 153 153 153
0.231059 -0.354440 -0.059076 155 155 155
0.233981 -0.352517 -0.059498 157 157 157
0.236922 -0.350429 -0.059957 159 159 159
0.239870 -0.348312 -0.060423 163 163 163
0.242915 -0.345181 -0.061110 166 166 166
0.246017 -0.341523 -0.061914 172 172 172
0.249458 -0.334342 -0.063492 175 175 175
0.253382 -0.322243 -0.066151 175 175 175
0.256756 -0.316120 -0.067496 175 175 175
0.260032 -0.311137 -0.068591 174 174 174
0.263289 -0.306459 -0.069619 171 171 171
0.266526 -0.302074 -0.070582 168 168 168
0.269612 -0.299285 -0.071195 167 167 167
0.272742 -0.296114 -0.071892 166 166 166
0.275881 -0.292934 -0.072591 165 165 165
0.279020 -0.289806 -0.073278 164 164 164
0.282112 -0.287195 -0.073852 162 162 162
0.285157 -0.285077 -0.074317 161 161 161
0.288227 -0.282769 -0.074824 155 155 155
0.291366 -0.279860 -0.075463 153 153 153
0.294512 -0.276946 -0.076104 150 150 150
0.297795 -0.272844 -0.077005 146 146 146
0.301132 -0.268331 -0.077997 138 138 138
0.305558 -0.254186 -0.081105 138 138 138
0.309533 -0.244280 -0.083282 138 138 138
0.312773 -0.241007 -0.084001 138 138 138
0.315948 -0.238350 -0.084585 138 138 138
0.319169 -0.235353 -0.085243 138 138 138
0.322426 -0.232103 -0.085957 138 138 138
0.325737 -0.228444 -0.086761 138 138 138
0.329003 -0.225233 -0.087467 140 140 140
0.332255 -0.222194 -0.088135 142 142 142
0.335587 -0.218547 -0.088936 143 143 143
0.338997 -0.214330 -0.089863 144 144 144
0.342526 -0.209221 -0.090985 146 146 146
0.346548 -0.200230 -0.092961 148 148 148
0.351048 -0.187594 -0.095737 152 152 152
0.362878 -0.117297 -0.111184 171 171 171
0.368918 -0.093486 -0.116416 122 122 122
-0.368316 -0.122306 -0.113146 138 138 138
-0.364683 -0.127303 -0.112042 138 138 138
-0.361294 -0.130459 -0.111346 138 138 138
-0.358066 -0.132387 -0.110920 138 138 138
-0.354754 -0.135021 -0.110338 138 138 138
-0.351413 -0.137939 -0.109694 138 138 138
-0.348094 -0.140716 -0.109081 138 138 138
-0.344661 -0.144494 -0.108247 138 138 138
-0.341102 -0.149370 -0.107170 138 138 138
-0.336435 -0.163619 -0.104024 138 138 138
-0.332180 -0.174646 -0.101589 138 138 138
-0.328288 -0.182761 -0.099797 138 138 138
-0.324497 -0.190159 -0.098163 138 138 138
-0.320845 -0.196487 -0.096766 138 138 138
-0.317414 -0.200999 -0.095770 138 138 138
-0.313908 -0.206252 -0.094610 138 138 138
-0.310139 -0.213943 -0.092912 138 138 138
-0.306488 -0.220724 -0.091415 138 138 138
-0.302906 -0.227013 -0.090026 138 138 138
-0.299473 -0.232046 -0.088915 138 138 138
-0.296044 -0.237144 -0.087789 138 138 138
-0.292717 -0.241379 -0.086854 138 138 138
-0.289310 -0.246463 -0.085731 138 138 138
-0.285788 -0.252741 -0.084345 138 138 138
-0.282361 -0.258232 -0.083133 138 138 138
-0.279076 -0.262450 -0.082201 138 138 138
-0.275883 -0.265857 -0.081449 138 138 138
-0.272688 -0.269348 -0.080678 138 138 138
-0.269516 -0.272674 -0.079944 138 138 138
-0.266304 -0.276491 -0.079101 138 138 138
-0.263154 -0.279748 -0.078382 138 138 138
-0.260020 -0.282908 -0.077684 138 138 138
-0.256738 -0.287687 -0.076629 138 138 138
-0.253196 -0.295334 -0.074940 138 138 138
-0.249379 -0.306111 -0.072561 138 138 138
-0.245774 -0.314827 -0.070636 138 138 138
-0.242136 -0.324106 -0.068587 138 138 138
-0.238308 -0.335709 -0.066026 138 138 138
-0.235147 -0.340091 -0.065058 138 138 138
-0.232014 -0.344263 -0.064137 138 138 138
-0.228942 -0.347826 -0.063350 138 138 138
-0.225921 -0.350889 -0.062674 138 138 138
-0.222831 -0.354834 -0.061802 138 138 138
-0.219699 -0.359381 -0.060799 138 138 138
-0.216431 -0.365691 -0.059405 138 138 138
-0.213012 -0.374011 -0.057568 138 138 138
-0.209687 -0.381386 -0.055940 138 138 138
-0.206655 -0.385264 -0.055083 138 138 138
-0.203628 -0.389185 -0.054218 138 138 138
-0.200717 -0.391723 -0.053657 138 138 138
-0.197856 -0.393661 -0.053229 138 138 138
-0.195014 -0.395414 -0.052842 138 138 138
-0.192172 -0.397208 -0.052446 138 138 138
-0.189338 -0.398955 -0.052060 138 138 138
-0.186550 -0.400096 -0.051809 138 138 138
-0.183770 -0.401183 -0.051568 138 138 138
-0.181000 -0.402142 -0.051357 138 138 138
-0.178246 -0.402907 -0.051188 138 138 138
-0.175494 -0.403663 -0.051021 138 138 138
-0.172763 -0.404128 -0.050918 138 138 138
-0.170014 -0.404883 -0.050752 138 138 138
-0.167270 -0.405576 -0.050599 138 138 138
-0.164526 -0.406310 -0.050437 138 138 138
-0.161768 -0.407269 -0.050225 138 138 138
-0.159012 -0.408241 -0.050010 138 138 138
-0.156260 -0.409181 -0.049802 138 138 138
-0.153506 -0.410199 -0.049578 138 138 138
-0.150742 -0.411397 -0.049313 138 138 138
-0.147982 -0.412599 -0.049048 138 138 138
-0.145225 -0.413763 -0.048791 138 138 138
-0.142499 -0.414428 -0.048644 138 138 138
-0.139786 -0.414888 -0.048542 138 138 138
-0.137080 -0.415210 -0.048471 138 138 138
-0.134375 -0.415547 -0.048397 138 138 138
-0.131679 -0.415726 -0.048357 138 138 138
-0.128953 -0.416488 -0.048189 138 138 138
-0.126229 -0.417249 -0.048021 138 138 138
-0.123518 -0.417795 -0.047901 138 138 138
-0.120809 -0.418290 -0.047791 138 138 138
-0.118102 -0.418784 -0.047682 138 138 138
-0.115391 -0.419378 -0.047551 138 138 138
-0.112682 -0.419975 -0.047419 138 138 138
-0.109974 -0.420571 -0.047287 138 138 138
-0.107276 -0.420937 -0.047207 138 138 138
-0.104580 -0.421290 -0.047129 138 138 138
-0.101892 -0.421462 -0.047091 138 138 138
-0.099215 -0.421364 -0.047112 138 138 138
-0.096543 -0.421100 -0.047171 138 138 138
-0.093875 -0.420754 -0.047247 138 138 138
-0.091192 -0.420762 -0.047245 138 138 138
-0.088501 -0.421044 -0.047183 138 138 138
-0.085810 -0.421328 -0.047120 138 138 138
-0.083122 -0.421537 -0.047074 138 138 138
-0.080439 -0.421576 -0.047066 138 138 138
-0.077757 -0.421614 -0.047057 138 138 138
-0.075068 -0.421894 -0.046995 138 138 138
-0.072377 -0.422255 -0.046916 138 138 138
-0.069687 -0.422615 -0.046836 138 138 138
-0.066998 -0.422975 -0.046757 138 138 138
-0.064306 -0.423456 -0.046651 138 138 138
-0.061612 -0.424105 -0.046507 138 138 138
-0.058918 -0.424754 -0.046364 138 138 138
-0.056224 -0.425518 -0.046195 138 138 138
-0.053529 -0.426350 -0.046011 138 138 138
-0.050835 -0.427271 -0.045808 138 138 138
-0.048143 -0.428191 -0.045605 138 138 138
-0.045453 -0.429094 -0.045405 138 138 138
-0.042761 -0.430185 -0.045165 138 138 138
-0.040071 -0.431319 -0.044914 138 138 138
-0.037384 -0.432471 -0.044660 138 138 138
-0.034698 -0.433638 -0.044402 138 138 138
-0.032015 -0.434833 -0.044138 138 138 138
-0.029334 -0.436026 -0.043875 138 138 138
-0.026656 -0.437219 -0.043612 138 138 138
-0.023980 -0.438364 -0.043359 138 138 138
-0.021308 -0.439439 -0.043121 138 138 138
-0.018640 -0.440166 -0.042961 138 138 138
-0.015977 -0.440469 -0.042894 138 138 138
-0.013313 -0.440962 -0.042785 138 138 138
-0.010650 -0.441536 -0.042658 138 138 138
-0.007988 -0.442005 -0.042555 138 138 138
-0.005328 -0.442100 -0.042534 138 138 138
-0.002669 -0.441905 -0.042577 138 138 138
-0.000009 -0.441440 -0.042680 138 138 138
0.002651 -0.440974 -0.042782 138 138 138
0.005313 -0.440508 -0.042885 138 138 138
0.007978 -0.439315 -0.043149 138 138 138
0.010646 -0.438045 -0.043429 138 138 138
0.013316 -0.436774 -0.043710 138 138 138
0.015990 -0.435380 -0.044018 138 138 138
0.018682 -0.431917 -0.044782 138 138 138
0.021380 -0.428583 -0.045518 138 138 138
0.024085 -0.425232 -0.046258 138 138 138
0.026779 -0.423633 -0.046611 138 138 138
0.029476 -0.422022 -0.046967 138 138 138
0.032178 -0.420348 -0.047337 138 138 138
0.034877 -0.419138 -0.047604 138 138 138
0.037570 -0.418501 -0.047745 138 138 138
0.040264 -0.417874 -0.047883 138 138 138
0.042959 -0.417247 -0.048021 138 138 138
0.045657 -0.416563 -0.048172 138 138 138
0.048359 -0.415706 -0.048362 138 138 138
0.051063 -0.414848 -0.048551 138 138 138
0.053769 -0.413990 -0.048740 138 138 138
0.056476 -0.413168 -0.048922 138 138 138
0.059177 -0.412717 -0.049022 138 138 138
0.061871 -0.412546 -0.049059 138 138 138
0.064566 -0.412376 -0.049097 138 138 138
0.067261 -0.412205 -0.049135 138 138 138
0.069943 -0.412516 -0.049066 138 138 138
0.072619 -0.413019 -0.048955 138 138 138
0.075300 -0.413354 -0.048881 138 138 138
0.077979 -0.413688 -0.048807 138 138 138
0.080654 -0.414157 -0.048704 138 138 138
0.083372 -0.413243 -0.048905 138 138 138
0.086092 -0.412329 -0.049107 138 138 138
0.088814 -0.411427 -0.049306 138 138 138
0.091538 -0.410525 -0.049506 138 138 138
0.094326 -0.407912 -0.050083 138 138 138
0.097132 -0.404992 -0.050727 138 138 138
0.099945 -0.402013 -0.051385 138 138 138
0.102758 -0.399215 -0.052003 138 138 138
0.105577 -0.396419 -0.052620 138 138 138
0.108416 -0.393267 -0.053316 138 138 138
0.111245 -0.390506 -0.053926 138 138 138
0.114032 -0.388842 -0.054293 138 138 138
0.116820 -0.387234 -0.054648 138 138 138
0.119606 -0.385723 -0.054982 138 138 138
0.122381 -0.384526 -0.055246 138 138 138
0.125160 -0.383303 -0.055516 138 138 138
0.127939 -0.382126 -0.055776 138 138 138
0.130722 -0.380906 -0.056046 138 138 138
0.133501 -0.379827 -0.056284 138 138 138
0.136283 -0.378747 -0.056522 138 138 138
0.139055 -0.377875 -0.056715 138 138 138
0.141829 -0.377003 -0.056907 138 138 138
0.144607 -0.376102 -0.057106 138 138 138
0.147372 -0.375453 -0.057249 138 138 138
0.150138 -0.374814 -0.057391 138 138 138
0.152916 -0.374006 -0.057569 138 138 138
0.155681 -0.373425 -0.057697 138 138 138
0.158449 -0.372830 -0.057829 138 138 138
0.161218 -0.372233 -0.057961 138 138 138
0.163996 -0.371505 -0.058121 138 138 138
0.166787 -0.370607 -0.058320 138 138 138
0.169585 -0.369618 -0.058538 138 138 138
0.172397 -0.368464 -0.058793 138 138 138
0.175212 -0.367284 -0.059053 138 138 138
0.178018 -0.366287 -0.059273 138 138 138
0.180812 -0.365486 -0.059450 138 138 138
0.183608 -0.364684 -0.059627 138 138 138
0.186404 -0.363906 -0.059799 138 138 138
0.189201 -0.363136 -0.059969 138 138 138
0.192002 -0.362336 -0.060146 138 138 138
0.194804 -0.361547 -0.060320 138 138 138
0.197590 -0.360984 -0.060444 138 138 138
0.200367 -0.360564 -0.060537 138 138 138
0.203167 -0.359847 -0.060695 138 138 138
0.205982 -0.358968 -0.060889 138 138 138
0.208769 -0.358451 -0.061004 138 138 138
0.211540 -0.358156 -0.061069 138 138 138
0.214308 -0.357912 -0.061123 139 139 139
0.217076 -0.357666 -0.061177 141 141 141
0.219856 -0.357277 -0.061263 143 143 143
0.222661 -0.356611 -0.061410 146 146 146
0.225467 -0.355945 -0.061557 149 149 149
0.228300 -0.354985 -0.061769 151 151 151
0.231169 -0.353649 -0.062064 153 153 153
0.234093 -0.351716 -0.062491 156 156 156
0.237021 -0.349779 -0.062918 158 158 158
0.239963 -0.347738 -0.063369 160 160 160
0.243063 -0.344032 -0.064187 165 165 165
0.246166 -0.340372 -0.064995 170 170 170
0.249901 -0.330093 -0.067265 172 172 172
0.253484 -0.321629 -0.069134 173 173 173
0.256765 -0.316483 -0.070270 173 173 173
0.260052 -0.311397 -0.071393 172 172 172
0.263304 -0.306765 -0.072416 169 169 169
0.266552 -0.302276 -0.073407 167 167 167
0.269668 -0.299188 -0.074089 166 166 166
0.272817 -0.295844 -0.074827 165 165 165
0.275954 -0.292685 -0.075525 164 164 164
0.279092 -0.289576 -0.076211 162 162 162
0.282214 -0.286680 -0.076851 161 161 161
0.285258 -0.284588 -0.077313 158 158 158
0.288407 -0.281546 -0.077984 153 153 153
0.291549 -0.278634 -0.078627 151 151 151
0.294785 -0.274909 -0.079450 146 146 146
0.298231 -0.269345 -0.080678 141 141 141
0.302543 -0.256088 -0.083606 138 138 138
0.306706 -0.244407 -0.086185 138 138 138
0.309959 -0.240984 -0.086941 138 138 138
0.313124 -0.238406 -0.087510 138 138 138
0.316312 -0.235666 -0.088115 138 138 138
0.319530 -0.232716 -0.088766 138 138 138
0.322774 -0.229609 -0.089452 138 138 138
0.326051 -0.226268 -0.090190 139 139 139
0.329311 -0.223133 -0.090882 141 141 141
0.332576 -0.220005 -0.091573 142 142 142
0.335976 -0.215820 -0.092497 143 143 143
0.339378 -0.211692 -0.093408 144 144 144
0.343213 -0.204134 -0.095077 146 146 146
0.347214 -0.195366 -0.097013 148 148 148
0.352506 -0.176467 -0.101186 153 153 153
0.363763 -0.110801 -0.115685 175 175 175
-0.365496 -0.121430 -0.116403 138 138 138
-0.361693 -0.127806 -0.114988 138 138 138
-0.358312 -0.130920 -0.114297 138 138 138
-0.355046 -0.133166 -0.113799 138 138 138
-0.351701 -0.136096 -0.113149 138 138 138
-0.348246 -0.139970 -0.112289 138 138 138
-0.344762 -0.144149 -0.111362 138 138 138
-0.341224 -0.148847 -0.110320 138 138 138
-0.337343 -0.156503 -0.108621 138 138 138
-0.332917 -0.168896 -0.105871 138 138 138
-0.329223 -0.175277 -0.104456 138 138 138
-0.325531 -0.181751 -0.103019 138 138 138
-0.321800 -0.188679 -0.101482 138 138 138
-0.318162 -0.194920 -0.100097 138 138 138
-0.314660 -0.200079 -0.098953 138 138 138
-0.311135 -0.205539 -0.097741 138 138 138
-0.307164 -0.215115 -0.095616 138 138 138
-0.303433 -0.222687 -0.093936 138 138 138
-0.299851 -0.229046 -0.092525 138 138 138
-0.296444 -0.233906 -0.091447 138 138 138
-0.293084 -0.238417 -0.090446 138 138 138
-0.289802 -0.242281 -0.089589 138 138 138
-0.286363 -0.247716 -0.088383 138 138 138
-0.282808 -0.254388 -0.086903 138 138 138
-0.279399 -0.259773 -0.085708 138 138 138
-0.276189 -0.263305 -0.084924 138 138 138
-0.272976 -0.266944 -0.084117 138 138 138
-0.269816 -0.270128 -0.083411 138 138 138
-0.266668 -0.273261 -0.082715 138 138 138
-0.263483 -0.276832 -0.081923 138 138 138
-0.260345 -0.279998 -0.081221 138 138 138
-0.257204 -0.283259 -0.080497 138 138 138
-0.253994 -0.287330 -0.079594 138 138 138
-0.250480 -0.294756 -0.077946 138 138 138
-0.246718 -0.305045 -0.075663 138 138 138
-0.242930 -0.315850 -0.073266 138 138 138
-0.238932 -0.329233 -0.070297 138 138 138
-0.235376 -0.337970 -0.068358 138 138 138
-0.232265 -0.341856 -0.067496 138 138 138
-0.229152 -0.345864 -0.066607 138 138 138
-0.226106 -0.349184 -0.065870 138 138 138
-0.223024 -0.353010 -0.065021 138 138 138
-0.219925 -0.357136 -0.064106 138 138 138
-0.216625 -0.363803 -0.062626 138 138 138
-0.213264 -0.371374 -0.060947 138 138 138
-0.209993 -0.378040 -0.059467 138 138 138
-0.206900 -0.382637 -0.058448 138 138 138
-0.203876 -0.386472 -0.057597 138 138 138
-0.200889 -0.389948 -0.056825 138 138 138
-0.198015 -0.392024 -0.056365 138 138 138
-0.195167 -0.393832 -0.055964 138 138 138
-0.192326 -0.395587 -0.055574 138 138 138
-0.189495 -0.397247 -0.055206 138 138 138
-0.186691 -0.398601 -0.054906 138 138 138
-0.183923 -0.399478 -0.054711 138 138 138
-0.181143 -0.400550 -0.054473 138 138 138
-0.178388 -0.401298 -0.054307 138 138 138
-0.175650 -0.401803 -0.054195 138 138 138
-0.172920 -0.402229 -0.054101 138 138 138
-0.170176 -0.402872 -0.053958 138 138 138
-0.167426 -0.403628 -0.053790 138 138 138
-0.164677 -0.404380 -0.053623 138 138 138
-0.161922 -0.405271 -0.053426 138 138 138
-0.159166 -0.406191 -0.053221 138 138 138
-0.156413 -0.407112 -0.053017 138 138 138
-0.153661 -0.408031 -0.052813 138 138 138
-0.150901 -0.409134 -0.052569 138 138 138
-0.148142 -0.410253 -0.052320 138 138 138
-0.145411 -0.410919 -0.052173 138 138 138
-0.142682 -0.411585 -0.052025 138 138 138
-0.139957 -0.412181 -0.051893 138 138 138
-0.137249 -0.412503 -0.051821 138 138 138
-0.134540 -0.412832 -0.051748 138 138 138
-0.131811 -0.413593 -0.051579 138 138 138
-0.129073 -0.414543 -0.051368 138 138 138
-0.126347 -0.415306 -0.051199 138 138 138
-0.123624 -0.416027 -0.051039 138 138 138
-0.120913 -0.416523 -0.050929 138 138 138
-0.118198 -0.417140 -0.050792 138 138 138
-0.115482 -0.417799 -0.050646 138 138 138
-0.112768 -0.418457 -0.050500 138 138 138
-0.110058 -0.419057 -0.050367 138 138 138
-0.107355 -0.419507 -0.050267 138 138 138
-0.104662 -0.419731 -0.050217 138 138 138
-0.101973 -0.419862 -0.050188 138 138 138
-0.099291 -0.419842 -0.050193 138 138 138
-0.096611 -0.419744 -0.050214 138 138 138
-0.093931 -0.419646 -0.050236 138 138 138
-0.091236 -0.419978 -0.050163 138 138 138
-0.088544 -0.420250 -0.050102 138 138 138
-0.085851 -0.420534 -0.050039 138 138 138
-0.083159 -0.420817 -0.049976 138 138 138
-0.080473 -0.420952 -0.049946 138 138 138
-0.077784 -0.421170 -0.049898 138 138 138
-0.075094 -0.421436 -0.049839 138 138 138
-0.072405 -0.421711 -0.049778 138 138 138
-0.069714 -0.422072 -0.049698 138 138 138
-0.067023 -0.422447 -0.049615 138 138 138
-0.064326 -0.423097 -0.049470 138 138 138
-0.061631 -0.423747 -0.049326 138 138 138
-0.058937 -0.424396 -0.049182 138 138 138
-0.056244 -0.425045 -0.049038 138 138 138
-0.053551 -0.425746 -0.048883 138 138 138
-0.050857 -0.426634 -0.048686 138 138 138
-0.048164 -0.427494 -0.048495 138 138 138
-0.045471 -0.428476 -0.048277 138 138 138
-0.042779 -0.429568 -0.048035 138 138 138
-0.040089 -0.430658 -0.047793 138 138 138
-0.037400 -0.431771 -0.047546 138 138 138
-0.034714 -0.432933 -0.047288 138 138 138
-0.032030 -0.434078 -0.047034 138 138 138
-0.029348 -0.435222 -0.046780 138 138 138
-0.026669 -0.436365 -0.046527 138 138 138
-0.023992 -0.437569 -0.046259 138 138 138
-0.021319 -0.438566 -0.046038 138 138 138
-0.018653 -0.438869 -0.045971 138 138 138
-0.015988 -0.439173 -0.045904 138 138 138
-0.013322 -0.439579 -0.045813 138 138 138
-0.010657 -0.440154 -0.045686 138 138 138
-0.007994 -0.440604 -0.045586 138 138 138
-0.005333 -0.440148 -0.045687 138 138 138
-0.002672 -0.439691 -0.045789 138 138 138
-0.000009 -0.439226 -0.045892 138 138 138
0.002654 -0.438759 -0.045995 138 138 138
0.005320 -0.437699 -0.046231 138 138 138
0.007988 -0.436367 -0.046526 138 138 138
0.010660 -0.434972 -0.046836 138 138 138
0.013335 -0.433576 -0.047145 138 138 138
0.016022 -0.430624 -0.047800 138 138 138
0.018717 -0.427587 -0.048474 138 138 138
0.021419 -0.424371 -0.049188 138 138 138
0.024115 -0.422538 -0.049594 138 138 138
0.026812 -0.420935 -0.049950 138 138 138
0.029510 -0.419561 -0.050255 138 138 138
0.032206 -0.418544 -0.050481 138 138 138
0.034899 -0.417923 -0.050618 138 138 138
0.037597 -0.417073 -0.050807 138 138 138
0.040294 -0.416396 -0.050957 138 138 138
0.042991 -0.415769 -0.051096 138 138 138
0.045694 -0.414922 -0.051284 138 138 138
0.048399 -0.414037 -0.051480 138 138 138
0.051106 -0.413143 -0.051679 138 138 138
0.053815 -0.412248 -0.051878 138 138 138
0.056519 -0.411664 -0.052007 138 138 138
0.059224 -0.411112 -0.052130 138 138 138
0.061929 -0.410560 -0.052252 138 138 138
0.064636 -0.410008 -0.052374 138 138 138
0.067326 -0.410157 -0.052341 138 138 138
0.070006 -0.410664 -0.052229 138 138 138
0.072684 -0.411170 -0.052117 138 138 138
0.075365 -0.411554 -0.052031 138 138 138
0.078047 -0.411889 -0.051957 138 138 138
0.080746 -0.411650 -0.052010 138 138 138
0.083460 -0.410977 -0.052160 138 138 138
0.086175 -0.410302 -0.052309 138 138 138
0.088898 -0.409430 -0.052503 138 138 138
0.091661 -0.407521 -0.052926 138 138 138
0.094456 -0.404825 -0.053524 138 138 138
0.097262 -0.401969 -0.054158 138 138 138
0.100078 -0.399020 -0.054812 138 138 138
0.102888 -0.396402 -0.055393 138 138 138
0.105704 -0.393745 -0.055983 138 138 138
0.108539 -0.390783 -0.056640 138 138 138
0.111320 -0.389207 -0.056990 138 138 138
0.114105 -0.387630 -0.057340 138 138 138
0.116894 -0.386019 -0.057697 138 138 138
0.119670 -0.384775 -0.057973 138 138 138
0.122446 -0.383596 -0.058235 138 138 138
0.125226 -0.382371 -0.058506 138 138 138
0.128009 -0.381153 -0.058777 138 138 138
0.130785 -0.380105 -0.059009 138 138 138
0.133565 -0.379031 -0.059247 138 138 138
0.136348 -0.377953 -0.059487 138 138 138
0.139126 -0.376997 -0.059699 138 138 138
0.141903 -0.376097 -0.059898 138 138 138
0.144682 -0.375195 -0.060098 138 138 138
0.147453 -0.374472 -0.060259 138 138 138
0.150225 -0.373765 -0.060416 138 138 138
0.153016 -0.372745 -0.060642 138 138 138
0.155788 -0.372081 -0.060789 138 138 138
0.158557 -0.371499 -0.060919 138 138 138
0.161329 -0.370877 -0.061057 138 138 138
0.164120 -0.369986 -0.061254 138 138 138
0.166913 -0.369086 -0.061454 138 138 138
0.169709 -0.368165 -0.061658 138 138 138
0.172523 -0.366998 -0.061917 138 138 138
0.175342 -0.365800 -0.062183 138 138 138
0.178157 -0.364697 -0.062428 138 138 138
0.180953 -0.363895 -0.062606 138 138 138
0.183751 -0.363104 -0.062781 138 138 138
0.186546 -0.362372 -0.062944 138 138 138
0.189342 -0.361639 -0.063106 138 138 138
0.192139 -0.360923 -0.063265 138 138 138
0.194931 -0.360285 -0.063407 138 138 138
0.197708 -0.359865 -0.063500 138 138 138
0.200487 -0.359445 -0.063593 138 138 138
0.203273 -0.358928 -0.063708 138 138 138
0.206079 -0.358181 -0.063873 138 138 138
0.208851 -0.357881 -0.063940 138 138 138
0.211623 -0.357580 -0.064007 138 138 138
0.214392 -0.357335 -0.064061 138 138 138
0.217141 -0.357323 -0.064064 139 139 139
0.219942 -0.356703 -0.064201 140 140 140
0.222754 -0.355961 -0.064366 143 143 143
0.225567 -0.355237 -0.064526 147 147 147
0.228383 -0.354485 -0.064694 150 150 150
0.231293 -0.352682 -0.065094 152 152 152
0.234224 -0.350692 -0.065535 154 154 154
0.237159 -0.348698 -0.065977 156 156 156
0.240200 -0.345594 -0.066666 159 159 159
0.243316 -0.341747 -0.067520 163 163 163
0.246577 -0.336416 -0.068702 168 168 168
0.250069 -0.328763 -0.070400 169 169 169
0.253493 -0.321992 -0.071903 170 170 170
0.256775 -0.316847 -0.073044 170 170 170
0.260091 -0.311451 -0.074242 170 170 170
0.263319 -0.307071 -0.075213 168 168 168
0.266577 -0.302479 -0.076232 165 165 165
0.269724 -0.299093 -0.076983 165 165 165
0.272891 -0.295575 -0.077764 165 165 165
0.276014 -0.292562 -0.078433 162 162 162
0.279164 -0.289347 -0.079146 161 161 161
0.282317 -0.286164 -0.079852 160 160 160
0.285396 -0.283746 -0.080389 155 155 155
0.288588 -0.280320 -0.081149 151 151 151
0.291772 -0.277026 -0.081879 147 147 147
0.295228 -0.271309 -0.083148 142 142 142
0.298727 -0.265300 -0.084481 138 138 138
0.303647 -0.246606 -0.088629 138 138 138
0.307009 -0.242172 -0.089613 138 138 138
0.310233 -0.239034 -0.090309 138 138 138
0.313403 -0.236432 -0.090886 138 138 138
0.316629 -0.233390 -0.091561 138 138 138
0.319857 -0.230383 -0.092228 138 138 138
0.323103 -0.227275 -0.092918 138 138 138
0.326368 -0.224065 -0.093630 140 140 140
0.329609 -0.221106 -0.094287 141 141 141
0.332950 -0.217372 -0.095115 142 142 142
0.336347 -0.213248 -0.096030 143 143 143
0.339869 -0.208167 -0.097158 142 142 142
0.343791 -0.199934 -0.098984 141 141 141
0.348389 -0.186421 -0.101982 150 150 150
0.353905 -0.165819 -0.106554 167 167 167
0.364463 -0.105772 -0.119876 126 126 126
-0.362424 -0.122528 -0.119223 138 138 138
-0.358713 -0.128225 -0.117953 138 138 138
-0.355338 -0.131317 -0.117263 138 138 138
-0.351966 -0.134437 -0.116568 138 138 138
-0.348525 -0.138176 -0.115734 138 138 138
-0.344863 -0.143804 -0.114479 138 138 138
-0.341344 -0.148334 -0.113470 138 138 138
-0.337490 -0.155753 -0.111816 138 138 138
-0.333523 -0.164263 -0.109918 138 138 138
-0.329703 -0.171662 -0.108269 138 138 138
-0.326285 -0.175747 -0.107358 138 138 138
-0.322818 -0.180323 -0.106338 138 138 138
-0.319098 -0.187199 -0.104805 138 138 138
-0.315484 -0.193270 -0.103451 138 138 138
-0.311912 -0.199076 -0.102157 138 138 138
-0.308163 -0.206588 -0.100482 138 138 138
-0.304168 -0.216482 -0.098276 138 138 138
-0.300361 -0.224840 -0.096413 138 138 138
-0.296816 -0.230930 -0.095055 138 138 138
-0.293458 -0.235393 -0.094060 138 138 138
-0.290159 -0.239379 -0.093171 138 138 138
-0.286773 -0.244274 -0.092080 138 138 138
-0.283327 -0.249851 -0.090837 138 138 138
-0.279814 -0.256196 -0.089422 138 138 138
-0.276493 -0.260788 -0.088398 138 138 138
-0.273285 -0.264342 -0.087606 138 138 138
-0.270090 -0.267846 -0.086825 138 138 138
-0.266945 -0.270908 -0.086142 138 138 138
-0.263808 -0.273963 -0.085461 138 138 138
-0.260644 -0.277360 -0.084704 138 138 138
-0.257477 -0.280860 -0.083923 138 138 138
-0.254341 -0.284118 -0.083197 138 138 138
-0.251145 -0.288087 -0.082312 138 138 138
-0.247678 -0.295083 -0.080752 138 138 138
-0.243843 -0.306289 -0.078254 138 138 138
-0.240083 -0.316911 -0.075886 138 138 138
-0.235690 -0.334898 -0.071876 138 138 138
-0.232430 -0.340440 -0.070640 138 138 138
-0.229388 -0.343601 -0.069936 138 138 138
-0.226277 -0.347651 -0.069033 138 138 138
-0.223210 -0.351274 -0.068225 138 138 138
-0.220134 -0.355092 -0.067374 138 138 138
-0.216845 -0.361590 -0.065925 138 138 138
-0.213554 -0.368275 -0.064434 138 138 138
-0.210268 -0.375074 -0.062919 138 138 138
-0.207097 -0.380603 -0.061686 138 138 138
-0.204096 -0.384118 -0.060902 138 138 138
-0.201099 -0.387679 -0.060108 138 138 138
-0.198174 -0.390393 -0.059503 138 138 138
-0.195324 -0.392187 -0.059103 138 138 138
-0.192486 -0.393873 -0.058728 138 138 138
-0.189653 -0.395536 -0.058357 138 138 138
-0.186826 -0.397174 -0.057991 138 138 138
-0.184056 -0.398044 -0.057798 138 138 138
-0.181289 -0.398913 -0.057604 138 138 138
-0.178542 -0.399504 -0.057472 138 138 138
-0.175810 -0.399911 -0.057381 138 138 138
-0.173076 -0.400337 -0.057286 138 138 138
-0.170338 -0.400858 -0.057170 138 138 138
-0.167585 -0.401615 -0.057002 138 138 138
-0.164852 -0.402081 -0.056898 138 138 138
-0.162118 -0.402594 -0.056783 138 138 138
-0.159353 -0.403608 -0.056557 138 138 138
-0.156587 -0.404689 -0.056316 138 138 138
-0.153823 -0.405769 -0.056075 138 138 138
-0.151062 -0.406827 -0.055839 138 138 138
-0.148328 -0.407463 -0.055698 138 138 138
-0.145596 -0.408101 -0.055555 138 138 138
-0.142864 -0.408739 -0.055413 138 138 138
-0.140133 -0.409403 -0.055265 138 138 138
-0.137417 -0.409790 -0.055179 138 138 138
-0.134691 -0.410390 -0.055045 138 138 138
-0.131967 -0.410994 -0.054911 138 138 138
-0.129218 -0.412098 -0.054664 138 138 138
-0.126470 -0.413246 -0.054408 138 138 138
-0.123736 -0.414141 -0.054209 138 138 138
-0.121013 -0.414846 -0.054052 138 138 138
-0.118294 -0.415506 -0.053905 138 138 138
-0.115576 -0.416165 -0.053758 138 138 138
-0.112859 -0.416823 -0.053611 138 138 138
-0.110144 -0.417481 -0.053464 138 138 138
-0.107436 -0.417995 -0.053350 138 138 138
-0.104745 -0.418127 -0.053320 138 138 138
-0.102055 -0.418258 -0.053291 138 138 138
-0.099367 -0.418317 -0.053278 138 138 138
-0.096685 -0.418220 -0.053300 138 138 138
-0.093987 -0.418573 -0.053221 138 138 138
-0.091280 -0.419186 -0.053084 138 138 138
-0.088582 -0.419590 -0.052994 138 138 138
-0.085888 -0.419862 -0.052933 138 138 138
-0.083196 -0.420122 -0.052875 138 138 138
-0.080502 -0.420477 -0.052796 138 138 138
-0.077810 -0.420764 -0.052732 138 138 138
-0.075119 -0.421035 -0.052672 138 138 138
-0.072429 -0.421306 -0.052611 138 138 138
-0.069739 -0.421577 -0.052551 138 138 138
-0.067044 -0.422075 -0.052440 138 138 138
-0.064347 -0.422719 -0.052296 138 138 138
-0.061651 -0.423361 -0.052153 138 138 138
-0.058956 -0.424003 -0.052010 138 138 138
-0.056262 -0.424645 -0.051867 138 138 138
-0.053570 -0.425299 -0.051721 138 138 138
-0.050879 -0.425966 -0.051572 138 138 138
-0.048186 -0.426796 -0.051387 138 138 138
-0.045490 -0.427857 -0.051151 138 138 138
-0.042797 -0.428935 -0.050911 138 138 138
-0.040106 -0.430003 -0.050672 138 138 138
-0.037420 -0.430879 -0.050477 138 138 138
-0.034734 -0.431924 -0.050244 138 138 138
-0.032048 -0.433101 -0.049982 138 138 138
