ply
format ascii 1.0
element vertex 1187
property float x
property float y
property float z
property uchar red
property uchar green
property uchar blue
end_header
-0.246187 -0.227444 0.310788 195 195 195
-0.225775 -0.250191 0.312922 196 196 196
-0.219023 -0.254446 0.313426 191 191 191
-0.213313 -0.257302 0.313806 191 191 191
-0.208562 -0.258866 0.314072 190 190 190
-0.202793 -0.261836 0.314461 191 191 191
-0.197147 -0.264658 0.314837 193 193 193
-0.191220 -0.267884 0.315248 192 192 192
-0.185964 -0.270205 0.315579 190 190 190
-0.180908 -0.272266 0.315887 190 190 190
-0.176270 -0.273762 0.316145 190 190 190
-0.171944 -0.274838 0.316366 190 190 190
-0.167824 -0.275638 0.316562 190 190 190
-0.163791 -0.276327 0.316748 189 189 189
-0.160114 -0.276529 0.316892 190 190 190
-0.156704 -0.276362 0.317003 191 191 191
-0.153299 -0.276195 0.317115 191 191 191
-0.149270 -0.276909 0.317302 190 190 190
-0.145778 -0.276877 0.317425 192 192 192
-0.142880 -0.276014 0.317475 193 193 193
-0.139777 -0.275441 0.317550 193 193 193
-0.136820 -0.274667 0.317608 194 194 194
-0.133329 -0.274652 0.317732 194 194 194
-0.129795 -0.274706 0.317861 194 194 194
-0.125953 -0.275206 0.318029 195 195 195
-0.121894 -0.276024 0.318225 201 201 201
-0.117561 -0.277245 0.318455 195 195 195
-0.113245 -0.278452 0.318683 195 195 195
-0.109342 -0.279078 0.318861 194 194 194
-0.106459 -0.278240 0.318912 194 194 194
-0.103652 -0.277294 0.318954 195 195 195
-0.101087 -0.276002 0.318966 195 195 195
-0.098884 -0.274183 0.318932 195 195 195
-0.096362 -0.272827 0.318938 196 196 196
-0.093767 -0.271578 0.318953 196 196 196
-0.091310 -0.270127 0.318951 196 196 196
-0.088913 -0.268589 0.318942 196 196 196
-0.086230 -0.267470 0.318968 196 196 196
-0.083351 -0.266642 0.319020 197 197 197
-0.080492 -0.265786 0.319069 197 197 197
-0.077739 -0.264775 0.319105 197 197 197
-0.075118 -0.263572 0.319124 198 198 198
-0.072364 -0.262567 0.319160 198 198 198
-0.069511 -0.261710 0.319209 198 198 198
-0.066605 -0.260936 0.319265 198 198 198
-0.063602 -0.260308 0.319333 198 198 198
-0.060585 -0.259706 0.319404 198 198 198
-0.057508 -0.259197 0.319482 199 199 199
-0.054434 -0.258688 0.319560 199 199 199
-0.051754 -0.257588 0.319588 199 199 199
-0.048932 -0.256706 0.319634 199 199 199
-0.045901 -0.256141 0.319707 200 200 200
-0.042872 -0.255577 0.319780 199 199 199
-0.039719 -0.255206 0.319870 199 199 199
-0.036493 -0.254950 0.319969 199 199 199
-0.033267 -0.254700 0.320069 198 198 198
-0.030056 -0.254433 0.320167 198 198 198
-0.027233 -0.253575 0.320215 198 198 198
-0.024566 -0.252480 0.320242 198 198 198
-0.021899 -0.251385 0.320270 198 198 198
-0.019233 -0.250291 0.320297 198 198 198
-0.016533 -0.249251 0.320329 198 198 198
-0.013892 -0.248122 0.320354 198 198 198
-0.011362 -0.246820 0.320363 198 198 198
-0.008833 -0.245518 0.320373 198 198 198
-0.006399 -0.244068 0.320370 198 198 198
-0.004226 -0.242209 0.320333 198 198 198
-0.002052 -0.240350 0.320296 198 198 198
0.000148 -0.238531 0.320262 198 198 198
0.002021 -0.236194 0.320184 198 198 198
0.004233 -0.234387 0.320152 198 198 198
0.006353 -0.232434 0.320106 198 198 198
0.008413 -0.230384 0.320053 198 198 198
0.010379 -0.228180 0.319987 198 198 198
0.012552 -0.226303 0.319949 198 198 198
0.015055 -0.224951 0.319955 198 198 198
0.017558 -0.223600 0.319960 198 198 198
0.020140 -0.222376 0.319977 197 197 197
0.022751 -0.221198 0.319997 197 197 197
0.025357 -0.220015 0.320017 197 197 197
0.027895 -0.218722 0.320028 197 197 197
0.030433 -0.217429 0.320038 197 197 197
0.032953 -0.216109 0.320047 197 197 197
0.035601 -0.214997 0.320072 196 196 196
0.038000 -0.213481 0.320064 197 197 197
0.040350 -0.211882 0.320049 197 197 197
0.042699 -0.210283 0.320034 197 197 197
0.045030 -0.208653 0.320017 197 197 197
0.047353 -0.207009 0.319998 197 197 197
0.049637 -0.205300 0.319974 197 197 197
0.051922 -0.203591 0.319950 197 197 197
0.054091 -0.201688 0.319910 197 197 197
0.056066 -0.199461 0.319843 197 197 197
0.058136 -0.197388 0.319788 197 197 197
0.060355 -0.195561 0.319755 197 197 197
0.062645 -0.193851 0.319731 197 197 197
0.064855 -0.192005 0.319695 196 196 196
0.067329 -0.190601 0.319697 196 196 196
0.069915 -0.189386 0.319714 196 196 196
0.072501 -0.188171 0.319731 197 197 197
0.075131 -0.187031 0.319755 197 197 197
0.077793 -0.185948 0.319783 198 198 198
0.080551 -0.185030 0.319824 198 198 198
0.083308 -0.184112 0.319866 198 198 198
0.085724 -0.182614 0.319860 198 198 198
0.087964 -0.180814 0.319828 198 198 198
0.090210 -0.179023 0.319798 198 198 198
0.092458 -0.177233 0.319767 198 198 198
0.094628 -0.175307 0.319726 198 198 198
0.096607 -0.173049 0.319657 198 198 198
0.098589 -0.170792 0.319588 198 198 198
0.100572 -0.168533 0.319519 198 198 198
0.102475 -0.166131 0.319439 198 198 198
0.104460 -0.163867 0.319370 199 199 199
0.106612 -0.161891 0.319324 199 199 199
0.108796 -0.159968 0.319283 199 199 199
0.110696 -0.157546 0.319202 199 199 199
0.112646 -0.155205 0.319126 199 199 199
0.114932 -0.153454 0.319100 199 199 199
0.117219 -0.151702 0.319073 199 199 199
0.119506 -0.149950 0.319046 199 199 199
0.121800 -0.148207 0.319021 199 199 199
0.123968 -0.146239 0.318976 199 199 199
0.126116 -0.144232 0.318929 199 199 199
0.128265 -0.142224 0.318881 199 199 199
0.130414 -0.140215 0.318834 199 199 199
0.132406 -0.137919 0.318763 200 200 200
0.134273 -0.135395 0.318674 200 200 200
0.136161 -0.132901 0.318587 200 200 200
0.137904 -0.130141 0.318479 200 200 200
0.139815 -0.127679 0.318395 200 200 200
0.141717 -0.125197 0.318309 199 199 199
0.143620 -0.122711 0.318223 199 199 199
0.145521 -0.120214 0.318137 199 199 199
0.147474 -0.117809 0.318058 198 198 198
0.149607 -0.115731 0.318006 198 198 198
0.151882 -0.113911 0.317974 198 198 198
0.154172 -0.112118 0.317945 198 198 198
0.156464 -0.110325 0.317916 197 197 197
0.158863 -0.108731 0.317903 197 197 197
0.161511 -0.107598 0.317928 197 197 197
0.164164 -0.106475 0.317953 197 197 197
0.166865 -0.105446 0.317986 197 197 197
0.169538 -0.104365 0.318015 198 198 198
0.172061 -0.103003 0.318020 198 198 198
0.174366 -0.101231 0.317993 198 198 198
0.176571 -0.099270 0.317951 198 198 198
0.178869 -0.097480 0.317922 198 198 198
0.181200 -0.095753 0.317898 198 198 198
0.183536 -0.094033 0.317875 198 198 198
0.185873 -0.092313 0.317853 198 198 198
0.188190 -0.090555 0.317827 198 198 198
0.190441 -0.088668 0.317790 198 198 198
0.192753 -0.086897 0.317763 198 198 198
0.195084 -0.085160 0.317739 198 198 198
0.197416 -0.083423 0.317715 198 198 198
0.199614 -0.081424 0.317670 198 198 198
0.201853 -0.079504 0.317631 198 198 198
0.204164 -0.077721 0.317603 198 198 198
0.206562 -0.076107 0.317589 199 199 199
0.208931 -0.074434 0.317570 198 198 198
0.211092 -0.072351 0.317519 198 198 198
0.213385 -0.070525 0.317488 198 198 198
0.215742 -0.068824 0.317467 198 198 198
0.218115 -0.067152 0.317448 199 199 199
0.220706 -0.065912 0.317464 199 199 199
0.223343 -0.064764 0.317487 199 199 199
0.225979 -0.063617 0.317510 199 199 199
0.228633 -0.062505 0.317536 199 199 199
0.231314 -0.061450 0.317567 199 199 199
0.233917 -0.060239 0.317585 199 199 199
0.236572 -0.059135 0.317611 200 200 200
0.239226 -0.058031 0.317638 200 200 200
0.241955 -0.057078 0.317676 200 200 200
0.244836 -0.056438 0.317739 201 201 201
0.247573 -0.055508 0.317779 200 200 200
0.250303 -0.054569 0.317819 200 200 200
0.252739 -0.053030 0.317811 200 200 200
0.255240 -0.051624 0.317813 201 201 201
0.257741 -0.050218 0.317815 201 201 201
0.260601 -0.049551 0.317876 201 201 201
0.263515 -0.048999 0.317946 200 200 200
0.265958 -0.047478 0.317939 200 200 200
0.268192 -0.045522 0.317898 200 200 200
0.270222 -0.043139 0.317823 200 200 200
0.272152 -0.040542 0.317732 200 200 200
0.273747 -0.037240 0.317584 200 200 200
0.275418 -0.034087 0.317449 200 200 200
0.276677 -0.030059 0.317245 200 200 200
0.278163 -0.026495 0.317078 200 200 200
0.279802 -0.023244 0.316936 199 199 199
0.281547 -0.020208 0.316810 198 198 198
0.283359 -0.017305 0.316695 197 197 197
0.285518 -0.015134 0.316638 197 197 197
0.287694 -0.012998 0.316584 196 196 196
0.289887 -0.010890 0.316532 197 197 197
0.292080 -0.008781 0.316480 197 197 197
0.294274 -0.006671 0.316428 197 197 197
0.296480 -0.004582 0.316377 197 197 197
0.298151 -0.001334 0.316236 197 197 197
0.299664 0.002269 0.316068 197 197 197
0.301188 0.005857 0.315900 196 196 196
0.302674 0.009540 0.315726 196 196 196
0.304312 0.012905 0.315576 196 196 196
0.305948 0.016282 0.315426 196 196 196
0.307587 0.019664 0.315275 195 195 195
0.309360 0.022761 0.315147 195 195 195
0.311419 0.025233 0.315068 196 196 196
0.313280 0.028151 0.314954 196 196 196
0.315143 0.031073 0.314840 197 197 197
0.317008 0.033997 0.314726 197 197 197
0.318303 0.038203 0.314512 198 198 198
0.318699 0.044438 0.314141 200 200 200
0.311399 0.067992 0.312425 208 208 208
0.309042 0.080529 0.311566 206 206 206
0.307452 0.091396 0.310838 206 206 206
0.306268 0.101392 0.310178 205 205 205
-0.311818 -0.189447 0.303064 140 140 140
-0.297781 -0.203098 0.304428 184 184 184
-0.289597 -0.209011 0.305095 184 184 184
-0.282301 -0.213767 0.305657 185 185 185
-0.275608 -0.217744 0.306148 186 186 186
-0.269863 -0.220473 0.306527 187 187 187
-0.264311 -0.222958 0.306884 188 188 188
-0.257523 -0.227127 0.307391 190 190 190
-0.250792 -0.231241 0.307892 194 194 194
-0.231141 -0.252857 0.309958 196 196 196
-0.223127 -0.258796 0.310621 191 191 191
-0.217557 -0.261446 0.310988 190 190 190
-0.212409 -0.263539 0.311306 190 190 190
-0.207074 -0.265903 0.311647 190 190 190
-0.201001 -0.269290 0.312079 190 190 190
-0.194983 -0.272624 0.312506 190 190 190
-0.189167 -0.275700 0.312909 189 189 189
-0.184489 -0.277231 0.313174 188 188 188
-0.180064 -0.278424 0.313409 188 188 188
-0.175916 -0.279246 0.313611 188 188 188
-0.171598 -0.280313 0.313834 189 189 189
-0.167309 -0.281351 0.314054 189 189 189
-0.163097 -0.282292 0.314266 189 189 189
-0.159340 -0.282611 0.314422 190 190 190
-0.155290 -0.283344 0.314614 189 189 189
-0.151461 -0.283778 0.314780 189 189 189
-0.147561 -0.284321 0.314955 189 189 189
-0.144039 -0.284339 0.315084 190 190 190
-0.140721 -0.284078 0.315187 191 191 191
-0.137505 -0.283677 0.315279 191 191 191
-0.134205 -0.283399 0.315381 192 192 192
-0.130589 -0.283575 0.315523 192 192 192
-0.126977 -0.283750 0.315664 191 191 191
-0.123274 -0.284064 0.315818 190 190 190
-0.119374 -0.284665 0.315997 192 192 192
-0.115407 -0.285372 0.316185 191 191 191
-0.111448 -0.286075 0.316372 191 191 191
-0.107642 -0.286569 0.316541 191 191 191
-0.104533 -0.286067 0.316622 193 193 193
-0.101624 -0.285281 0.316678 193 193 193
-0.098803 -0.284371 0.316723 193 193 193
-0.096206 -0.283138 0.316740 194 194 194
-0.093578 -0.281952 0.316760 194 194 194
-0.090810 -0.280969 0.316799 194 194 194
-0.087765 -0.280393 0.316873 195 195 195
-0.084722 -0.279818 0.316947 195 195 195
-0.081683 -0.279241 0.317021 196 196 196
-0.078712 -0.278567 0.317086 196 196 196
-0.075101 -0.278838 0.317234 196 196 196
-0.071672 -0.278849 0.317358 197 197 197
-0.068433 -0.278583 0.317459 197 197 197
-0.065416 -0.277997 0.317532 197 197 197
-0.062419 -0.277382 0.317601 197 197 197
-0.059703 -0.276354 0.317635 197 197 197
-0.057074 -0.275197 0.317658 197 197 197
-0.054437 -0.274054 0.317682 197 197 197
-0.051810 -0.272897 0.317704 197 197 197
-0.048893 -0.272176 0.317765 197 197 197
-0.045712 -0.271856 0.317860 197 197 197
-0.042533 -0.271537 0.317955 197 197 197
-0.039530 -0.270957 0.318027 197 197 197
-0.036615 -0.270248 0.318088 197 197 197
-0.033895 -0.269245 0.318124 197 197 197
-0.031158 -0.268271 0.318162 197 197 197
-0.028415 -0.267308 0.318201 197 197 197
-0.025674 -0.266344 0.318239 197 197 197
-0.022840 -0.265523 0.318290 196 196 196
-0.020008 -0.264703 0.318341 196 196 196
-0.017178 -0.263883 0.318392 196 196 196
-0.014356 -0.263053 0.318443 196 196 196
-0.011929 -0.261614 0.318440 196 196 196
-0.009559 -0.260088 0.318430 197 197 197
-0.007201 -0.258543 0.318419 197 197 197
-0.004966 -0.256805 0.318391 197 197 197
-0.002513 -0.255407 0.318392 197 197 197
0.000004 -0.254108 0.318402 197 197 197
0.002364 -0.252563 0.318390 198 198 198
0.004724 -0.251018 0.318379 198 198 198
0.007121 -0.249531 0.318372 198 198 198
0.009578 -0.248139 0.318374 198 198 198
0.012012 -0.246708 0.318372 198 198 198
0.014314 -0.245071 0.318353 198 198 198
0.016603 -0.243411 0.318332 198 198 198
0.018330 -0.240856 0.318234 198 198 198
0.020312 -0.238703 0.318171 198 198 198
0.022336 -0.236613 0.318113 198 198 198
0.024521 -0.234777 0.318077 198 198 198
0.026671 -0.232885 0.318036 198 198 198
0.028968 -0.231225 0.318015 196 196 196
0.031391 -0.229769 0.318012 196 196 196
0.033815 -0.228313 0.318008 197 197 197
0.036272 -0.226910 0.318009 197 197 197
0.038866 -0.225730 0.318029 197 197 197
0.041467 -0.224563 0.318050 197 197 197
0.044195 -0.223605 0.318089 197 197 197
0.046923 -0.222647 0.318128 197 197 197
0.049190 -0.220938 0.318102 198 198 198
0.051391 -0.219117 0.318068 198 198 198
0.053592 -0.217295 0.318033 198 198 198
0.055845 -0.215558 0.318006 198 198 198
0.058008 -0.213670 0.317966 198 198 198
0.060292 -0.211980 0.317943 198 198 198
0.062577 -0.210291 0.317920 198 198 198
0.064811 -0.208515 0.317889 198 198 198
0.066749 -0.206243 0.317817 198 198 198
0.069278 -0.204957 0.317828 198 198 198
0.071807 -0.203671 0.317839 198 198 198
0.074335 -0.202384 0.317850 198 198 198
0.076902 -0.201163 0.317866 198 198 198
0.079526 -0.200038 0.317890 198 198 198
0.082154 -0.198923 0.317916 198 198 198
0.084782 -0.197809 0.317941 198 198 198
0.087403 -0.196684 0.317965 197 197 197
0.089795 -0.195171 0.317957 197 197 197
0.092172 -0.193631 0.317946 197 197 197
0.094552 -0.192096 0.317936 197 197 197
0.096982 -0.190645 0.317933 198 198 198
0.099420 -0.189209 0.317931 198 198 198
0.101869 -0.187791 0.317931 198 198 198
0.104317 -0.186374 0.317931 198 198 198
0.106689 -0.184821 0.317920 198 198 198
0.108759 -0.182746 0.317864 198 198 198
0.110436 -0.179983 0.317752 198 198 198
0.112114 -0.177216 0.317639 198 198 198
0.113794 -0.174446 0.317526 198 198 198
0.115526 -0.171759 0.317421 198 198 198
0.117551 -0.169582 0.317357 198 198 198
0.119582 -0.167412 0.317295 198 198 198
0.121838 -0.165636 0.317265 198 198 198
0.124152 -0.163960 0.317244 198 198 198
0.126432 -0.162223 0.317218 198 198 198
0.128585 -0.160259 0.317172 198 198 198
0.130738 -0.158293 0.317127 198 198 198
0.132892 -0.156325 0.317082 198 198 198
0.135047 -0.154355 0.317036 198 198 198
0.137070 -0.152148 0.316971 199 199 199
0.139069 -0.149893 0.316902 199 199 199
0.141070 -0.147636 0.316833 199 199 199
0.143071 -0.145378 0.316764 199 199 199
0.145040 -0.143055 0.316689 199 199 199
0.146983 -0.140682 0.316611 199 199 199
0.148930 -0.138312 0.316533 199 199 199
0.150879 -0.135941 0.316455 199 199 199
0.152830 -0.133568 0.316377 199 199 199
0.154801 -0.131227 0.316301 199 199 199
0.156965 -0.129237 0.316255 199 199 199
0.159076 -0.127148 0.316200 199 199 199
0.161189 -0.125057 0.316146 199 199 199
0.163329 -0.123015 0.316095 199 199 199
0.165760 -0.121508 0.316089 200 200 200
0.168212 -0.120040 0.316085 199 199 199
0.170672 -0.118589 0.316084 199 199 199
0.173160 -0.117189 0.316086 199 199 199
0.175661 -0.115813 0.316090 199 199 199
0.178239 -0.114582 0.316106 198 198 198
0.180841 -0.113398 0.316126 198 198 198
0.183297 -0.111940 0.316124 198 198 198
0.185978 -0.110907 0.316156 198 198 198
0.188557 -0.109682 0.316173 198 198 198
0.191113 -0.108414 0.316186 199 199 199
0.193668 -0.107147 0.316199 198 198 198
0.196100 -0.105643 0.316192 198 198 198
0.198487 -0.104052 0.316179 198 198 198
0.200821 -0.102360 0.316157 199 199 199
0.202825 -0.100031 0.316084 199 199 199
0.204888 -0.097810 0.316019 199 199 199
0.207159 -0.095990 0.315988 199 199 199
0.209290 -0.093895 0.315933 199 199 199
0.211429 -0.091812 0.315880 199 199 199
0.213743 -0.090066 0.315854 200 200 200
0.216740 -0.089656 0.315937 200 200 200
0.219734 -0.089246 0.316020 200 200 200
0.222597 -0.088582 0.316082 200 200 200
0.225286 -0.087580 0.316116 200 200 200
0.228128 -0.086881 0.316175 200 200 200
0.230759 -0.085770 0.316201 200 200 200
0.233143 -0.084168 0.316187 199 199 199
0.235485 -0.082482 0.316166 199 199 199
0.237827 -0.080796 0.316145 199 199 199
0.240209 -0.079188 0.316130 199 199 199
0.242592 -0.077579 0.316116 199 199 199
0.244975 -0.075971 0.316101 198 198 198
0.247253 -0.074152 0.316070 198 198 198
0.249749 -0.072770 0.316073 199 199 199
0.252430 -0.071762 0.316107 199 199 199
0.255096 -0.070727 0.316139 199 199 199
0.257678 -0.069522 0.316157 199 199 199
0.260143 -0.068082 0.316156 198 198 198
0.262617 -0.066656 0.316156 198 198 198
0.265109 -0.065271 0.316159 198 198 198
0.267473 -0.063619 0.316141 198 198 198
0.269446 -0.061162 0.316059 198 198 198
0.271421 -0.058703 0.315976 198 198 198
0.273398 -0.056242 0.315893 198 198 198
0.275376 -0.053779 0.315810 198 198 198
0.277310 -0.051216 0.315720 198 198 198
0.279225 -0.048610 0.315626 198 198 198
0.281143 -0.046002 0.315532 198 198 198
0.283062 -0.043392 0.315437 199 199 199
0.284962 -0.040735 0.315340 199 199 199
0.286659 -0.037643 0.315207 199 199 199
0.288231 -0.034278 0.315053 198 198 198
0.289806 -0.030908 0.314899 198 198 198
0.291384 -0.027534 0.314745 198 198 198
0.293233 -0.024729 0.314636 198 198 198
0.295131 -0.022021 0.314535 198 198 198
0.297030 -0.019309 0.314433 198 198 198
0.298931 -0.016595 0.314332 197 197 197
0.300715 -0.013621 0.314210 197 197 197
0.302579 -0.010813 0.314102 197 197 197
0.304446 -0.008002 0.313993 197 197 197
0.306314 -0.005188 0.313884 197 197 197
0.308074 -0.002132 0.313756 197 197 197
0.309167 0.002395 0.313512 196 196 196
0.310197 0.007075 0.313256 196 196 196
0.311257 0.011704 0.313004 195 195 195
0.312927 0.015008 0.312858 195 195 195
0.314643 0.018221 0.312718 195 195 195
0.316371 0.021415 0.312581 195 195 195
0.318112 0.024590 0.312445 195 195 195
0.319978 0.027496 0.312330 196 196 196
0.321666 0.030809 0.312184 196 196 196
0.323182 0.034515 0.312006 197 197 197
0.324227 0.039294 0.311744 198 198 198
0.324099 0.046732 0.311274 200 200 200
0.315443 0.073470 0.309284 208 208 208
0.312857 0.086596 0.308368 206 206 206
0.310790 0.098607 0.307541 205 205 205
0.303784 0.121925 0.305825 210 210 210
-0.299952 -0.205299 0.301473 182 182 182
-0.291484 -0.211573 0.302182 183 183 183
-0.283890 -0.216716 0.302788 182 182 182
-0.277057 -0.220870 0.303303 184 184 184
-0.270305 -0.224939 0.303809 186 186 186
-0.263699 -0.228836 0.304299 188 188 188
-0.255669 -0.234669 0.304965 193 193 193
-0.239092 -0.252047 0.306678 194 194 194
-0.229446 -0.260148 0.307546 190 190 190
-0.223252 -0.263622 0.307995 189 189 189
-0.217409 -0.266638 0.308401 189 189 189
-0.211678 -0.269522 0.308794 189 189 189
-0.205602 -0.272895 0.309232 188 188 188
-0.199175 -0.276766 0.309714 188 188 188
-0.194101 -0.278810 0.310030 188 188 188
-0.189356 -0.280420 0.310306 187 187 187
-0.184900 -0.281644 0.310548 187 187 187
-0.180426 -0.282904 0.310792 186 186 186
-0.176045 -0.284050 0.311025 186 186 186
-0.171708 -0.285144 0.311254 187 187 187
-0.167542 -0.286013 0.311462 187 187 187
-0.163401 -0.286856 0.311668 185 185 185
-0.159043 -0.288012 0.311901 186 186 186
-0.154941 -0.288820 0.312103 186 186 186
-0.150961 -0.289469 0.312290 186 186 186
-0.147068 -0.290006 0.312467 187 187 187
-0.143352 -0.290301 0.312623 188 188 188
-0.139882 -0.290260 0.312747 189 189 189
-0.136618 -0.289934 0.312846 189 189 189
-0.133313 -0.289669 0.312951 190 190 190
-0.129596 -0.289993 0.313108 189 189 189
-0.125882 -0.290321 0.313265 189 189 189
-0.122223 -0.290578 0.313416 189 189 189
-0.118445 -0.291012 0.313582 192 192 192
-0.114622 -0.291518 0.313754 190 190 190
-0.110633 -0.292269 0.313948 190 190 190
-0.106662 -0.293004 0.314141 190 190 190
-0.103275 -0.292910 0.314259 191 191 191
-0.100298 -0.292232 0.314325 192 192 192
-0.097268 -0.291633 0.314398 193 193 193
-0.093945 -0.291460 0.314509 193 193 193
-0.090881 -0.290918 0.314587 193 193 193
-0.087738 -0.290497 0.314676 193 193 193
-0.084363 -0.290415 0.314795 193 193 193
-0.081088 -0.290194 0.314901 194 194 194
-0.077860 -0.289909 0.315001 195 195 195
-0.074571 -0.289718 0.315110 194 194 194
-0.071210 -0.289640 0.315228 194 194 194
-0.067940 -0.289432 0.315335 195 195 195
-0.064857 -0.288954 0.315418 194 194 194
-0.061856 -0.288361 0.315490 194 194 194
-0.058861 -0.287760 0.315562 194 194 194
-0.056089 -0.286832 0.315604 194 194 194
-0.053320 -0.285902 0.315647 194 194 194
-0.050648 -0.284831 0.315677 195 195 195
-0.048013 -0.283706 0.315702 195 195 195
-0.045236 -0.282793 0.315746 195 195 195
-0.042250 -0.282197 0.315818 195 195 195
-0.039266 -0.281602 0.315889 195 195 195
-0.036284 -0.281006 0.315961 194 194 194
-0.033212 -0.280551 0.316045 195 195 195
-0.030338 -0.279799 0.316102 195 195 195
-0.027516 -0.278972 0.316153 195 195 195
-0.024696 -0.278144 0.316204 195 195 195
-0.021961 -0.277191 0.316244 195 195 195
-0.019376 -0.276009 0.316264 195 195 195
-0.016644 -0.275054 0.316303 196 196 196
-0.013826 -0.274231 0.316354 196 196 196
-0.011012 -0.273407 0.316405 196 196 196
-0.008159 -0.272644 0.316462 196 196 196
-0.005332 -0.271844 0.316514 196 196 196
-0.002540 -0.270994 0.316563 196 196 196
0.000098 -0.269907 0.316591 196 196 196
0.002548 -0.268528 0.316593 196 196 196
0.004955 -0.267083 0.316589 197 197 197
0.007363 -0.265639 0.316586 197 197 197
0.009771 -0.264195 0.316583 197 197 197
0.012043 -0.262537 0.316561 197 197 197
0.014494 -0.261160 0.316563 197 197 197
0.016941 -0.259776 0.316565 197 197 197
0.019232 -0.258146 0.316545 197 197 197
0.021467 -0.256427 0.316518 197 197 197
0.023831 -0.254912 0.316508 198 198 198
0.026204 -0.253408 0.316500 198 198 198
0.028226 -0.251347 0.316443 198 198 198
0.030182 -0.249176 0.316377 198 198 198
0.032621 -0.247775 0.316377 198 198 198
0.035061 -0.246377 0.316378 199 199 199
0.037502 -0.244979 0.316379 198 198 198
0.039895 -0.243504 0.316373 199 199 199
0.042222 -0.241922 0.316358 198 198 198
0.044525 -0.240300 0.316339 199 199 199
0.046824 -0.238672 0.316320 199 199 199
0.049124 -0.237043 0.316301 199 199 199
0.051547 -0.235615 0.316299 199 199 199
0.053954 -0.234160 0.316295 199 199 199
0.056275 -0.232563 0.316279 199 199 199
0.058596 -0.230967 0.316262 199 199 199
0.060918 -0.229371 0.316246 198 198 198
0.063169 -0.227655 0.316220 198 198 198
0.065419 -0.225938 0.316193 198 198 198
0.067799 -0.224436 0.316185 199 199 199
0.070184 -0.222940 0.316177 199 199 199
0.072431 -0.221214 0.316150 199 199 199
0.074632 -0.219411 0.316116 198 198 198
0.077268 -0.218332 0.316144 198 198 198
0.079902 -0.217253 0.316172 198 198 198
0.082438 -0.216009 0.316186 198 198 198
0.084822 -0.214512 0.316179 198 198 198
0.087170 -0.212952 0.316166 198 198 198
0.089518 -0.211392 0.316153 198 198 198
0.091865 -0.209828 0.316140 197 197 197
0.094088 -0.208055 0.316108 197 197 197
0.096296 -0.206254 0.316075 197 197 197
0.098506 -0.204452 0.316042 197 197 197
0.100715 -0.202651 0.316008 197 197 197
0.102791 -0.200617 0.315955 197 197 197
0.105137 -0.199045 0.315941 196 196 196
0.107632 -0.197728 0.315949 196 196 196
0.110149 -0.196451 0.315960 196 196 196
0.112645 -0.195138 0.315968 197 197 197
0.114679 -0.193024 0.315909 198 198 198
0.116700 -0.190882 0.315847 197 197 197
0.118721 -0.188738 0.315785 198 198 198
0.120589 -0.186323 0.315700 198 198 198
0.122443 -0.183878 0.315612 198 198 198
0.124379 -0.181573 0.315537 198 198 198
0.126273 -0.179189 0.315455 198 198 198
0.128263 -0.176971 0.315387 198 198 198
0.130451 -0.175097 0.315348 198 198 198
0.132796 -0.173501 0.315333 198 198 198
0.135141 -0.171904 0.315317 198 198 198
0.137486 -0.170306 0.315302 198 198 198
0.139806 -0.168663 0.315282 198 198 198
0.141958 -0.166718 0.315238 198 198 198
0.144071 -0.164700 0.315187 198 198 198
0.146185 -0.162681 0.315136 198 198 198
0.148300 -0.160662 0.315085 198 198 198
0.150388 -0.158589 0.315030 199 199 199
0.152463 -0.156490 0.314973 199 199 199
0.154539 -0.154390 0.314916 199 199 199
0.156615 -0.152287 0.314858 199 199 199
0.158773 -0.150330 0.314813 200 200 200
0.161215 -0.148891 0.314811 200 200 200
0.163382 -0.146945 0.314767 200 200 200
0.165550 -0.144999 0.314723 201 201 201
0.167319 -0.142316 0.314617 200 200 200
0.169763 -0.140874 0.314615 200 200 200
0.172490 -0.139956 0.314657 200 200 200
0.175215 -0.139038 0.314699 200 200 200
0.177940 -0.138120 0.314740 200 200 200
0.180393 -0.136698 0.314740 200 200 200
0.182626 -0.134865 0.314705 200 200 200
0.184901 -0.133109 0.314677 200 200 200
0.187198 -0.131390 0.314652 200 200 200
0.189367 -0.129432 0.314608 200 200 200
0.191205 -0.126843 0.314510 199 199 199
0.193097 -0.124352 0.314422 199 199 199
0.195296 -0.122437 0.314380 199 199 199
0.197558 -0.120641 0.314349 198 198 198
0.199847 -0.118895 0.314322 198 198 198
0.202144 -0.117162 0.314297 198 198 198
0.204480 -0.115502 0.314277 198 198 198
0.206828 -0.113863 0.314259 199 199 199
0.209192 -0.112256 0.314243 199 199 199
0.211571 -0.110676 0.314230 199 199 199
0.213937 -0.109069 0.314215 199 199 199
0.216299 -0.107454 0.314199 199 199 199
0.218722 -0.105957 0.314193 199 199 199
0.221373 -0.104904 0.314223 199 199 199
0.223986 -0.103779 0.314247 198 198 198
0.226610 -0.102678 0.314274 198 198 198
0.229213 -0.101537 0.314297 198 198 198
0.231744 -0.100254 0.314308 198 198 198
0.234275 -0.098973 0.314320 198 198 198
0.236773 -0.097626 0.314326 198 198 198
0.239216 -0.096172 0.314323 198 198 198
0.241517 -0.094433 0.314297 198 198 198
0.243883 -0.092825 0.314281 198 198 198
0.246315 -0.091345 0.314276 198 198 198
0.248737 -0.089845 0.314270 198 198 198
0.251132 -0.088292 0.314259 197 197 197
0.253589 -0.086863 0.314259 197 197 197
0.256091 -0.085524 0.314265 197 197 197
0.258583 -0.084167 0.314271 197 197 197
0.261008 -0.082673 0.314265 197 197 197
0.263546 -0.081407 0.314277 197 197 197
0.266083 -0.080142 0.314290 196 196 196
0.268620 -0.078877 0.314303 196 196 196
0.271085 -0.077466 0.314303 196 196 196
0.273134 -0.075199 0.314234 196 196 196
0.275183 -0.072926 0.314165 196 196 196
0.277233 -0.070652 0.314096 196 196 196
0.279285 -0.068376 0.314026 196 196 196
0.281220 -0.065852 0.313937 196 196 196
0.283135 -0.063282 0.313844 196 196 196
0.284891 -0.060375 0.313724 197 197 197
0.286575 -0.057306 0.313590 197 197 197
0.288649 -0.055050 0.313523 197 197 197
0.290600 -0.052529 0.313434 197 197 197
0.292552 -0.050006 0.313346 197 197 197
0.294543 -0.047559 0.313263 197 197 197
0.296538 -0.045116 0.313181 197 197 197
0.298372 -0.042324 0.313071 198 198 198
0.300064 -0.039222 0.312936 198 198 198
0.301661 -0.035906 0.312784 198 198 198
0.303068 -0.032174 0.312598 198 198 198
0.304496 -0.028474 0.312415 198 198 198
0.305947 -0.024813 0.312236 198 198 198
0.307424 -0.021195 0.312060 197 197 197
0.309049 -0.017886 0.311910 197 197 197
0.310902 -0.015064 0.311798 197 197 197
0.312378 -0.011412 0.311620 197 197 197
0.313813 -0.007659 0.311434 197 197 197
0.314809 -0.002930 0.311170 197 197 197
0.315648 0.002160 0.310877 196 196 196
0.316908 0.006343 0.310658 196 196 196
0.318264 0.010328 0.310454 195 195 195
0.319668 0.014221 0.310258 195 195 195
0.321400 0.017398 0.310120 195 195 195
0.323121 0.020610 0.309979 195 195 195
0.324770 0.023990 0.309825 195 195 195
0.326381 0.027467 0.309663 195 195 195
0.327828 0.031325 0.309471 196 196 196
0.329277 0.035189 0.309278 197 197 197
0.329852 0.041042 0.308927 198 198 198
0.329111 0.049902 0.308337 201 201 201
0.320230 0.077292 0.306270 208 208 208
0.314961 0.096597 0.304850 205 205 205
0.309861 0.115616 0.303454 208 208 208
-0.302505 -0.206993 0.298471 182 182 182
-0.293610 -0.213817 0.299242 181 181 181
-0.286296 -0.218573 0.299820 181 181 181
-0.278795 -0.223606 0.300424 183 183 183
-0.271978 -0.227752 0.300945 185 185 185
-0.263491 -0.234156 0.301673 189 189 189
-0.250911 -0.246084 0.302910 194 194 194
-0.237175 -0.259623 0.304294 190 190 190
-0.230040 -0.264334 0.304863 188 188 188
-0.223246 -0.268610 0.305391 187 187 187
-0.217027 -0.272133 0.305850 187 187 187
-0.210663 -0.275873 0.306327 187 187 187
-0.204726 -0.279056 0.306753 186 186 186
-0.199490 -0.281303 0.307093 185 185 185
-0.194432 -0.283324 0.307411 185 185 185
-0.189776 -0.284810 0.307681 186 186 186
-0.185299 -0.286064 0.307928 185 185 185
-0.181027 -0.287047 0.308150 185 185 185
-0.176764 -0.288028 0.308372 184 184 184
-0.172574 -0.288918 0.308585 184 184 184
-0.168329 -0.289895 0.308806 183 183 183
-0.163895 -0.291145 0.309052 183 183 183
-0.159473 -0.292388 0.309296 183 183 183
-0.155261 -0.293350 0.309515 185 185 185
-0.151148 -0.294186 0.309722 185 185 185
-0.147047 -0.295014 0.309928 186 186 186
-0.143307 -0.295347 0.310089 187 187 187
-0.139712 -0.295484 0.310231 188 188 188
-0.136414 -0.295211 0.310336 188 188 188
-0.132974 -0.295141 0.310460 189 189 189
-0.129287 -0.295427 0.310615 189 189 189
-0.125606 -0.295713 0.310771 189 189 189
-0.121849 -0.296113 0.310936 189 189 189
-0.117937 -0.296741 0.311122 189 189 189
-0.113934 -0.297507 0.311321 189 189 189
-0.109938 -0.298272 0.311519 190 190 190
-0.105791 -0.299263 0.311737 189 189 189
-0.102136 -0.299560 0.311892 190 190 190
-0.098567 -0.299740 0.312036 191 191 191
-0.095196 -0.299643 0.312156 192 192 192
-0.091850 -0.299515 0.312272 192 192 192
-0.088564 -0.299306 0.312381 192 192 192
-0.085282 -0.299097 0.312489 192 192 192
-0.082029 -0.298850 0.312594 191 191 191
-0.078878 -0.298459 0.312687 192 192 192
-0.075673 -0.298154 0.312786 192 192 192
-0.072456 -0.297869 0.312888 193 193 193
-0.069243 -0.297585 0.312989 193 193 193
-0.066096 -0.297206 0.313081 193 193 193
-0.063036 -0.296706 0.313163 193 193 193
-0.060036 -0.296122 0.313237 193 193 193
-0.057002 -0.295590 0.313316 193 193 193
-0.054219 -0.294690 0.313361 193 193 193
-0.051439 -0.293791 0.313407 194 194 194
-0.048659 -0.292891 0.313452 194 194 194
-0.045600 -0.292410 0.313535 194 194 194
-0.042606 -0.291836 0.313609 194 194 194
-0.039706 -0.291125 0.313671 194 194 194
-0.036808 -0.290415 0.313733 194 194 194
-0.033721 -0.289990 0.313821 194 194 194
-0.030408 -0.289913 0.313939 194 194 194
-0.027274 -0.289570 0.314034 194 194 194
-0.024143 -0.289227 0.314128 194 194 194
-0.021031 -0.288860 0.314220 194 194 194
-0.018259 -0.287980 0.314267 194 194 194
-0.015832 -0.286577 0.314267 194 194 194
-0.013404 -0.285175 0.314267 194 194 194
-0.011027 -0.283697 0.314260 194 194 194
-0.008434 -0.282548 0.314282 194 194 194
-0.005450 -0.282002 0.314358 194 194 194
-0.002468 -0.281457 0.314434 195 195 195
0.000511 -0.280912 0.314510 195 195 195
0.003373 -0.280187 0.314569 195 195 195
0.006143 -0.279325 0.314617 195 195 195
0.008912 -0.278463 0.314664 196 196 196
0.011518 -0.277349 0.314690 196 196 196
0.014002 -0.276046 0.314698 196 196 196
0.016491 -0.274750 0.314707 196 196 196
0.018839 -0.273235 0.314697 196 196 196
0.021087 -0.271563 0.314673 197 197 197
0.023336 -0.269889 0.314649 196 196 196
0.025665 -0.268342 0.314636 197 197 197
0.028020 -0.266834 0.314626 197 197 197
0.030366 -0.265313 0.314615 197 197 197
0.032692 -0.263759 0.314602 197 197 197
0.034991 -0.262160 0.314584 197 197 197
0.037248 -0.260493 0.314561 198 198 198
0.039679 -0.259105 0.314562 198 198 198
0.042139 -0.257763 0.314567 198 198 198
0.044796 -0.256737 0.314599 198 198 198
0.047351 -0.255550 0.314618 198 198 198
0.049906 -0.254363 0.314637 198 198 198
0.052460 -0.253176 0.314655 198 198 198
0.055222 -0.252326 0.314703 198 198 198
0.057646 -0.250930 0.314703 198 198 198
0.060239 -0.249810 0.314728 198 198 198
0.062841 -0.248705 0.314753 199 199 199
0.065382 -0.247501 0.314770 199 199 199
0.067645 -0.245843 0.314748 200 200 200
0.069619 -0.243707 0.314683 199 199 199
0.071605 -0.241587 0.314621 199 199 199
0.073671 -0.239598 0.314569 199 199 199
0.075679 -0.237508 0.314509 199 199 199
0.077710 -0.235454 0.314453 199 199 199
0.079843 -0.233568 0.314410 199 199 199
0.082077 -0.231847 0.314383 199 199 199
0.084327 -0.230151 0.314357 198 198 198
0.086749 -0.228742 0.314356 198 198 198
0.089203 -0.227387 0.314360 198 198 198
0.091625 -0.225978 0.314360 198 198 198
0.093943 -0.224395 0.314344 198 198 198
0.096195 -0.222697 0.314318 198 198 198
0.098213 -0.220602 0.314258 198 198 198
0.100232 -0.218505 0.314198 198 198 198
0.102263 -0.216425 0.314140 197 197 197
0.104294 -0.214343 0.314081 197 197 197
0.106299 -0.212213 0.314018 196 196 196
0.108296 -0.210066 0.313954 196 196 196
0.110306 -0.207937 0.313892 196 196 196
0.112415 -0.205975 0.313844 196 196 196
0.114799 -0.204486 0.313837 196 196 196
0.117352 -0.203290 0.313855 196 196 196
0.119905 -0.202095 0.313873 197 197 197
0.122306 -0.200636 0.313868 197 197 197
0.124526 -0.198862 0.313836 197 197 197
0.126710 -0.197021 0.313799 198 198 198
0.128892 -0.195177 0.313761 198 198 198
0.131076 -0.193332 0.313724 198 198 198
0.133261 -0.191487 0.313686 198 198 198
0.135332 -0.189440 0.313631 198 198 198
0.137354 -0.187303 0.313569 198 198 198
0.139377 -0.185163 0.313506 198 198 198
0.141420 -0.183058 0.313446 198 198 198
0.143748 -0.181454 0.313430 198 198 198
0.145865 -0.179475 0.313381 198 198 198
0.148156 -0.177802 0.313358 198 198 198
0.150227 -0.175735 0.313302 198 198 198
0.152406 -0.173860 0.313262 198 198 198
0.154716 -0.172216 0.313242 198 198 198
0.157088 -0.170686 0.313232 198 198 198
0.159541 -0.169300 0.313234 199 199 199
0.162008 -0.167940 0.313238 199 199 199
0.164369 -0.166388 0.313226 199 199 199
0.166769 -0.164906 0.313220 199 199 199
0.169320 -0.163699 0.313237 199 199 199
0.171879 -0.162509 0.313255 199 199 199
0.174399 -0.161249 0.313268 199 199 199
0.176432 -0.159091 0.313205 199 199 199
0.178618 -0.157211 0.313165 199 199 199
0.180743 -0.155216 0.313115 199 199 199
0.182869 -0.153221 0.313066 199 199 199
0.185146 -0.151505 0.313040 199 199 199
0.187490 -0.149911 0.313024 199 199 199
0.189834 -0.148318 0.313009 199 199 199
0.192179 -0.146723 0.312993 199 199 199
0.194427 -0.144946 0.312962 199 199 199
0.196568 -0.142967 0.312915 199 199 199
0.198714 -0.140993 0.312867 199 199 199
0.200861 -0.139018 0.312820 199 199 199
0.203008 -0.137042 0.312772 199 199 199
0.205088 -0.134934 0.312714 199 199 199
0.207321 -0.133114 0.312680 199 199 199
0.209547 -0.131279 0.312644 199 199 199
0.211721 -0.129343 0.312600 199 199 199
0.213951 -0.127512 0.312565 199 199 199
0.216340 -0.125984 0.312556 199 199 199
0.218869 -0.124728 0.312569 199 199 199
0.221400 -0.123477 0.312582 200 200 200
0.223982 -0.122324 0.312604 199 199 199
0.226620 -0.121280 0.312635 199 199 199
0.229257 -0.120238 0.312666 199 199 199
0.231893 -0.119195 0.312697 199 199 199
0.234323 -0.117752 0.312694 199 199 199
0.236512 -0.115834 0.312652 199 199 199
0.238716 -0.113941 0.312612 199 199 199
0.240888 -0.111984 0.312567 199 199 199
0.243125 -0.110152 0.312532 198 198 198
0.245347 -0.108290 0.312495 198 198 198
0.247565 -0.106417 0.312457 198 198 198
0.249782 -0.104538 0.312418 197 197 197
0.251988 -0.102637 0.312378 197 197 197
0.254344 -0.101033 0.312362 197 197 197
0.256962 -0.099955 0.312390 197 197 197
0.259579 -0.098876 0.312418 197 197 197
0.262195 -0.097798 0.312446 197 197 197
0.264734 -0.096566 0.312461 197 197 197
0.266773 -0.094320 0.312392 197 197 197
0.268814 -0.092071 0.312323 196 196 196
0.271096 -0.090311 0.312294 196 196 196
0.273435 -0.088666 0.312275 196 196 196
0.275387 -0.086226 0.312191 196 196 196
0.277310 -0.083720 0.312101 196 196 196
0.279228 -0.081198 0.312009 196 196 196
0.281148 -0.078675 0.311918 195 195 195
0.283178 -0.076374 0.311846 195 195 195
0.285257 -0.074170 0.311781 195 195 195
0.287253 -0.071790 0.311702 195 195 195
0.289181 -0.069261 0.311610 196 196 196
0.291117 -0.066744 0.311520 196 196 196
0.293014 -0.064138 0.311423 196 196 196
0.294910 -0.061526 0.311325 196 196 196
0.296792 -0.058876 0.311224 196 196 196
0.298693 -0.056261 0.311127 196 196 196
0.300658 -0.053775 0.311040 196 196 196
0.302564 -0.051158 0.310942 196 196 196
0.304472 -0.048539 0.310844 196 196 196
0.306367 -0.045887 0.310744 197 197 197
0.308005 -0.042676 0.310598 197 197 197
0.309505 -0.039158 0.310427 197 197 197
0.311008 -0.035635 0.310256 197 197 197
0.312434 -0.031935 0.310070 197 197 197
0.313912 -0.028336 0.309893 197 197 197
0.315202 -0.024314 0.309682 197 197 197
0.316481 -0.020258 0.309468 197 197 197
0.317946 -0.016592 0.309286 197 197 197
0.319432 -0.012961 0.309108 197 197 197
0.320686 -0.008807 0.308887 197 197 197
0.321226 -0.003065 0.308537 196 196 196
0.322135 0.001885 0.308251 195 195 195
0.323479 0.005889 0.308043 195 195 195
0.324900 0.009734 0.307849 195 195 195
0.326318 0.013603 0.307652 194 194 194
0.327819 0.017296 0.307470 194 194 194
0.329477 0.020650 0.307315 195 195 195
0.331138 0.024009 0.307161 195 195 195
0.332627 0.027766 0.306974 195 195 195
0.333498 0.032932 0.306673 196 196 196
0.334219 0.038457 0.306344 197 197 197
0.334138 0.045825 0.305866 200 200 200
0.333027 0.055575 0.305197 205 205 205
0.319442 0.093864 0.302224 207 207 207
0.314774 0.111932 0.300885 208 208 208
-0.305529 -0.208065 0.295410 133 133 133
-0.296862 -0.214567 0.296162 178 178 178
-0.288868 -0.220211 0.296832 179 179 179
-0.281429 -0.225146 0.297435 181 181 181
-0.273451 -0.230826 0.298107 185 185 185
-0.262464 -0.240556 0.299157 190 190 190
-0.248958 -0.253704 0.300526 193 193 193
-0.238554 -0.262753 0.301509 188 188 188
-0.230969 -0.268058 0.302142 187 187 187
-0.223842 -0.272775 0.302719 186 186 186
-0.217291 -0.276740 0.303225 186 186 186
-0.211197 -0.280110 0.303675 185 185 185
-0.205185 -0.283388 0.304116 184 184 184
-0.199841 -0.285781 0.304474 184 184 184
-0.195193 -0.287241 0.304745 183 183 183
-0.190727 -0.288465 0.304993 182 182 182
-0.186507 -0.289365 0.305211 183 183 183
-0.182187 -0.290412 0.305442 182 182 182
-0.177877 -0.291457 0.305673 182 182 182
-0.173515 -0.292582 0.305911 181 181 181
-0.169149 -0.293724 0.306151 181 181 181
-0.164812 -0.294838 0.306387 181 181 181
-0.160149 -0.296412 0.306666 182 182 182
-0.155485 -0.298002 0.306946 185 185 185
-0.151377 -0.298832 0.307155 185 185 185
-0.147295 -0.299635 0.307361 185 185 185
-0.143482 -0.300072 0.307534 186 186 186
-0.139890 -0.300207 0.307678 186 186 186
-0.136363 -0.300258 0.307814 187 187 187
-0.132772 -0.300406 0.307959 188 188 188
-0.128920 -0.300927 0.308139 188 188 188
-0.125028 -0.301514 0.308324 188 188 188
-0.121143 -0.302099 0.308509 188 188 188
-0.117203 -0.302772 0.308701 189 189 189
-0.113147 -0.303618 0.308909 189 189 189
-0.108812 -0.304871 0.309155 189 189 189
-0.104382 -0.306270 0.309413 189 189 189
-0.100401 -0.307041 0.309614 190 190 190
-0.096834 -0.307226 0.309760 190 190 190
-0.093330 -0.307329 0.309899 191 191 191
-0.089911 -0.307317 0.310027 191 191 191
-0.086761 -0.306922 0.310120 191 191 191
-0.083614 -0.306528 0.310213 191 191 191
-0.080469 -0.306134 0.310306 191 191 191
-0.077350 -0.305707 0.310396 192 192 192
-0.074175 -0.305366 0.310494 192 192 192
-0.071003 -0.305025 0.310591 192 192 192
-0.067735 -0.304830 0.310701 192 192 192
-0.064457 -0.304654 0.310814 192 192 192
-0.061366 -0.304210 0.310901 192 192 192
-0.058252 -0.303804 0.310992 192 192 192
-0.055138 -0.303401 0.311083 193 193 193
-0.052001 -0.303037 0.311178 193 193 193
-0.048843 -0.302709 0.311276 193 193 193
-0.045687 -0.302382 0.311373 193 193 193
-0.042350 -0.302330 0.311496 193 193 193
-0.039404 -0.301701 0.311566 194 194 194
-0.036655 -0.300780 0.311609 193 193 193
-0.033856 -0.299937 0.311660 193 193 193
-0.030744 -0.299565 0.311753 193 193 193
-0.027643 -0.299182 0.311845 193 193 193
-0.024547 -0.298797 0.311936 193 193 193
-0.021453 -0.298411 0.312028 193 193 193
-0.018568 -0.297715 0.312091 192 192 192
-0.015734 -0.296945 0.312148 193 193 193
-0.012979 -0.296056 0.312194 193 193 193
-0.010482 -0.294777 0.312204 193 193 193
-0.008058 -0.293386 0.312205 194 194 194
-0.005392 -0.292367 0.312239 194 194 194
-0.002622 -0.291509 0.312287 194 194 194
0.000147 -0.290652 0.312336 194 194 194
0.002915 -0.289795 0.312384 194 194 194
0.005727 -0.289009 0.312439 194 194 194
0.008582 -0.288292 0.312500 195 195 195
0.011492 -0.287663 0.312568 195 195 195
0.014568 -0.287296 0.312660 196 196 196
0.017199 -0.286240 0.312691 196 196 196
0.019660 -0.284920 0.312697 196 196 196
0.022215 -0.283747 0.312717 196 196 196
0.025005 -0.282944 0.312770 196 196 196
0.027699 -0.281994 0.312809 197 197 197
0.029732 -0.280004 0.312756 197 197 197
0.031765 -0.278010 0.312702 197 197 197
0.033896 -0.276170 0.312663 197 197 197
0.036180 -0.274569 0.312644 198 198 198
0.038496 -0.273019 0.312630 198 198 198
0.041329 -0.272292 0.312690 197 197 197
0.044160 -0.271565 0.312749 197 197 197
0.046990 -0.270839 0.312808 197 197 197
0.049767 -0.270032 0.312860 197 197 197
0.052622 -0.269351 0.312923 197 197 197
0.055420 -0.268583 0.312979 197 197 197
0.058216 -0.267815 0.313034 197 197 197
0.060835 -0.266763 0.313064 197 197 197
0.063067 -0.265084 0.313039 197 197 197
0.065232 -0.263294 0.313003 197 197 197
0.067457 -0.261600 0.312977 197 197 197
0.069797 -0.260094 0.312966 197 197 197
0.072302 -0.258858 0.312980 197 197 197
0.074818 -0.257639 0.312995 197 197 197
0.077314 -0.256389 0.313008 197 197 197
0.079706 -0.254967 0.313005 197 197 197
0.081930 -0.253269 0.312978 198 198 198
0.084137 -0.251539 0.312948 198 198 198
0.086344 -0.249809 0.312919 198 198 198
0.088620 -0.248192 0.312899 198 198 198
0.090864 -0.246522 0.312874 199 199 199
0.092765 -0.244275 0.312799 199 199 199
0.094466 -0.241690 0.312695 199 199 199
0.096113 -0.239008 0.312581 199 199 199
0.097764 -0.236327 0.312469 199 199 199
0.099829 -0.234339 0.312417 199 199 199
0.101919 -0.232391 0.312368 199 199 199
0.104024 -0.230464 0.312322 199 199 199
0.106151 -0.228573 0.312278 199 199 199
0.108292 -0.226704 0.312237 199 199 199
0.110264 -0.224544 0.312170 198 198 198
0.112229 -0.222368 0.312102 198 198 198
0.114195 -0.220191 0.312034 198 198 198
0.116276 -0.218207 0.311983 198 198 198
0.118326 -0.216167 0.311927 198 198 198
0.120761 -0.214790 0.311929 198 198 198
0.123219 -0.213452 0.311934 198 198 198
0.125676 -0.212114 0.311940 198 198 198
0.128108 -0.210732 0.311941 198 198 198
0.130286 -0.208906 0.311904 198 198 198
0.132581 -0.207283 0.311884 198 198 198
0.134877 -0.205661 0.311865 198 198 198
0.137237 -0.204150 0.311855 198 198 198
0.139606 -0.202655 0.311847 198 198 198
0.141925 -0.201072 0.311831 198 198 198
0.144197 -0.199403 0.311808 198 198 198
0.146426 -0.197657 0.311778 199 199 199
0.148591 -0.195796 0.311738 199 199 199
0.150955 -0.194288 0.311729 199 199 199
0.153319 -0.192779 0.311719 199 199 199
0.155682 -0.191266 0.311709 199 199 199
0.158045 -0.189754 0.311700 199 199 199
0.160129 -0.187740 0.311647 199 199 199
0.162264 -0.185815 0.311601 199 199 199
0.164471 -0.184017 0.311567 199 199 199
0.166707 -0.182269 0.311537 198 198 198
0.168927 -0.180491 0.311505 198 198 198
0.171107 -0.178639 0.311466 198 198 198
0.173224 -0.176668 0.311417 198 198 198
0.175348 -0.174710 0.311370 198 198 198
0.177540 -0.172872 0.311332 198 198 198
0.180020 -0.171561 0.311340 198 198 198
0.182527 -0.170301 0.311352 198 198 198
0.185070 -0.169108 0.311370 198 198 198
0.187367 -0.167460 0.311349 198 198 198
0.189943 -0.166331 0.311373 198 198 198
0.192620 -0.165388 0.311412 198 198 198
0.195295 -0.164446 0.311451 198 198 198
0.197970 -0.163505 0.311491 198 198 198
0.200425 -0.162155 0.311495 198 198 198
0.202723 -0.160508 0.311474 199 199 199
0.205004 -0.158831 0.311451 200 200 200
0.206714 -0.156070 0.311335 199 199 199
0.208450 -0.153353 0.311223 200 200 200
0.210486 -0.151200 0.311159 200 200 200
0.212499 -0.149000 0.311091 199 199 199
0.214475 -0.146724 0.311017 199 199 199
0.216451 -0.144445 0.310943 199 199 199
0.218706 -0.142695 0.310913 199 199 199
0.221560 -0.142096 0.310982 199 199 199
0.224412 -0.141497 0.311050 199 199 199
0.227263 -0.140899 0.311119 199 199 199
0.229956 -0.140001 0.311162 199 199 199
0.232363 -0.138549 0.311158 198 198 198
0.234668 -0.136898 0.311137 198 198 198
0.236937 -0.135175 0.311110 198 198 198
0.239184 -0.133408 0.311079 198 198 198
0.241280 -0.131344 0.311023 199 199 199
0.243378 -0.129279 0.310967 199 199 199
0.245476 -0.127212 0.310912 198 198 198
0.247578 -0.125149 0.310856 198 198 198
0.249772 -0.123265 0.310816 198 198 198
0.251967 -0.121380 0.310775 198 198 198
0.254163 -0.119494 0.310735 197 197 197
0.256359 -0.117608 0.310695 197 197 197
0.258453 -0.115513 0.310637 197 197 197
0.260688 -0.113700 0.310603 197 197 197
0.263085 -0.112209 0.310596 196 196 196
0.265579 -0.110913 0.310605 196 196 196
0.268014 -0.109499 0.310605 197 197 197
0.270227 -0.107634 0.310566 196 196 196
0.272273 -0.105428 0.310499 196 196 196
0.274320 -0.103220 0.310432 196 196 196
0.276258 -0.100785 0.310346 196 196 196
0.278033 -0.098011 0.310232 196 196 196
0.279884 -0.095386 0.310130 196 196 196
0.281718 -0.092718 0.310025 196 196 196
0.283523 -0.089987 0.309915 196 196 196
0.285382 -0.087359 0.309813 195 195 195
0.287311 -0.084868 0.309723 195 195 195
0.289265 -0.082426 0.309637 195 195 195
0.291252 -0.080047 0.309557 195 195 195
0.293261 -0.077709 0.309480 195 195 195
0.295245 -0.075315 0.309398 195 195 195
0.297222 -0.072899 0.309315 195 195 195
0.299201 -0.070482 0.309232 195 195 195
0.301117 -0.067928 0.309137 195 195 195
0.302993 -0.065282 0.309035 195 195 195
0.304812 -0.062510 0.308923 195 195 195
0.306634 -0.059735 0.308810 195 195 195
0.308457 -0.056957 0.308697 195 195 195
0.310361 -0.054343 0.308598 195 195 195
0.312061 -0.051287 0.308463 196 196 196
0.313748 -0.048193 0.308324 196 196 196
0.315437 -0.045094 0.308186 196 196 196
0.317022 -0.041764 0.308028 196 196 196
0.318397 -0.037964 0.307831 196 196 196
0.319632 -0.033849 0.307609 196 196 196
0.320890 -0.029770 0.307390 196 196 196
0.322185 -0.025757 0.307177 196 196 196
0.323481 -0.021732 0.306963 196 196 196
0.324567 -0.017232 0.306710 196 196 196
0.325654 -0.012717 0.306456 196 196 196
0.326748 -0.008201 0.306202 196 196 196
0.327376 -0.002636 0.305862 196 196 196
0.328522 0.001801 0.305615 195 195 195
0.329649 0.006295 0.305364 194 194 194
0.331111 0.010059 0.305174 194 194 194
0.332574 0.013830 0.304982 194 194 194
0.334007 0.017684 0.304785 194 194 194
0.335327 0.021804 0.304565 194 194 194
0.336600 0.026047 0.304336 195 195 195
0.337600 0.030923 0.304055 195 195 195
0.338307 0.036484 0.303719 196 196 196
0.338671 0.042847 0.303317 198 198 198
0.338172 0.051210 0.302752 201 201 201
0.333771 0.068550 0.301453 208 208 208
0.318458 0.111044 0.298099 208 208 208
-0.300712 -0.214534 0.293004 178 178 178
-0.291652 -0.221569 0.293817 179 179 179
-0.284108 -0.226628 0.294440 181 181 181
-0.274801 -0.234059 0.295288 187 187 187
-0.260812 -0.247769 0.296731 189 189 189
-0.249216 -0.258346 0.297874 189 189 189
-0.240079 -0.265683 0.298709 186 186 186
-0.231846 -0.271845 0.299432 183 183 183
-0.224659 -0.276633 0.300024 184 184 184
-0.217884 -0.280892 0.300565 184 184 184
-0.211852 -0.284172 0.301013 183 183 183
-0.206055 -0.287155 0.301432 182 182 182
-0.201223 -0.288849 0.301729 182 182 182
-0.196768 -0.290044 0.301978 180 180 180
-0.192256 -0.291327 0.302236 180 180 180
-0.187804 -0.292540 0.302486 179 179 179
-0.183682 -0.293313 0.302695 179 179 179
-0.179280 -0.294481 0.302941 179 179 179
-0.175017 -0.295468 0.303169 178 178 178
-0.170364 -0.297002 0.303448 180 180 180
-0.166033 -0.298104 0.303687 180 180 180
-0.160968 -0.300231 0.304021 180 180 180
-0.155926 -0.302341 0.304354 183 183 183
-0.151704 -0.303330 0.304581 184 184 184
-0.147729 -0.303984 0.304776 184 184 184
-0.143819 -0.304558 0.304964 185 185 185
-0.140261 -0.304648 0.305106 185 185 185
-0.136328 -0.305269 0.305297 186 186 186
-0.132574 -0.305650 0.305466 187 187 187
-0.128460 -0.306543 0.305682 187 187 187
-0.124394 -0.307378 0.305893 187 187 187
-0.120337 -0.308211 0.306103 187 187 187
-0.116277 -0.309057 0.306314 188 188 188
-0.111959 -0.310279 0.306560 188 188 188
-0.107637 -0.311517 0.306808 188 188 188
-0.103058 -0.313134 0.307090 188 188 188
-0.099273 -0.313630 0.307267 189 189 189
-0.095825 -0.313654 0.307401 189 189 189
-0.092368 -0.313696 0.307536 189 189 189
-0.088937 -0.313707 0.307667 190 190 190
-0.085624 -0.313554 0.307784 190 190 190
-0.082314 -0.313402 0.307900 191 191 191
-0.079087 -0.313137 0.308006 191 191 191
-0.075791 -0.312976 0.308122 191 191 191
-0.072125 -0.313357 0.308287 191 191 191
