ply
format ascii 1.0
element vertex 1201
property float x
property float y
property float z
property uchar red
property uchar green
property uchar blue
end_header
0.347128 -0.240153 0.153153 170 170 170
0.349011 -0.238173 0.153245 171 171 171
0.351016 -0.236264 0.153356 171 171 171
0.353017 -0.234353 0.153467 172 172 172
0.354839 -0.232344 0.153549 173 173 173
0.356533 -0.230263 0.153609 174 174 174
0.358240 -0.228191 0.153672 176 176 176
0.360133 -0.226225 0.153766 177 177 177
0.362024 -0.224261 0.153859 177 177 177
0.363915 -0.222297 0.153953 178 178 178
0.365444 -0.220128 0.153987 178 178 178
0.366464 -0.217667 0.153938 179 179 179
0.367608 -0.215276 0.153908 180 180 180
0.368753 -0.212886 0.153879 181 181 181
0.369897 -0.210495 0.153850 181 181 181
0.371004 -0.208081 0.153815 182 182 182
0.371929 -0.205561 0.153749 182 182 182
0.372854 -0.203040 0.153684 182 182 182
0.373823 -0.200543 0.153625 182 182 182
0.374817 -0.198061 0.153571 182 182 182
0.375882 -0.195619 0.153529 182 182 182
0.377253 -0.193356 0.153537 182 182 182
0.378624 -0.191093 0.153545 182 182 182
0.379995 -0.188831 0.153553 182 182 182
0.381467 -0.186629 0.153577 182 182 182
0.383311 -0.184648 0.153664 181 181 181
0.385437 -0.182836 0.153797 181 181 181
0.387646 -0.181076 0.153945 182 182 182
0.389810 -0.179292 0.154085 182 182 182
0.391893 -0.177462 0.154211 182 182 182
0.393956 -0.175622 0.154335 182 182 182
0.396019 -0.173783 0.154458 182 182 182
0.398084 -0.171948 0.154582 182 182 182
0.400151 -0.170117 0.154707 182 182 182
0.401909 -0.168100 0.154780 182 182 182
0.403594 -0.166040 0.154842 182 182 182
0.405279 -0.163980 0.154903 182 182 182
0.406963 -0.161922 0.154964 182 182 182
0.408647 -0.159864 0.155025 182 182 182
0.410016 -0.157614 0.155034 182 182 182
0.411094 -0.155186 0.154994 182 182 182
0.411984 -0.152640 0.154922 182 182 182
0.412874 -0.150093 0.154851 181 181 181
0.413766 -0.147547 0.154779 181 181 181
0.414684 -0.145015 0.154712 181 181 181
0.415581 -0.142469 0.154641 181 181 181
0.416226 -0.139765 0.154528 181 181 181
0.416855 -0.137049 0.154412 181 181 181
0.417483 -0.134330 0.154296 181 181 181
0.418098 -0.131601 0.154177 181 181 181
0.418477 -0.128721 0.154019 181 181 181
0.418854 -0.125838 0.153860 181 181 181
0.419231 -0.122952 0.153701 181 181 181
0.419609 -0.120063 0.153542 181 181 181
0.419930 -0.117136 0.153373 180 180 180
0.420209 -0.114179 0.153196 180 180 180
0.420489 -0.111220 0.153020 180 180 180
0.420769 -0.108257 0.152843 179 179 179
0.421271 -0.105434 0.152704 179 179 179
0.421861 -0.102665 0.152579 179 179 179
0.422537 -0.099949 0.152469 179 179 179
0.423242 -0.097250 0.152364 178 178 178
0.423787 -0.094446 0.152231 178 178 178
0.424184 -0.091544 0.152074 178 178 178
0.424582 -0.088639 0.151916 178 178 178
0.424881 -0.085667 0.151741 177 177 177
0.425145 -0.082670 0.151560 177 177 177
0.425341 -0.079624 0.151367 178 178 178
0.425536 -0.076575 0.151174 178 178 178
0.425729 -0.073521 0.150980 178 178 178
0.425981 -0.070503 0.150796 178 178 178
0.426250 -0.067492 0.150614 178 178 178
0.426496 -0.064463 0.150429 178 178 178
0.426745 -0.061434 0.150244 178 178 178
0.426991 -0.058398 0.150058 178 178 178
0.427010 -0.055208 0.149832 178 178 178
0.427029 -0.052015 0.149607 178 178 178
0.427059 -0.048825 0.149384 177 177 177
0.427116 -0.045649 0.149164 177 177 177
0.426766 -0.042196 0.148875 177 177 177
0.426318 -0.038671 0.148568 177 177 177
0.425713 -0.035036 0.148235 176 176 176
0.424943 -0.031283 0.147872 175 175 175
0.424390 -0.027670 0.147546 174 174 174
0.423977 -0.024148 0.147244 173 173 173
0.423802 -0.020781 0.146982 172 172 172
0.423814 -0.017538 0.146753 171 171 171
0.423827 -0.014292 0.146523 171 171 171
0.423888 -0.011074 0.146301 170 170 170
0.423970 -0.007867 0.146083 170 170 170
0.423892 -0.004547 0.145836 170 170 170
0.423786 -0.001202 0.145585 169 169 169
0.423426 0.002323 0.145289 169 169 169
0.422948 0.005934 0.144973 169 169 169
0.422469 0.009552 0.144656 168 168 168
0.421938 0.013212 0.144329 168 168 168
0.421377 0.016899 0.143997 169 169 169
0.421104 0.020389 0.143715 169 169 169
0.420815 0.023897 0.143429 169 169 169
0.420490 0.027434 0.143137 169 169 169
0.420128 0.031003 0.142838 169 169 169
0.419765 0.034577 0.142538 169 169 169
0.419517 0.038076 0.142258 169 169 169
0.419308 0.041552 0.141984 169 169 169
0.419087 0.045041 0.141708 169 169 169
0.418889 0.048519 0.141436 170 170 170
0.418820 0.051910 0.141186 170 170 170
0.418750 0.055306 0.140935 170 170 170
0.418679 0.058707 0.140684 170 170 170
0.418856 0.061934 0.140476 170 170 170
0.419086 0.065127 0.140277 170 170 170
0.419317 0.068323 0.140077 170 170 170
0.419541 0.071528 0.139877 171 171 171
0.419707 0.074778 0.139665 171 171 171
0.419817 0.078072 0.139444 171 171 171
0.419914 0.081380 0.139220 171 171 171
0.419719 0.084904 0.138945 171 171 171
0.419185 0.088682 0.138610 171 171 171
0.418664 0.092456 0.138277 171 171 171
0.417212 0.096917 0.137779 171 171 171
0.414162 0.102563 0.137000 171 171 171
0.410655 0.108559 0.136140 171 171 171
0.404818 0.116290 0.134868 171 171 171
0.399772 0.123459 0.133734 170 170 170
0.394114 0.131102 0.132491 169 169 169
0.388386 0.138819 0.131234 168 168 168
0.384668 0.145063 0.130329 168 168 168
0.381174 0.151156 0.129464 168 168 168
0.378052 0.156986 0.128663 167 167 167
0.373672 0.163773 0.127638 166 166 166
0.368328 0.171302 0.126442 164 164 164
0.358307 0.182371 0.124416 170 170 170
0.345609 0.195496 0.121912 166 166 166
0.339954 0.203344 0.120655 167 167 167
0.336192 0.209782 0.119731 168 168 168
0.333142 0.215696 0.118933 170 170 170
0.329803 0.221844 0.118083 172 172 172
0.327381 0.227309 0.117394 173 173 173
0.324060 0.233473 0.116545 174 174 174
0.322088 0.238620 0.115935 174 174 174
0.320394 0.243564 0.115373 175 175 175
0.318703 0.248517 0.114811 177 177 177
0.316471 0.253896 0.114152 175 175 175
0.314126 0.259375 0.113472 175 175 175
0.312061 0.264650 0.112841 175 175 175
0.310327 0.269680 0.112269 175 175 175
0.308108 0.275096 0.111609 173 173 173
0.305586 0.280760 0.110894 171 171 171
0.303546 0.286062 0.110264 172 172 172
0.301406 0.291453 0.109615 173 173 173
0.297879 0.297942 0.108717 173 173 173
0.293266 0.305300 0.107623 179 179 179
0.270014 0.327333 0.103182 191 191 191
0.256904 0.341456 0.100557 194 194 194
0.197043 0.392542 0.089525 173 173 173
0.193962 0.398903 0.088691 173 173 173
0.190401 0.405660 0.087770 172 172 172
0.186221 0.412925 0.086736 172 172 172
0.178945 0.422675 0.085143 172 172 172
0.166784 0.436351 0.082666 138 138 138
-0.174204 -0.438648 0.099896 156 156 156
-0.163049 -0.439733 0.101361 148 148 148
-0.112452 -0.455989 0.108821 155 155 155
-0.104294 -0.456010 0.109837 162 162 162
-0.096560 -0.455883 0.110790 162 162 162
-0.090173 -0.455248 0.111538 158 158 158
-0.081723 -0.455427 0.112602 153 153 153
-0.033493 -0.471131 0.119728 153 153 153
-0.024156 -0.471735 0.120932 158 158 158
-0.016740 -0.471604 0.121845 162 162 162
-0.011950 -0.470455 0.122358 165 165 165
-0.007460 -0.469195 0.122826 168 168 168
-0.003146 -0.467872 0.123268 170 170 170
0.001310 -0.466613 0.123731 168 168 168
0.005332 -0.465188 0.124129 170 170 170
0.008923 -0.463596 0.124462 170 170 170
0.011713 -0.461690 0.124672 169 169 169
0.014402 -0.459746 0.124866 169 169 169
0.017088 -0.457803 0.125061 167 167 167
0.019763 -0.455860 0.125254 165 165 165
0.022313 -0.453868 0.125428 162 162 162
0.025919 -0.452309 0.125765 160 160 160
0.029739 -0.450842 0.126135 157 157 157
0.033783 -0.449471 0.126539 154 154 154
0.038427 -0.448354 0.127036 147 147 147
0.043476 -0.447410 0.127597 138 138 138
0.048781 -0.446581 0.128197 138 138 138
0.055043 -0.446156 0.128945 138 138 138
0.064228 -0.446955 0.130145 139 139 139
0.070964 -0.446753 0.130968 146 146 146
0.075416 -0.445613 0.131440 150 150 150
0.080099 -0.444577 0.131948 153 153 153
0.084178 -0.443295 0.132363 162 162 162
0.087501 -0.441701 0.132662 164 164 164
0.090709 -0.440063 0.132943 168 168 168
0.093032 -0.438056 0.133088 168 168 168
0.095385 -0.436063 0.133237 170 170 170
0.097851 -0.434121 0.133405 171 171 171
0.100382 -0.432210 0.133582 172 172 172
0.103240 -0.430441 0.133811 173 173 173
0.105671 -0.428492 0.133973 174 174 174
0.108282 -0.426623 0.134164 174 174 174
0.110549 -0.424609 0.134301 174 174 174
0.112789 -0.422585 0.134434 174 174 174
0.116322 -0.421124 0.134769 173 173 173
0.120442 -0.419924 0.135195 173 173 173
0.124461 -0.418687 0.135606 172 172 172
0.128035 -0.417261 0.135948 171 171 171
0.131434 -0.415763 0.136263 170 170 170
0.134500 -0.414125 0.136527 168 168 168
0.137808 -0.412597 0.136828 167 167 167
0.141351 -0.411178 0.137167 167 167 167
0.144896 -0.409765 0.137507 167 167 167
0.148448 -0.408360 0.137847 166 166 166
0.151356 -0.406673 0.138088 165 165 165
0.154588 -0.405136 0.138380 164 164 164
0.157816 -0.403601 0.138671 163 163 163
0.161115 -0.402102 0.138973 163 163 163
0.164467 -0.400632 0.139285 162 162 162
0.168913 -0.399662 0.139768 163 163 163
0.173050 -0.398559 0.140203 161 161 161
0.176874 -0.397321 0.140590 161 161 161
0.180604 -0.396046 0.140962 164 164 164
0.183813 -0.394539 0.141253 162 162 162
0.186369 -0.392737 0.141442 161 161 161
0.188843 -0.390900 0.141617 161 161 161
0.191714 -0.389249 0.141856 160 160 160
0.194273 -0.387458 0.142046 158 158 158
0.196357 -0.385449 0.142161 158 158 158
0.199021 -0.383712 0.142367 157 157 157
0.201928 -0.382091 0.142612 157 157 157
0.205364 -0.380721 0.142941 154 154 154
0.208534 -0.379233 0.143229 154 154 154
0.211700 -0.377746 0.143516 155 155 155
0.215374 -0.376503 0.143883 155 155 155
0.218530 -0.375022 0.144169 156 156 156
0.222024 -0.373705 0.144509 157 157 157
0.225642 -0.372453 0.144869 157 157 157
0.228564 -0.370874 0.145119 158 158 158
0.231078 -0.369105 0.145305 159 159 159
0.233589 -0.367338 0.145490 160 160 160
0.236029 -0.365540 0.145665 161 161 161
0.238090 -0.363562 0.145779 162 162 162
0.239920 -0.361474 0.145857 163 163 163
0.241749 -0.359388 0.145934 163 163 163
0.243621 -0.357323 0.146019 164 164 164
0.245513 -0.355270 0.146107 164 164 164
0.247552 -0.353289 0.146218 163 163 163
0.249525 -0.351278 0.146319 164 164 164
0.251495 -0.349268 0.146420 164 164 164
0.253465 -0.347258 0.146521 164 164 164
0.255433 -0.345250 0.146621 164 164 164
0.257473 -0.343279 0.146733 165 165 165
0.259472 -0.341288 0.146839 167 167 167
0.261392 -0.339261 0.146932 168 168 168
0.263181 -0.337170 0.147004 168 168 168
0.265031 -0.335111 0.147087 169 169 169
0.266933 -0.333078 0.147177 169 169 169
0.268843 -0.331052 0.147269 169 169 169
0.270753 -0.329026 0.147361 168 168 168
0.272779 -0.327061 0.147472 169 169 169
0.274870 -0.325131 0.147594 170 170 170
0.277512 -0.323481 0.147804 170 170 170
0.280127 -0.321821 0.148010 170 170 170
0.282739 -0.320163 0.148216 171 171 171
0.285348 -0.318507 0.148421 171 171 171
0.287859 -0.316803 0.148611 171 171 171
0.290364 -0.315100 0.148800 171 171 171
0.292882 -0.313407 0.148992 171 171 171
0.295398 -0.311715 0.149183 172 172 172
0.297791 -0.309964 0.149355 172 172 172
0.300154 -0.308199 0.149522 172 172 172
0.302515 -0.306436 0.149690 172 172 172
0.304874 -0.304675 0.149856 172 172 172
0.307114 -0.302854 0.150004 172 172 172
0.308949 -0.300824 0.150087 172 172 172
0.310784 -0.298795 0.150169 172 172 172
0.312476 -0.296692 0.150229 172 172 172
0.313997 -0.294500 0.150260 172 172 172
0.315426 -0.292259 0.150277 172 172 172
0.316555 -0.289861 0.150245 172 172 172
0.317609 -0.287421 0.150201 172 172 172
0.318673 -0.284987 0.150159 171 171 171
0.319794 -0.282582 0.150126 171 171 171
0.320915 -0.280176 0.150092 171 171 171
0.322037 -0.277770 0.150059 171 171 171
0.323140 -0.275354 0.150023 170 170 170
0.324240 -0.272936 0.149986 170 170 170
0.325495 -0.270601 0.149974 169 169 169
0.326795 -0.268289 0.149970 169 169 169
0.328095 -0.265978 0.149966 169 169 169
0.329395 -0.263667 0.149961 169 169 169
0.330772 -0.261398 0.149970 169 169 169
0.332175 -0.259143 0.149982 168 168 168
0.333749 -0.256982 0.150023 168 168 168
0.335324 -0.254822 0.150064 168 168 168
0.336898 -0.252663 0.150105 168 168 168
0.338508 -0.250524 0.150151 168 168 168
0.340181 -0.248421 0.150208 168 168 168
0.341888 -0.246337 0.150271 168 168 168
0.343737 -0.244334 0.150357 168 168 168
0.345575 -0.242326 0.150441 169 169 169
0.347410 -0.240318 0.150525 169 169 169
0.349416 -0.238407 0.150638 170 170 170
0.351421 -0.236497 0.150750 171 171 171
0.353425 -0.234588 0.150862 172 172 172
0.355397 -0.232664 0.150969 173 173 173
0.357108 -0.230593 0.151033 175 175 175
0.359001 -0.228627 0.151127 175 175 175
0.360893 -0.226661 0.151222 176 176 176
0.362786 -0.224698 0.151316 176 176 176
0.364693 -0.222745 0.151413 177 177 177
0.366568 -0.220774 0.151505 177 177 177
0.368015 -0.218559 0.151526 178 178 178
0.369206 -0.216198 0.151504 179 179 179
0.370397 -0.213835 0.151483 180 180 180
0.371588 -0.211473 0.151461 180 180 180
0.372780 -0.209110 0.151440 181 181 181
0.373930 -0.206723 0.151411 181 181 181
0.374922 -0.204243 0.151357 182 182 182
0.375915 -0.201763 0.151302 182 182 182
0.376909 -0.199283 0.151248 182 182 182
0.377902 -0.196801 0.151193 182 182 182
0.378944 -0.194347 0.151146 182 182 182
0.380314 -0.192086 0.151154 182 182 182
0.381820 -0.189905 0.151185 182 182 182
0.383389 -0.187762 0.151226 181 181 181
0.385251 -0.185794 0.151317 181 181 181
0.387365 -0.183977 0.151449 181 181 181
0.389476 -0.182162 0.151581 181 181 181
0.391643 -0.180381 0.151723 181 181 181
0.393797 -0.178595 0.151862 181 181 181
0.395866 -0.176761 0.151988 181 181 181
0.397935 -0.174928 0.152114 181 181 181
0.400002 -0.173096 0.152239 181 181 181
0.401818 -0.171115 0.152323 181 181 181
0.403661 -0.169151 0.152411 181 181 181
0.405464 -0.167165 0.152493 181 181 181
0.407148 -0.165107 0.152554 181 181 181
0.408830 -0.163050 0.152616 181 181 181
0.410145 -0.160768 0.152616 181 181 181
0.411362 -0.158427 0.152599 181 181 181
0.412580 -0.156085 0.152582 181 181 181
0.413631 -0.153641 0.152537 181 181 181
0.414521 -0.151096 0.152465 181 181 181
0.415411 -0.148550 0.152393 181 181 181
0.416233 -0.145961 0.152310 181 181 181
0.416849 -0.143241 0.152191 181 181 181
0.417434 -0.140501 0.152067 181 181 181
0.418032 -0.137767 0.151945 181 181 181
0.418662 -0.135050 0.151828 181 181 181
0.419290 -0.132331 0.151711 181 181 181
0.419829 -0.129553 0.151578 181 181 181
0.420206 -0.126671 0.151419 181 181 181
0.420575 -0.123781 0.151257 181 181 181
0.420876 -0.120845 0.151084 180 180 180
0.421158 -0.117894 0.150907 180 180 180
0.421484 -0.114968 0.150737 180 180 180
0.421786 -0.112024 0.150563 179 179 179
0.422066 -0.109063 0.150386 179 179 179
0.422357 -0.106106 0.150209 179 179 179
0.422947 -0.103338 0.150084 179 179 179
0.423651 -0.100641 0.149978 178 178 178
0.424167 -0.097821 0.149840 178 178 178
0.424657 -0.094982 0.149697 178 178 178
0.425086 -0.092102 0.149543 178 178 178
0.425484 -0.089198 0.149384 177 177 177
0.425768 -0.086217 0.149206 177 177 177
0.426045 -0.083229 0.149025 177 177 177
0.426276 -0.080207 0.148837 177 177 177
0.426472 -0.077159 0.148643 178 178 178
0.426672 -0.074111 0.148449 177 177 177
0.426890 -0.071071 0.148258 177 177 177
0.427184 -0.068078 0.148079 178 178 178
0.427431 -0.065050 0.147892 178 178 178
0.427686 -0.062025 0.147707 178 178 178
0.427989 -0.059029 0.147530 178 178 178
0.428120 -0.055914 0.147322 178 178 178
0.428139 -0.052722 0.147095 177 177 177
0.428158 -0.049525 0.146868 177 177 177
0.428177 -0.046325 0.146641 177 177 177
0.427731 -0.042808 0.146333 176 176 176
0.427222 -0.039243 0.146013 175 175 175
0.426360 -0.035435 0.145633 175 175 175
0.425532 -0.031643 0.145258 175 175 175
0.424928 -0.027996 0.144921 174 174 174
0.424436 -0.024420 0.144603 173 173 173
0.424141 -0.020972 0.144318 172 172 172
0.424153 -0.017730 0.144087 171 171 171
0.424166 -0.014483 0.143856 171 171 171
0.424179 -0.011232 0.143624 170 170 170
0.424129 -0.007934 0.143381 170 170 170
0.423986 -0.004569 0.143121 169 169 169
0.423709 -0.001105 0.142838 169 169 169
0.423299 0.002455 0.142532 169 169 169
0.422790 0.006089 0.142207 169 169 169
0.422308 0.009710 0.141887 168 168 168
0.421813 0.013345 0.141565 168 168 168
0.421368 0.016952 0.141251 168 168 168
0.421095 0.020443 0.140966 168 168 168
0.420812 0.023947 0.140679 169 169 169
0.420460 0.027504 0.140380 169 169 169
0.420091 0.031078 0.140078 169 169 169
0.419729 0.034653 0.139776 169 169 169
0.419438 0.038182 0.139486 169 169 169
0.419207 0.041674 0.139207 169 169 169
0.418938 0.045199 0.138920 170 170 170
0.418689 0.048714 0.138637 170 170 170
0.418644 0.052088 0.138389 170 170 170
0.418767 0.055347 0.138170 170 170 170
0.418885 0.058613 0.137950 170 170 170
0.418990 0.061893 0.137728 170 170 170
0.419218 0.065088 0.137527 170 170 170
0.419447 0.068285 0.137326 170 170 170
0.419676 0.071487 0.137124 171 171 171
0.419798 0.074769 0.136904 170 170 170
0.419895 0.078073 0.136679 171 171 171
0.419992 0.081382 0.136453 171 171 171
0.420010 0.084752 0.136213 171 171 171
0.419483 0.088524 0.135877 171 171 171
0.418540 0.092606 0.135467 171 171 171
0.417128 0.097040 0.134973 171 171 171
0.414071 0.102692 0.134187 170 170 170
0.410528 0.108715 0.133314 170 170 170
0.404117 0.116871 0.131931 170 170 170
0.398957 0.124126 0.130768 170 170 170
0.392598 0.132291 0.129391 168 168 168
0.387611 0.139461 0.128256 168 168 168
0.384212 0.145469 0.127402 168 168 168
0.380706 0.151572 0.126528 168 168 168
0.376921 0.157899 0.125603 168 168 168
0.372550 0.164682 0.124572 167 167 167
0.366335 0.172868 0.123211 166 166 166
0.355439 0.184600 0.121014 171 171 171
0.344249 0.196593 0.118761 168 168 168
0.339058 0.204094 0.117577 169 169 169
0.335628 0.210283 0.116706 169 169 169
0.332682 0.216119 0.115920 170 170 170
0.329623 0.222056 0.115114 171 171 171
0.327250 0.227485 0.114429 172 172 172
0.324591 0.233145 0.113692 173 173 173
0.322620 0.238291 0.113077 174 174 174
0.320843 0.243299 0.112497 174 174 174
0.319191 0.248222 0.111938 175 175 175
0.317306 0.253334 0.111336 174 174 174
0.314971 0.258805 0.110653 174 174 174
0.312672 0.264259 0.109975 174 174 174
0.310598 0.269552 0.109337 173 173 173
0.308347 0.274994 0.108667 172 172 172
0.305741 0.280724 0.107931 170 170 170
0.303531 0.286159 0.107266 171 171 171
0.300445 0.292290 0.106442 170 170 170
0.297106 0.298635 0.105571 172 172 172
0.292011 0.306372 0.104382 176 176 176
0.276561 0.322275 0.101319 189 189 189
0.262806 0.336897 0.098558 190 190 190
0.196904 0.392746 0.086352 175 175 175
0.193692 0.399211 0.085489 174 174 174
0.190267 0.405862 0.084585 173 173 173
0.184963 0.414022 0.083340 172 172 172
0.177469 0.423948 0.081695 173 173 173
-0.186424 -0.437264 0.095221 126 126 126
-0.174726 -0.438533 0.096779 152 152 152
-0.164856 -0.439124 0.098058 146 146 146
-0.111978 -0.456252 0.105920 150 150 150
-0.103578 -0.456366 0.106981 160 160 160
-0.095754 -0.456274 0.107954 159 159 159
-0.088651 -0.455917 0.108818 156 156 156
-0.079413 -0.456403 0.110011 156 156 156
-0.037151 -0.469781 0.116273 138 138 138
-0.024329 -0.471743 0.118021 155 155 155
-0.016728 -0.471684 0.118968 160 160 160
-0.010995 -0.470905 0.119630 164 164 164
-0.006492 -0.469651 0.120104 167 167 167
-0.002074 -0.468370 0.120564 165 165 165
0.002198 -0.467038 0.121003 167 167 167
0.006460 -0.465709 0.121441 167 167 167
0.009793 -0.464016 0.121736 168 168 168
0.012400 -0.462036 0.121919 169 169 169
0.015087 -0.460092 0.122115 168 168 168
0.017772 -0.458149 0.122311 167 167 167
0.020360 -0.456171 0.122492 164 164 164
0.022916 -0.454182 0.122669 163 163 163
0.026423 -0.452582 0.122992 161 161 161
0.029960 -0.451000 0.123321 159 159 159
0.033498 -0.449423 0.123650 155 155 155
0.037576 -0.448072 0.124063 149 149 149
0.042359 -0.447017 0.124586 140 140 140
0.047344 -0.446054 0.125141 138 138 138
0.052826 -0.445305 0.125773 138 138 138
0.061588 -0.445925 0.126916 138 138 138
0.070372 -0.446572 0.128063 144 144 144
0.075104 -0.445547 0.128582 149 149 149
0.079824 -0.444525 0.129099 151 151 151
0.083691 -0.443153 0.129484 159 159 159
0.087432 -0.441734 0.129850 161 161 161
0.090617 -0.440086 0.130130 166 166 166
0.093404 -0.438274 0.130348 169 169 169
0.096265 -0.436497 0.130578 170 170 170
0.099122 -0.434722 0.130808 171 171 171
0.101977 -0.432949 0.131037 172 172 172
0.105092 -0.431292 0.131307 173 173 173
0.107352 -0.429271 0.131444 174 174 174
0.109350 -0.427140 0.131541 174 174 174
0.111759 -0.425188 0.131701 174 174 174
0.114564 -0.423410 0.131924 174 174 174
0.117743 -0.421797 0.132205 174 174 174
0.121824 -0.420581 0.132629 173 173 173
0.125627 -0.419251 0.133009 172 172 172
0.129068 -0.417768 0.133333 171 171 171
0.132383 -0.416234 0.133637 169 169 169
0.135447 -0.414595 0.133902 167 167 167
0.138156 -0.412804 0.134112 166 166 166
0.142064 -0.411546 0.134511 166 166 166
0.145664 -0.410158 0.134861 166 166 166
0.148796 -0.408567 0.135139 166 166 166
0.151682 -0.406870 0.135377 165 165 165
0.154915 -0.405333 0.135671 164 164 164
0.157917 -0.403696 0.135929 163 163 163
0.161149 -0.402167 0.136223 161 161 161
0.164912 -0.400882 0.136602 161 161 161
0.168949 -0.399727 0.137024 161 161 161
0.172872 -0.398527 0.137428 160 160 160
0.176697 -0.397288 0.137818 161 161 161
0.180500 -0.396046 0.138204 161 161 161
0.183942 -0.394645 0.138534 159 159 159
0.186476 -0.392832 0.138721 159 159 159
0.188949 -0.390995 0.138898 159 159 159
0.191693 -0.389285 0.139118 158 158 158
0.193916 -0.387338 0.139255 158 158 158
0.196001 -0.385328 0.139371 157 157 157
0.198291 -0.383416 0.139520 156 156 156
0.201186 -0.381789 0.139765 156 156 156
0.204417 -0.380322 0.140063 152 152 152
0.208151 -0.379095 0.140442 152 152 152
0.211493 -0.377690 0.140759 152 152 152
0.214855 -0.376300 0.141080 153 153 153
0.218012 -0.374818 0.141368 155 155 155
0.221315 -0.373410 0.141680 156 156 156
0.224936 -0.372157 0.142043 156 156 156
0.227935 -0.370614 0.142307 157 157 157
0.230654 -0.368942 0.142527 157 157 157
0.233344 -0.367259 0.142742 158 158 158
0.235866 -0.365499 0.142931 159 159 159
0.237857 -0.363487 0.143035 161 161 161
0.239687 -0.361398 0.143113 161 161 161
0.241516 -0.359311 0.143191 162 162 162
0.243361 -0.357233 0.143272 163 163 163
0.245304 -0.355203 0.143368 163 163 163
0.247286 -0.353194 0.143471 163 163 163
0.249262 -0.351184 0.143574 163 163 163
0.251233 -0.349172 0.143675 163 163 163
0.253202 -0.347162 0.143776 163 163 163
0.255222 -0.345178 0.143886 163 163 163
0.257310 -0.343230 0.144006 164 164 164
0.259325 -0.341247 0.144115 165 165 165
0.261322 -0.339257 0.144222 167 167 167
0.263691 -0.337454 0.144388 167 167 167
0.265689 -0.335469 0.144495 168 168 168
0.267692 -0.333487 0.144602 168 168 168
0.269602 -0.331461 0.144695 168 168 168
0.271511 -0.329436 0.144788 168 168 168
0.273500 -0.327452 0.144893 168 168 168
0.275729 -0.325592 0.145038 169 169 169
0.278318 -0.323916 0.145241 170 170 170
0.280932 -0.322256 0.145449 170 170 170
0.283543 -0.320598 0.145656 170 170 170
0.286093 -0.318912 0.145853 170 170 170
0.288600 -0.317207 0.146044 170 170 170
0.291104 -0.315504 0.146235 170 170 170
0.293606 -0.313803 0.146425 170 170 170
0.296078 -0.312090 0.146611 171 171 171
0.298516 -0.310361 0.146791 171 171 171
0.300893 -0.308604 0.146962 172 172 172
0.303253 -0.306841 0.147130 172 172 172
0.305605 -0.305077 0.147297 172 172 172
0.307533 -0.303094 0.147395 172 172 172
0.309369 -0.301064 0.147478 172 172 172
0.311203 -0.299035 0.147561 172 172 172
0.313037 -0.297007 0.147644 172 172 172
0.314634 -0.294855 0.147689 172 172 172
0.315764 -0.292457 0.147657 172 172 172
0.316894 -0.290058 0.147625 172 172 172
0.317986 -0.287639 0.147587 172 172 172
0.319014 -0.285185 0.147538 172 172 172
0.320103 -0.282763 0.147499 171 171 171
0.321225 -0.280358 0.147466 171 171 171
0.322332 -0.277944 0.147430 171 171 171
0.323433 -0.275527 0.147393 170 170 170
0.324533 -0.273108 0.147356 170 170 170
0.325679 -0.270714 0.147326 169 169 169
0.326978 -0.268402 0.147322 169 169 169
0.328278 -0.266090 0.147317 169 169 169
0.329630 -0.263807 0.147322 169 169 169
0.331026 -0.261548 0.147333 169 169 169
0.332407 -0.259281 0.147342 169 169 169
0.333873 -0.257061 0.147365 168 168 168
0.335447 -0.254900 0.147406 168 168 168
0.337022 -0.252741 0.147447 168 168 168
0.338729 -0.250656 0.147510 168 168 168
0.340405 -0.248553 0.147568 168 168 168
0.342135 -0.246483 0.147635 168 168 168
0.343921 -0.244444 0.147712 168 168 168
0.345788 -0.242452 0.147801 169 169 169
0.347787 -0.240535 0.147913 169 169 169
0.349840 -0.238651 0.148034 169 169 169
0.351844 -0.236740 0.148147 170 170 170
0.353846 -0.234831 0.148260 171 171 171
0.355847 -0.232922 0.148372 172 172 172
0.357909 -0.231051 0.148495 173 173 173
0.359819 -0.229095 0.148593 174 174 174
0.361728 -0.227140 0.148691 175 175 175
0.363636 -0.225186 0.148788 175 175 175
0.365549 -0.223236 0.148887 175 175 175
0.367300 -0.221195 0.148959 176 176 176
0.369021 -0.219138 0.149026 178 178 178
0.370372 -0.216870 0.149031 178 178 178
0.371563 -0.214508 0.149009 179 179 179
0.372754 -0.212147 0.148987 180 180 180
0.373988 -0.209810 0.148973 181 181 181
0.375387 -0.207569 0.148986 181 181 181
0.376714 -0.205286 0.148987 181 181 181
0.377745 -0.202830 0.148939 181 181 181
0.378776 -0.200373 0.148890 181 181 181
0.379808 -0.197916 0.148842 181 181 181
0.380840 -0.195458 0.148793 182 182 182
0.382173 -0.193177 0.148795 182 182 182
0.383740 -0.191035 0.148837 181 181 181
0.385308 -0.188894 0.148878 181 181 181
0.387189 -0.186939 0.148973 181 181 181
0.389300 -0.185123 0.149106 181 181 181
0.391256 -0.183216 0.149213 180 180 180
0.393389 -0.181418 0.149350 180 180 180
0.395636 -0.179689 0.149506 180 180 180
0.397786 -0.177905 0.149647 181 181 181
0.399852 -0.176074 0.149773 181 181 181
0.401665 -0.174090 0.149857 181 181 181
0.403473 -0.172106 0.149940 181 181 181
0.405310 -0.170141 0.150028 181 181 181
0.407165 -0.168188 0.150119 181 181 181
0.409014 -0.166233 0.150209 181 181 181
0.410275 -0.163920 0.150200 181 181 181
0.411491 -0.161580 0.150183 181 181 181
0.412709 -0.159239 0.150166 181 181 181
0.413925 -0.156899 0.150149 181 181 181
0.415142 -0.154558 0.150132 181 181 181
0.416166 -0.152098 0.150083 181 181 181
0.416900 -0.149456 0.149984 181 181 181
0.417548 -0.146761 0.149870 181 181 181
0.418145 -0.144031 0.149747 180 180 180
0.418727 -0.141290 0.149622 180 180 180
0.419314 -0.138550 0.149497 180 180 180
0.419901 -0.135808 0.149372 180 180 180
0.420489 -0.133065 0.149248 180 180 180
0.421089 -0.130327 0.149125 180 180 180
0.421494 -0.127463 0.148968 180 180 180
0.421786 -0.124526 0.148792 180 180 180
0.422078 -0.121586 0.148616 180 180 180
0.422350 -0.118630 0.148437 180 180 180
0.422643 -0.115684 0.148260 179 179 179
0.422970 -0.112757 0.148090 179 179 179
0.423298 -0.109828 0.147919 179 179 179
0.423626 -0.106895 0.147748 179 179 179
0.424033 -0.104012 0.147590 179 179 179
0.424522 -0.101177 0.147447 178 178 178
0.425011 -0.098341 0.147303 178 178 178
0.425502 -0.095503 0.147159 178 178 178
0.425988 -0.092660 0.147014 177 177 177
0.426379 -0.089752 0.146853 177 177 177
0.426655 -0.086767 0.146672 177 177 177
0.426932 -0.083779 0.146490 177 177 177
0.427208 -0.080788 0.146308 177 177 177
0.427420 -0.077751 0.146115 177 177 177
0.427638 -0.074715 0.145923 177 177 177
0.427857 -0.071677 0.145731 177 177 177
0.428119 -0.068663 0.145546 178 178 178
0.428365 -0.065636 0.145358 177 177 177
0.428626 -0.062616 0.145172 177 177 177
0.428929 -0.059620 0.144993 177 177 177
0.429230 -0.056620 0.144814 177 177 177
0.429249 -0.053429 0.144585 177 177 177
0.429126 -0.050138 0.144332 177 177 177
0.429014 -0.046851 0.144080 176 176 176
0.428817 -0.043502 0.143813 175 175 175
0.427954 -0.039700 0.143430 175 175 175
0.427013 -0.035838 0.143033 175 175 175
0.426120 -0.032003 0.142644 174 174 174
0.425488 -0.028338 0.142299 173 173 173
0.424961 -0.024738 0.141973 173 173 173
0.424500 -0.021177 0.141658 172 172 172
0.424493 -0.017921 0.141421 171 171 171
0.424474 -0.014652 0.141183 171 171 171
0.424380 -0.011328 0.140930 170 170 170
0.424264 -0.007985 0.140674 169 169 169
0.423931 -0.004488 0.140380 169 169 169
0.423571 -0.000967 0.140080 169 169 169
0.423198 0.002568 0.139777 169 169 169
0.422689 0.006203 0.139451 169 169 169
0.422180 0.009844 0.139124 168 168 168
0.421669 0.013492 0.138796 168 168 168
0.421349 0.017011 0.138501 168 168 168
0.421065 0.020511 0.138213 169 169 169
0.420781 0.024016 0.137923 169 169 169
0.420453 0.027557 0.137626 169 169 169
0.420080 0.031135 0.137321 169 169 169
0.419707 0.034718 0.137015 169 169 169
0.419348 0.038296 0.136711 170 170 170
0.419088 0.041810 0.136424 170 170 170
0.418889 0.045285 0.136148 171 171 171
0.418868 0.048639 0.135903 171 171 171
0.418895 0.051962 0.135666 171 171 171
0.419018 0.055221 0.135446 171 171 171
0.419110 0.058507 0.135220 171 171 171
0.419125 0.061851 0.134980 170 170 170
0.419354 0.065046 0.134777 170 170 170
0.419583 0.068244 0.134575 171 171 171
0.419803 0.071452 0.134370 171 171 171
0.419967 0.074704 0.134155 171 171 171
0.420044 0.078024 0.133925 170 170 170
0.420121 0.081347 0.133694 170 170 170
0.420218 0.084659 0.133467 170 170 170
0.419141 0.088834 0.133030 170 170 170
0.418129 0.092968 0.132604 170 170 170
0.417045 0.097162 0.132165 170 170 170
0.413987 0.102816 0.131373 170 170 170
0.409860 0.109270 0.130389 170 170 170
0.403424 0.117447 0.128992 170 170 170
0.397609 0.125188 0.127703 170 170 170
0.391066 0.133492 0.126283 168 168 168
0.386998 0.139983 0.125304 168 168 168
0.383648 0.145956 0.124452 168 168 168
0.380263 0.151971 0.123593 168 168 168
0.375925 0.158713 0.122562 169 169 169
0.371199 0.165764 0.121460 168 168 168
0.364236 0.174515 0.119955 168 168 168
0.353174 0.186376 0.117712 172 172 172
0.343127 0.197512 0.115648 169 169 169
0.338427 0.204644 0.114543 170 170 170
0.335129 0.210735 0.113689 170 170 170
0.332196 0.216563 0.112900 171 171 171
0.329435 0.222275 0.112141 171 171 171
0.327134 0.227650 0.111465 173 173 173
0.325056 0.232867 0.110827 173 173 173
0.323061 0.238031 0.110203 174 174 174
0.321241 0.243072 0.109611 174 174 174
0.319572 0.248008 0.109045 174 174 174
0.317668 0.253136 0.108435 173 173 173
0.315353 0.258591 0.107751 174 174 174
0.312797 0.264245 0.107022 172 172 172
0.310476 0.269730 0.106334 171 171 171
0.308071 0.275292 0.105631 170 170 170
0.305482 0.281010 0.104893 168 168 168
0.302626 0.286950 0.104106 168 168 168
0.299483 0.293128 0.103265 167 167 167
0.296078 0.299527 0.102376 170 170 170
0.290978 0.307271 0.101177 176 176 176
0.278435 0.320890 0.098620 185 185 185
0.267391 0.333374 0.096334 186 186 186
0.252409 0.349009 0.093327 185 185 185
0.193861 0.399173 0.082364 175 175 175
0.189840 0.406296 0.081345 173 173 173
0.183365 0.415388 0.079877 172 172 172
0.175556 0.425570 0.078162 172 172 172
-0.185890 -0.437552 0.092253 122 122 122
-0.174986 -0.438517 0.093700 153 153 153
-0.166668 -0.438514 0.094749 145 145 145
-0.112413 -0.456166 0.102880 139 139 139
-0.102869 -0.456720 0.104125 157 157 157
-0.095054 -0.456624 0.105104 157 157 157
-0.086779 -0.456722 0.106155 155 155 155
-0.078031 -0.457019 0.107281 156 156 156
-0.041212 -0.468275 0.112746 139 139 139
-0.024070 -0.471921 0.115175 149 149 149
-0.016570 -0.471822 0.116114 156 156 156
-0.010477 -0.471184 0.116836 162 162 162
-0.005524 -0.470107 0.117382 166 166 166
-0.001185 -0.468795 0.117834 166 166 166
0.002931 -0.467402 0.118252 166 166 166
0.006902 -0.465957 0.118648 165 165 165
0.010016 -0.464177 0.118911 166 166 166
0.013124 -0.462398 0.119174 166 166 166
0.015771 -0.460437 0.119365 168 168 168
0.018414 -0.458478 0.119556 167 167 167
0.020964 -0.456484 0.119732 164 164 164
0.023520 -0.454496 0.119910 163 163 163
0.026925 -0.452855 0.120220 162 162 162
0.029945 -0.451062 0.120470 160 160 160
0.032952 -0.449268 0.120719 157 157 157
0.037090 -0.447940 0.121144 151 151 151
0.041466 -0.446717 0.121607 144 144 144
0.046008 -0.445569 0.122097 138 138 138
0.050834 -0.444547 0.122631 138 138 138
0.059168 -0.444987 0.123715 138 138 138
0.068198 -0.445732 0.124909 139 139 139
0.074827 -0.445495 0.125728 149 149 149
0.079457 -0.444434 0.126235 154 154 154
0.083203 -0.443011 0.126604 157 157 157
0.086946 -0.441591 0.126972 160 160 160
0.090727 -0.440194 0.127348 162 162 162
0.094739 -0.438900 0.127760 166 166 166
0.097862 -0.437235 0.128032 170 170 170
0.100717 -0.435460 0.128263 171 171 171
0.103767 -0.433772 0.128525 172 172 172
0.106941 -0.432142 0.128807 174 174 174
0.109075 -0.430069 0.128925 174 174 174
0.111072 -0.427939 0.129022 174 174 174
0.113329 -0.425923 0.129160 174 174 174
0.116490 -0.424300 0.129440 174 174 174
0.119702 -0.422703 0.129729 173 173 173
0.123205 -0.421238 0.130065 173 173 173
0.126664 -0.419758 0.130393 172 172 172
0.130098 -0.418273 0.130718 170 170 170
0.133331 -0.416704 0.131012 169 169 169
0.135881 -0.414840 0.131198 167 167 167
0.138268 -0.412907 0.131358 166 166 166
0.142215 -0.411666 0.131766 165 165 165
0.146091 -0.410399 0.132163 165 165 165
0.149145 -0.408773 0.132430 165 165 165
0.152009 -0.407067 0.132667 164 164 164
0.155241 -0.405529 0.132962 163 163 163
0.157792 -0.403690 0.133150 161 161 161
0.160503 -0.401926 0.133364 161 161 161
0.164747 -0.400857 0.133822 159 159 159
0.168861 -0.399736 0.134259 159 159 159
0.172674 -0.398485 0.134649 158 158 158
0.176477 -0.397236 0.135038 158 158 158
0.180262 -0.395984 0.135424 158 158 158
0.183258 -0.394378 0.135685 158 158 158
0.186046 -0.392681 0.135913 158 158 158
0.188888 -0.391012 0.136150 158 158 158
0.191473 -0.389228 0.136346 157 157 157
0.193560 -0.387217 0.136463 157 157 157
0.195645 -0.385207 0.136580 156 156 156
0.197730 -0.383199 0.136697 155 155 155
0.200444 -0.381486 0.136914 153 153 153
0.203389 -0.379884 0.137169 151 151 151
0.206856 -0.378531 0.137508 150 150 150
0.210587 -0.377306 0.137890 150 150 150
0.214250 -0.376056 0.138261 151 151 151
0.217494 -0.374614 0.138565 153 153 153
0.220648 -0.373134 0.138855 154 154 154
0.224181 -0.371838 0.139207 155 155 155
0.227096 -0.370254 0.139459 156 156 156
0.229908 -0.368624 0.139695 157 157 157
0.232626 -0.366953 0.139916 157 157 157
0.235228 -0.365230 0.140119 157 157 157
0.237472 -0.363338 0.140264 158 158 158
0.239362 -0.361278 0.140353 159 159 159
0.241256 -0.359221 0.140442 160 160 160
0.243113 -0.357148 0.140525 161 161 161
0.245042 -0.355111 0.140620 161 161 161
0.247020 -0.353099 0.140723 162 162 162
0.248997 -0.351088 0.140826 162 162 162
0.250970 -0.349077 0.140929 162 162 162
0.252952 -0.347072 0.141033 162 162 162
0.255033 -0.345118 0.141153 163 163 163
0.257122 -0.343169 0.141274 163 163 163
0.259177 -0.341205 0.141391 164 164 164
0.261175 -0.339215 0.141498 166 166 166
0.263732 -0.337505 0.141696 165 165 165
0.265966 -0.335637 0.141842 166 166 166
0.268025 -0.333683 0.141959 166 166 166
0.270083 -0.331731 0.142077 167 167 167
0.272140 -0.329781 0.142194 167 167 167
0.274342 -0.327905 0.142335 167 167 167
0.276646 -0.326083 0.142493 168 168 168
0.279026 -0.324302 0.142664 168 168 168
0.281737 -0.322692 0.142889 170 170 170
0.284326 -0.321022 0.143093 170 170 170
0.286834 -0.319316 0.143286 170 170 170
0.289323 -0.317602 0.143475 170 170 170
0.291807 -0.315889 0.143663 170 170 170
0.294285 -0.314176 0.143851 170 170 170
0.296686 -0.312426 0.144027 170 170 170
0.299154 -0.310714 0.144214 170 170 170
0.301614 -0.309000 0.144399 171 171 171
0.303990 -0.307246 0.144571 171 171 171
0.306116 -0.305364 0.144702 171 171 171
0.307952 -0.303333 0.144786 171 171 171
0.309788 -0.301304 0.144870 171 171 171
0.311679 -0.299304 0.144963 171 171 171
0.313610 -0.297327 0.145062 171 171 171
0.315047 -0.295091 0.145081 172 172 172
0.316102 -0.292654 0.145036 172 172 172
0.317232 -0.290255 0.145004 172 172 172
0.318362 -0.287856 0.144972 172 172 172
0.319390 -0.285402 0.144923 172 172 172
0.320419 -0.282948 0.144874 171 171 171
0.321525 -0.280534 0.144838 171 171 171
0.322625 -0.278117 0.144800 171 171 171
0.323725 -0.275699 0.144763 170 170 170
0.324825 -0.273280 0.144726 170 170 170
0.325926 -0.270861 0.144688 170 170 170
0.327161 -0.268515 0.144673 169 169 169
0.328477 -0.266212 0.144671 169 169 169
0.329885 -0.263959 0.144685 169 169 169
0.331281 -0.261699 0.144697 169 169 169
0.332677 -0.259440 0.144708 169 169 169
0.333995 -0.257139 0.144707 168 168 168
0.335570 -0.254978 0.144748 168 168 168
0.337243 -0.252873 0.144806 168 168 168
0.338951 -0.250787 0.144869 168 168 168
0.340671 -0.248709 0.144935 168 168 168
0.342401 -0.246639 0.145002 168 168 168
0.344118 -0.244562 0.145068 168 168 168
0.346005 -0.242580 0.145161 169 169 169
0.348069 -0.240700 0.145285 169 169 169
0.350132 -0.238821 0.145408 169 169 169
0.352194 -0.236943 0.145532 169 169 169
0.354256 -0.235067 0.145655 169 169 169
0.356403 -0.233242 0.145793 170 170 170
0.358603 -0.231448 0.145940 171 171 171
0.360671 -0.229582 0.146065 173 173 173
0.362579 -0.227627 0.146163 173 173 173
0.364486 -0.225673 0.146262 174 174 174
0.366285 -0.223659 0.146342 175 175 175
0.368031 -0.221615 0.146413 175 175 175
0.369762 -0.219565 0.146483 176 176 176
0.371462 -0.217498 0.146546 178 178 178
0.372728 -0.215181 0.146537 179 179 179
0.373976 -0.212853 0.146525 180 180 180
0.375374 -0.210613 0.146538 180 180 180
0.376772 -0.208373 0.146552 180 180 180
0.378171 -0.206133 0.146565 180 180 180
0.379485 -0.203844 0.146564 180 180 180
0.380516 -0.201389 0.146515 181 181 181
0.381632 -0.198983 0.146481 181 181 181
0.382989 -0.196719 0.146487 181 181 181
0.384347 -0.194455 0.146493 181 181 181
0.385704 -0.192191 0.146500 181 181 181
0.387225 -0.190024 0.146534 181 181 181
0.389123 -0.188082 0.146632 181 181 181
0.391077 -0.186174 0.146739 180 180 180
0.392963 -0.184228 0.146836 180 180 180
0.395108 -0.182438 0.146976 180 180 180
0.397354 -0.180711 0.147133 180 180 180
0.399598 -0.178986 0.147291 179 179 179
0.401510 -0.177063 0.147392 180 180 180
0.403319 -0.175079 0.147476 180 180 180
0.405126 -0.173096 0.147559 180 180 180
0.406957 -0.171129 0.147647 180 180 180
0.408810 -0.169177 0.147739 181 181 181
0.410340 -0.167029 0.147775 181 181 181
0.411777 -0.164825 0.147796 181 181 181
0.412981 -0.162479 0.147777 181 181 181
0.414187 -0.160133 0.147758 181 181 181
0.415392 -0.157787 0.147739 181 181 181
0.416598 -0.155441 0.147721 181 181 181
0.417522 -0.152920 0.147654 181 181 181
0.418213 -0.150254 0.147547 181 181 181
0.418859 -0.147558 0.147432 180 180 180
0.419440 -0.144820 0.147306 180 180 180
0.420023 -0.142081 0.147180 180 180 180
0.420606 -0.139340 0.147054 180 180 180
0.421177 -0.136589 0.146925 180 180 180
0.421692 -0.133801 0.146787 180 180 180
0.422177 -0.130992 0.146644 180 180 180
0.422671 -0.128186 0.146501 180 180 180
0.422986 -0.125264 0.146328 180 180 180
0.423279 -0.122325 0.146151 180 180 180
0.423550 -0.119370 0.145970 179 179 179
0.423814 -0.116407 0.145788 179 179 179
0.424130 -0.113474 0.145614 179 179 179
0.424457 -0.110546 0.145442 179 179 179
0.424734 -0.107582 0.145261 179 179 179
0.424953 -0.104578 0.145070 178 178 178
0.425367 -0.101696 0.144912 178 178 178
0.425856 -0.098861 0.144767 177 177 177
0.426347 -0.096023 0.144622 177 177 177
0.426838 -0.093184 0.144477 177 177 177
0.427265 -0.090301 0.144321 177 177 177
0.427506 -0.087293 0.144133 177 177 177
0.427744 -0.084281 0.143943 176 176 176
0.427998 -0.081275 0.143756 176 176 176
0.428312 -0.078306 0.143580 176 176 176
0.428604 -0.075320 0.143399 176 176 176
0.428823 -0.072282 0.143205 177 177 177
0.429042 -0.069241 0.143011 177 177 177
0.429299 -0.066222 0.142824 177 177 177
0.429565 -0.063206 0.142638 177 177 177
0.429869 -0.060212 0.142458 177 177 177
0.430128 -0.057184 0.142270 177 177 177
0.430051 -0.053930 0.142023 177 177 177
0.429877 -0.050606 0.141759 176 176 176
0.429811 -0.047350 0.141514 175 175 175
0.429523 -0.043941 0.141229 174 174 174
0.428606 -0.040103 0.140834 174 174 174
0.427666 -0.036242 0.140434 174 174 174
0.426723 -0.032373 0.140033 174 174 174
0.426048 -0.028679 0.139679 173 173 173
0.425522 -0.025080 0.139350 172 172 172
0.424950 -0.021444 0.139013 171 171 171
0.424709 -0.018028 0.138734 171 171 171
0.424622 -0.014713 0.138481 170 170 170
0.424509 -0.011375 0.138224 169 169 169
0.424203 -0.007901 0.137932 169 169 169
0.423809 -0.004361 0.137625 169 169 169
0.423432 -0.000828 0.137320 169 169 169
0.423072 0.002700 0.137017 169 169 169
0.422588 0.006318 0.136693 168 168 168
0.422110 0.009938 0.136369 168 168 168
0.421662 0.013542 0.136050 169 169 169
0.421320 0.017078 0.135749 169 169 169
0.421034 0.020580 0.135458 169 169 169
0.420749 0.024086 0.135166 169 169 169
0.420447 0.027610 0.134872 169 169 169
0.420074 0.031188 0.134564 169 169 169
0.419681 0.034786 0.134252 170 170 170
0.419338 0.038354 0.133949 171 171 171
0.419329 0.041690 0.133705 171 171 171
0.419332 0.045022 0.133463 171 171 171
0.419275 0.048401 0.133209 171 171 171
0.419147 0.051836 0.132943 171 171 171
0.419270 0.055095 0.132721 171 171 171
0.419335 0.058400 0.132488 171 171 171
0.419317 0.061768 0.132241 171 171 171
0.419489 0.065004 0.132027 171 171 171
0.419708 0.068209 0.131821 171 171 171
0.419927 0.071419 0.131615 171 171 171
0.420143 0.074634 0.131408 171 171 171
0.420252 0.077931 0.131181 171 171 171
0.420367 0.081227 0.130956 170 170 170
0.420201 0.084731 0.130679 170 170 170
0.419078 0.088940 0.130231 169 169 169
0.417793 0.093275 0.129753 169 169 169
0.416702 0.097475 0.129310 169 169 169
0.413454 0.103269 0.128478 170 170 170
0.409203 0.109817 0.127464 170 170 170
0.402613 0.118109 0.126029 170 170 170
0.396241 0.126265 0.124631 167 167 167
0.390213 0.134190 0.123293 168 168 168
0.386383 0.140505 0.122350 168 168 168
0.383186 0.146367 0.121519 168 168 168
0.379830 0.152361 0.120659 169 169 169
0.375622 0.159008 0.119644 169 169 169
0.370371 0.166454 0.118439 170 170 170
0.362361 0.175993 0.116733 171 171 171
0.351169 0.187956 0.114450 172 172 172
0.342094 0.198363 0.112547 171 171 171
0.338025 0.205021 0.111548 171 171 171
0.334630 0.211186 0.110671 171 171 171
0.331637 0.217062 0.109865 171 171 171
0.329502 0.222300 0.109214 171 171 171
0.327204 0.227673 0.108533 173 173 173
0.325288 0.232767 0.107920 173 173 173
0.323379 0.237866 0.107308 173 173 173
0.321563 0.242904 0.106711 173 173 173
0.319878 0.247853 0.106138 173 173 173
0.317876 0.253056 0.105507 172 172 172
0.315472 0.258581 0.104801 171 171 171
0.312600 0.264479 0.104009 171 171 171
0.310228 0.270005 0.103307 170 170 170
0.307650 0.275702 0.102567 167 167 167
0.304434 0.281911 0.101709 167 167 167
0.301424 0.287973 0.100887 166 166 166
0.298264 0.294167 0.100037 164 164 164
0.294452 0.300887 0.099067 166 166 166
0.289943 0.308171 0.097967 176 176 176
0.280506 0.319351 0.095962 181 181 181
0.270191 0.331258 0.093793 183 183 183
0.261760 0.341716 0.091968 187 187 187
0.194482 0.398776 0.079322 175 175 175
0.189360 0.406773 0.078094 174 174 174
0.181843 0.416695 0.076422 172 172 172
0.173961 0.426937 0.074682 125 125 125
-0.186742 -0.437313 0.089071 164 164 164
-0.175246 -0.438502 0.090619 152 152 152
-0.167521 -0.438271 0.091584 145 145 145
-0.112947 -0.456042 0.099823 138 138 138
-0.102439 -0.456966 0.101226 153 153 153
-0.094835 -0.456789 0.102179 154 154 154
-0.086278 -0.456995 0.103282 152 152 152
-0.076263 -0.457784 0.104612 153 153 153
-0.065656 -0.458824 0.106037 138 138 138
-0.024595 -0.471791 0.112206 138 138 138
-0.016558 -0.471901 0.113235 152 152 152
-0.010432 -0.471276 0.113968 160 160 160
-0.004825 -0.470457 0.114620 164 164 164
-0.000783 -0.469028 0.115029 163 163 163
0.003196 -0.467580 0.115429 163 163 163
0.006883 -0.466022 0.115783 163 163 163
0.009884 -0.464196 0.116030 165 165 165
0.012991 -0.462415 0.116294 165 165 165
0.016095 -0.460638 0.116559 166 166 166
0.019004 -0.458786 0.116792 166 166 166
0.021567 -0.456798 0.116972 164 164 164
0.024124 -0.454810 0.117151 163 163 163
0.027408 -0.453120 0.117445 162 162 162
0.029930 -0.451124 0.117619 160 160 160
0.032450 -0.449130 0.117793 158 158 158
0.036545 -0.447784 0.118214 153 153 153
0.040001 -0.446182 0.118536 146 146 146
0.044307 -0.444935 0.118992 139 139 139
0.048961 -0.443838 0.119503 138 138 138
0.057078 -0.444185 0.120559 138 138 138
0.065962 -0.444867 0.121739 138 138 138
0.072688 -0.444667 0.122579 146 146 146
0.079112 -0.444353 0.123372 153 153 153
0.083000 -0.442988 0.123766 156 156 156
0.086880 -0.441626 0.124159 158 158 158
0.091160 -0.440438 0.124616 161 161 161
0.095330 -0.439211 0.125056 164 164 164
0.099266 -0.437891 0.125459 166 166 166
0.102442 -0.436254 0.125742 172 172 172
0.105617 -0.434621 0.126026 173 173 173
0.108788 -0.432990 0.126309 174 174 174
0.110797 -0.430866 0.126409 174 174 174
0.113055 -0.428850 0.126548 174 174 174
0.115617 -0.426967 0.126735 173 173 173
0.118176 -0.425086 0.126923 173 173 173
0.120920 -0.423288 0.127139 173 173 173
0.124294 -0.421767 0.127456 173 173 173
0.127695 -0.420264 0.127778 171 171 171
0.131128 -0.418778 0.128106 170 170 170
0.134118 -0.417104 0.128363 168 168 168
0.136301 -0.415078 0.128491 167 167 167
0.138482 -0.413054 0.128620 166 166 166
0.142328 -0.411768 0.129015 165 165 165
0.145857 -0.410348 0.129359 164 164 164
0.149243 -0.408869 0.129681 163 163 163
0.152335 -0.407264 0.129956 163 163 163
0.155047 -0.405493 0.130170 161 161 161
0.157666 -0.403684 0.130371 160 160 160
0.160367 -0.401915 0.130584 159 159 159
0.164103 -0.400616 0.130963 158 158 158
0.168021 -0.399405 0.131372 157 157 157
0.172444 -0.398429 0.131863 156 156 156
0.176249 -0.397180 0.132255 156 156 156
0.179851 -0.395844 0.132615 156 156 156
0.182579 -0.394114 0.132834 156 156 156
0.185304 -0.392387 0.133054 157 157 157
0.188148 -0.390717 0.133293 156 156 156
0.190559 -0.388852 0.133462 156 156 156
0.192713 -0.386870 0.133591 156 156 156
0.195033 -0.384968 0.133746 155 155 155
0.197350 -0.383067 0.133901 154 154 154
0.199653 -0.381161 0.134054 153 153 153
0.202498 -0.379511 0.134294 150 150 150
0.205559 -0.377965 0.134570 148 148 148
0.209280 -0.376734 0.134952 148 148 148
0.212928 -0.375474 0.135323 149 149 149
0.216549 -0.374208 0.135691 151 151 151
0.220132 -0.372929 0.136052 152 152 152
0.223325 -0.371471 0.136351 153 153 153
0.226242 -0.369886 0.136605 155 155 155
0.229155 -0.368303 0.136859 156 156 156
0.231880 -0.366634 0.137083 156 156 156
0.234349 -0.364846 0.137266 157 157 157
0.236906 -0.363103 0.137463 158 158 158
0.238995 -0.361138 0.137584 159 159 159
0.240886 -0.359078 0.137673 160 160 160
0.242776 -0.357020 0.137763 161 161 161
0.244748 -0.355003 0.137865 161 161 161
0.246686 -0.352971 0.137962 161 161 161
0.248731 -0.350992 0.138077 161 161 161
0.250707 -0.348982 0.138181 161 161 161
0.252754 -0.347008 0.138296 161 161 161
0.254844 -0.345057 0.138418 162 162 162
0.256934 -0.343108 0.138541 162 162 162
0.259022 -0.341160 0.138663 163 163 163
0.261054 -0.339186 0.138777 165 165 165
0.263571 -0.337455 0.138970 164 164 164
0.266013 -0.335690 0.139150 165 165 165
0.268120 -0.333760 0.139277 165 165 165
0.270178 -0.331808 0.139395 166 166 166
0.272235 -0.329857 0.139513 166 166 166
0.274697 -0.328111 0.139698 166 166 166
0.277371 -0.326476 0.139918 167 167 167
0.279863 -0.324752 0.140108 167 167 167
0.282426 -0.323068 0.140310 168 168 168
0.285025 -0.321404 0.140518 169 169 169
0.287513 -0.319688 0.140709 169 169 169
0.289999 -0.317973 0.140899 169 169 169
0.292483 -0.316260 0.141089 169 169 169
0.294828 -0.314479 0.141256 169 169 169
0.297287 -0.312760 0.141442 169 169 169
0.299754 -0.311047 0.141630 169 169 169
0.302219 -0.309336 0.141818 169 169 169
0.304665 -0.307619 0.142003 170 170 170
0.306685 -0.305682 0.142117 171 171 171
0.308618 -0.303702 0.142218 171 171 171
0.310551 -0.301724 0.142318 171 171 171
0.312483 -0.299746 0.142419 171 171 171
0.314088 -0.297598 0.142465 171 171 171
0.315423 -0.295308 0.142467 171 171 171
0.316600 -0.292935 0.142442 172 172 172
0.317574 -0.290454 0.142384 172 172 172
0.318701 -0.288054 0.142351 172 172 172
0.319767 -0.285620 0.142308 172 172 172
0.320779 -0.283157 0.142256 171 171 171
0.321788 -0.280691 0.142203 171 171 171
0.322897 -0.278278 0.142167 171 171 171
0.324005 -0.275864 0.142131 171 171 171
0.325114 -0.273450 0.142094 170 170 170
0.326219 -0.271033 0.142058 170 170 170
0.327344 -0.268627 0.142024 170 170 170
0.328743 -0.266369 0.142036 170 170 170
0.330139 -0.264109 0.142048 169 169 169
0.331536 -0.261850 0.142059 169 169 169
0.332932 -0.259591 0.142071 169 169 169
0.334277 -0.257304 0.142074 169 169 169
