ply
format ascii 1.0
element vertex 1182
property float x
property float y
property float z
property uchar red
property uchar green
property uchar blue
end_header
0.216051 0.091349 -0.408719 138 138 138
0.214652 0.094251 -0.409037 138 138 138
0.213240 0.097157 -0.409358 138 138 138
0.211488 0.100077 -0.409756 138 138 138
0.209464 0.103012 -0.410216 138 138 138
0.207436 0.105950 -0.410677 138 138 138
0.205391 0.108894 -0.411142 138 138 138
0.203164 0.111849 -0.411648 138 138 138
0.200918 0.114809 -0.412158 138 138 138
0.198825 0.117768 -0.412634 138 138 138
0.196490 0.120741 -0.413165 138 138 138
0.193630 0.123742 -0.413815 138 138 138
0.189962 0.126786 -0.414648 138 138 138
0.186373 0.129834 -0.415464 138 138 138
0.182285 0.132913 -0.416393 138 138 138
0.177916 0.136014 -0.417386 138 138 138
0.173714 0.139116 -0.418341 138 138 138
0.169680 0.142218 -0.419258 138 138 138
0.166555 0.145281 -0.419968 138 138 138
0.163337 0.148356 -0.420700 138 138 138
0.159866 0.151451 -0.421488 138 138 138
0.156031 0.154572 -0.422360 138 138 138
0.152537 0.157683 -0.423154 140 140 140
0.149035 0.160802 -0.423950 141 141 141
0.145280 0.163942 -0.424803 141 141 141
0.141385 0.167099 -0.425689 141 141 141
0.137183 0.170281 -0.426644 141 141 141
0.132602 0.173496 -0.427685 140 140 140
0.127426 0.176756 -0.428861 138 138 138
0.124185 0.179906 -0.429598 138 138 138
0.120522 0.183089 -0.430430 138 138 138
0.115758 0.186352 -0.431513 138 138 138
0.112328 0.189536 -0.432292 138 138 138
0.109261 0.192703 -0.432989 138 138 138
0.103571 0.196055 -0.434283 138 138 138
0.097627 0.199435 -0.435633 138 138 138
0.086625 0.203183 -0.438134 138 138 138
0.091965 -0.169993 -0.439923 138 138 138
0.100528 -0.166516 -0.437968 138 138 138
0.105130 -0.163282 -0.436918 138 138 138
0.108181 -0.160143 -0.436221 138 138 138
0.111121 -0.157017 -0.435550 138 138 138
0.114136 -0.153892 -0.434862 138 138 138
0.117043 -0.150780 -0.434198 138 138 138
0.119979 -0.147672 -0.433528 138 138 138
0.122506 -0.144591 -0.432951 138 138 138
0.124713 -0.141530 -0.432447 139 139 139
0.126970 -0.138472 -0.431931 138 138 138
0.129316 -0.135415 -0.431396 138 138 138
0.131378 -0.132375 -0.430925 138 138 138
0.133415 -0.129341 -0.430460 138 138 138
0.135576 -0.126305 -0.429967 139 139 139
0.138243 -0.123252 -0.429358 139 139 139
0.140616 -0.120217 -0.428816 139 139 139
0.143431 -0.117169 -0.428173 138 138 138
0.147404 -0.114080 -0.427266 138 138 138
0.151545 -0.110992 -0.426321 138 138 138
0.155789 -0.107909 -0.425352 138 138 138
0.159861 -0.104841 -0.424422 138 138 138
0.163769 -0.101788 -0.423530 138 138 138
0.166746 -0.098775 -0.422850 138 138 138
0.169347 -0.095781 -0.422257 138 138 138
0.172023 -0.092790 -0.421646 138 138 138
0.174106 -0.089824 -0.421170 138 138 138
0.175778 -0.086874 -0.420788 138 138 138
0.177383 -0.083930 -0.420422 139 139 139
0.179165 -0.080984 -0.420015 139 139 139
0.180983 -0.078041 -0.419600 138 138 138
0.182508 -0.075110 -0.419252 138 138 138
0.184006 -0.072182 -0.418910 139 139 139
0.185498 -0.069257 -0.418569 139 139 139
0.186991 -0.066336 -0.418228 139 139 139
0.188238 -0.063423 -0.417944 139 139 139
0.189561 -0.060511 -0.417642 138 138 138
0.191117 -0.057597 -0.417286 138 138 138
0.192373 -0.054693 -0.417000 139 139 139
0.193806 -0.051787 -0.416672 139 139 139
0.195260 -0.048884 -0.416340 139 139 139
0.196713 -0.045984 -0.416009 139 139 139
0.198177 -0.043087 -0.415674 138 138 138
0.199515 -0.040195 -0.415369 139 139 139
0.200892 -0.037305 -0.415055 139 139 139
0.202340 -0.034417 -0.414724 140 140 140
0.203787 -0.031532 -0.414394 140 140 140
0.205099 -0.028651 -0.414094 141 141 141
0.206509 -0.025772 -0.413772 140 140 140
0.207918 -0.022896 -0.413450 140 140 140
0.209326 -0.020023 -0.413129 139 139 139
0.210648 -0.017153 -0.412827 139 139 139
0.211848 -0.014287 -0.412553 138 138 138
0.212935 -0.011424 -0.412305 138 138 138
0.213989 -0.008563 -0.412064 138 138 138
0.215043 -0.005704 -0.411824 138 138 138
0.216153 -0.002847 -0.411570 138 138 138
0.217284 0.000007 -0.411312 138 138 138
0.218414 0.002859 -0.411054 138 138 138
0.219499 0.005709 -0.410806 138 138 138
0.220292 0.008558 -0.410625 138 138 138
0.221030 0.011405 -0.410457 138 138 138
0.221768 0.014251 -0.410289 138 138 138
0.222505 0.017095 -0.410120 138 138 138
0.222958 0.019939 -0.410017 138 138 138
0.223193 0.022785 -0.409963 138 138 138
0.223428 0.025630 -0.409910 138 138 138
0.223663 0.028474 -0.409856 138 138 138
0.223758 0.031320 -0.409834 141 141 141
0.223723 0.034167 -0.409842 141 141 141
0.223708 0.037014 -0.409846 141 141 141
0.223897 0.039858 -0.409802 142 142 142
0.223953 0.042703 -0.409790 142 142 142
0.223795 0.045552 -0.409826 141 141 141
0.223698 0.048400 -0.409848 141 141 141
0.223614 0.051249 -0.409867 141 141 141
0.223535 0.054097 -0.409885 140 140 140
0.223243 0.056950 -0.409952 139 139 139
0.222833 0.059806 -0.410045 139 139 139
0.222332 0.062665 -0.410160 138 138 138
0.221771 0.065526 -0.410288 138 138 138
0.221102 0.068391 -0.410441 138 138 138
0.220400 0.071259 -0.410601 138 138 138
0.219698 0.074128 -0.410761 138 138 138
0.219015 0.076997 -0.410917 138 138 138
0.218246 0.079871 -0.411093 138 138 138
0.217424 0.082748 -0.411280 138 138 138
0.216598 0.085627 -0.411469 138 138 138
0.215536 0.088514 -0.411711 138 138 138
0.214111 0.091417 -0.412037 138 138 138
0.212698 0.094321 -0.412359 138 138 138
0.211284 0.097229 -0.412682 138 138 138
0.209597 0.100149 -0.413067 138 138 138
0.207568 0.103086 -0.413531 138 138 138
0.205529 0.106027 -0.413996 138 138 138
0.203400 0.108975 -0.414482 138 138 138
0.201167 0.111933 -0.414992 138 138 138
0.199002 0.114892 -0.415486 138 138 138
0.196922 0.117852 -0.415961 138 138 138
0.194167 0.120846 -0.416590 138 138 138
0.190497 0.123885 -0.417428 138 138 138
0.186857 0.126932 -0.418259 138 138 138
0.183100 0.129990 -0.419117 138 138 138
0.178836 0.133081 -0.420090 138 138 138
0.174550 0.136182 -0.421069 138 138 138
0.170666 0.139271 -0.421956 138 138 138
0.167504 0.142332 -0.422678 138 138 138
0.164528 0.145390 -0.423357 138 138 138
0.161248 0.148471 -0.424106 138 138 138
0.158258 0.151542 -0.424788 138 138 138
0.155004 0.154634 -0.425531 138 138 138
0.151498 0.157747 -0.426332 139 139 139
0.148091 0.160861 -0.427110 140 140 140
0.144836 0.163973 -0.427853 140 140 140
0.141128 0.167119 -0.428699 140 140 140
0.137107 0.170292 -0.429617 140 140 140
0.131496 0.173569 -0.430898 139 139 139
0.126701 0.176807 -0.431993 138 138 138
0.121943 0.180053 -0.433079 138 138 138
0.117647 0.183279 -0.434060 138 138 138
0.113337 0.186515 -0.435044 138 138 138
0.108957 0.189765 -0.436044 138 138 138
0.103363 0.193105 -0.437321 138 138 138
0.096457 0.196545 -0.438898 138 138 138
0.082869 0.200462 -0.442000 138 138 138
0.058462 0.205165 -0.447573 100 100 100
0.094966 -0.166843 -0.442239 138 138 138
0.104024 -0.163350 -0.440161 138 138 138
0.107250 -0.160200 -0.439422 138 138 138
0.110002 -0.157083 -0.438790 138 138 138
0.112954 -0.153961 -0.438113 138 138 138
0.115742 -0.150853 -0.437474 138 138 138
0.118664 -0.147745 -0.436804 138 138 138
0.121490 -0.144647 -0.436156 138 138 138
0.123913 -0.141575 -0.435600 138 138 138
0.126328 -0.138508 -0.435046 138 138 138
0.128447 -0.135461 -0.434560 138 138 138
0.130503 -0.132420 -0.434088 138 138 138
0.132484 -0.129388 -0.433634 138 138 138
0.134461 -0.126359 -0.433181 138 138 138
0.137039 -0.123309 -0.432589 139 139 139
0.139026 -0.120289 -0.432134 139 139 139
0.141340 -0.117259 -0.431603 139 139 139
0.144577 -0.114197 -0.430861 138 138 138
0.148333 -0.111122 -0.429999 138 138 138
0.151763 -0.108066 -0.429213 138 138 138
0.155748 -0.104998 -0.428299 138 138 138
0.159792 -0.101935 -0.427371 138 138 138
0.163664 -0.098887 -0.426483 138 138 138
0.166812 -0.095871 -0.425761 138 138 138
0.169335 -0.092882 -0.425183 138 138 138
0.171669 -0.089905 -0.424647 138 138 138
0.173996 -0.086932 -0.424114 139 139 139
0.175788 -0.083981 -0.423703 139 139 139
0.177583 -0.081033 -0.423291 139 139 139
0.179399 -0.078088 -0.422874 138 138 138
0.180958 -0.075154 -0.422517 138 138 138
0.182465 -0.072224 -0.422171 139 139 139
0.183970 -0.069298 -0.421826 139 139 139
0.185468 -0.066374 -0.421482 139 139 139
0.186878 -0.063456 -0.421159 139 139 139
0.188259 -0.060542 -0.420843 138 138 138
0.189817 -0.057626 -0.420485 138 138 138
0.191373 -0.054714 -0.420128 139 139 139
0.192704 -0.051809 -0.419823 139 139 139
0.194278 -0.048903 -0.419462 139 139 139
0.195735 -0.046002 -0.419128 139 139 139
0.197198 -0.043104 -0.418792 139 139 139
0.198661 -0.040208 -0.418457 139 139 139
0.199787 -0.037321 -0.418198 140 140 140
0.201151 -0.034433 -0.417886 141 141 141
0.202600 -0.031546 -0.417553 142 142 142
0.203682 -0.028666 -0.417305 142 142 142
0.205026 -0.025787 -0.416997 142 142 142
0.206437 -0.022909 -0.416673 141 141 141
0.207736 -0.020035 -0.416375 140 140 140
0.208868 -0.017165 -0.416116 140 140 140
0.210009 -0.014297 -0.415854 139 139 139
0.211062 -0.011432 -0.415613 138 138 138
0.212043 -0.008569 -0.415388 138 138 138
0.213098 -0.005708 -0.415146 138 138 138
0.214114 -0.002849 -0.414913 138 138 138
0.215147 0.000007 -0.414676 138 138 138
0.216279 0.002862 -0.414416 138 138 138
0.217397 0.005714 -0.414160 138 138 138
0.218278 0.008564 -0.413958 138 138 138
0.219017 0.011414 -0.413788 138 138 138
0.219755 0.014261 -0.413619 138 138 138
0.220467 0.017108 -0.413456 138 138 138
0.221074 0.019954 -0.413317 138 138 138
0.221339 0.022801 -0.413256 138 138 138
0.221589 0.025648 -0.413198 138 138 138
0.221825 0.028494 -0.413144 138 138 138
0.222020 0.031341 -0.413099 139 139 139
0.221985 0.034190 -0.413108 140 140 140
0.222153 0.037036 -0.413069 140 140 140
0.222343 0.039881 -0.413026 141 141 141
0.222516 0.042727 -0.412986 141 141 141
0.222400 0.045577 -0.413012 141 141 141
0.222314 0.048426 -0.413032 141 141 141
0.222134 0.051278 -0.413074 140 140 140
0.221931 0.054130 -0.413120 140 140 140
0.221330 0.056991 -0.413258 139 139 139
0.220810 0.059852 -0.413377 139 139 139
0.220290 0.062713 -0.413496 138 138 138
0.219770 0.065576 -0.413616 138 138 138
0.219114 0.068443 -0.413766 138 138 138
0.218457 0.071311 -0.413917 138 138 138
0.217800 0.074181 -0.414067 138 138 138
0.217129 0.077053 -0.414221 138 138 138
0.216411 0.079927 -0.414386 138 138 138
0.215584 0.082806 -0.414576 138 138 138
0.214756 0.085686 -0.414765 138 138 138
0.213885 0.088570 -0.414965 138 138 138
0.212434 0.091475 -0.415298 138 138 138
0.210983 0.094383 -0.415631 138 138 138
0.209509 0.097294 -0.415969 138 138 138
0.207691 0.100221 -0.416386 138 138 138
0.205650 0.103160 -0.416854 138 138 138
0.203582 0.106105 -0.417328 138 138 138
0.201389 0.109058 -0.417831 138 138 138
0.199179 0.112017 -0.418338 138 138 138
0.196966 0.114980 -0.418846 138 138 138
0.194622 0.117953 -0.419383 138 138 138
0.191025 0.120986 -0.420208 138 138 138
0.187375 0.124028 -0.421045 138 138 138
0.183945 0.127068 -0.421832 138 138 138
0.179788 0.130149 -0.422785 138 138 138
0.175387 0.133249 -0.423795 138 138 138
0.171712 0.136324 -0.424637 138 138 138
0.168337 0.139391 -0.425412 138 138 138
0.165228 0.142452 -0.426125 138 138 138
0.162350 0.145508 -0.426785 138 138 138
0.159745 0.148555 -0.427382 138 138 138
0.156909 0.151620 -0.428033 138 138 138
0.153830 0.154703 -0.428739 138 138 138
0.150442 0.157811 -0.429516 139 139 139
0.147338 0.160909 -0.430228 138 138 138
0.144227 0.164014 -0.430941 138 138 138
0.140655 0.167153 -0.431760 138 138 138
0.135706 0.170381 -0.432895 138 138 138
0.130437 0.173639 -0.434104 138 138 138
0.124488 0.176950 -0.435468 138 138 138
0.118297 0.180289 -0.436888 138 138 138
0.114455 0.183490 -0.437769 138 138 138
0.107856 0.186878 -0.439283 138 138 138
0.102203 0.190217 -0.440579 138 138 138
0.090782 0.193955 -0.443199 138 138 138
0.080361 0.197648 -0.445589 138 138 138
0.066079 0.201629 -0.448864 138 138 138
0.099179 -0.163631 -0.444269 138 138 138
0.105841 -0.160284 -0.442734 138 138 138
0.108883 -0.157150 -0.442033 138 138 138
0.111693 -0.154034 -0.441386 138 138 138
0.114483 -0.150925 -0.440743 138 138 138
0.117347 -0.147818 -0.440083 138 138 138
0.120203 -0.144717 -0.439425 138 138 138
0.122633 -0.141643 -0.438865 138 138 138
0.125054 -0.138575 -0.438308 138 138 138
0.127327 -0.135518 -0.437784 138 138 138
0.129430 -0.132475 -0.437300 138 138 138
0.131471 -0.129438 -0.436829 138 138 138
0.133491 -0.126406 -0.436364 138 138 138
0.135449 -0.123382 -0.435913 139 139 139
0.137435 -0.120360 -0.435455 139 139 139
0.139758 -0.117328 -0.434920 139 139 139
0.142082 -0.114302 -0.434385 139 139 139
0.145602 -0.111233 -0.433574 138 138 138
0.148665 -0.108188 -0.432868 138 138 138
0.152019 -0.105140 -0.432095 138 138 138
0.155861 -0.102080 -0.431210 138 138 138
0.159734 -0.099028 -0.430318 138 138 138
0.163559 -0.095985 -0.429437 138 138 138
0.166877 -0.092966 -0.428672 138 138 138
0.169288 -0.089984 -0.428117 138 138 138
0.172224 -0.086990 -0.427440 138 138 138
0.174421 -0.084025 -0.426934 139 139 139
0.176213 -0.081075 -0.426521 139 139 139
0.178003 -0.078130 -0.426109 138 138 138
0.179663 -0.075191 -0.425727 138 138 138
0.181141 -0.072261 -0.425386 139 139 139
0.182619 -0.069333 -0.425046 139 139 139
0.184094 -0.066409 -0.424706 139 139 139
0.185558 -0.063488 -0.424368 138 138 138
0.187029 -0.060570 -0.424030 138 138 138
0.188549 -0.057654 -0.423679 138 138 138
0.190072 -0.054741 -0.423329 139 139 139
0.191628 -0.051831 -0.422970 139 139 139
0.193252 -0.048923 -0.422596 139 139 139
0.194756 -0.046020 -0.422250 138 138 138
0.196220 -0.043120 -0.421912 139 139 139
0.197684 -0.040224 -0.421575 140 140 140
0.198933 -0.037334 -0.421287 141 141 141
0.200059 -0.034447 -0.421028 142 142 142
0.201411 -0.031561 -0.420716 143 143 143
0.202395 -0.028681 -0.420490 143 143 143
0.203542 -0.025801 -0.420225 143 143 143
0.204818 -0.022923 -0.419931 143 143 143
0.205951 -0.020049 -0.419670 142 142 142
0.207084 -0.017176 -0.419409 142 142 142
0.208184 -0.014307 -0.419156 140 140 140
0.209244 -0.011440 -0.418912 139 139 139
0.210200 -0.008575 -0.418691 139 139 139
0.211155 -0.005712 -0.418471 138 138 138
0.212193 -0.002851 -0.418232 138 138 138
0.213178 0.000007 -0.418005 138 138 138
0.214161 0.002864 -0.417779 138 138 138
0.215272 0.005718 -0.417523 138 138 138
0.216260 0.008571 -0.417295 138 138 138
0.217000 0.011422 -0.417125 138 138 138
0.217711 0.014272 -0.416961 138 138 138
0.218420 0.017121 -0.416798 138 138 138
0.219128 0.019968 -0.416635 138 138 138
0.219442 0.022817 -0.416562 138 138 138
0.219708 0.025666 -0.416501 138 138 138
0.219974 0.028514 -0.416440 138 138 138
0.220224 0.031362 -0.416382 138 138 138
0.220378 0.034211 -0.416347 139 139 139
0.220481 0.037060 -0.416323 139 139 139
0.220585 0.039908 -0.416299 139 139 139
0.220688 0.042757 -0.416275 140 140 140
0.220600 0.045608 -0.416295 140 140 140
0.220416 0.048461 -0.416338 140 140 140
0.220213 0.051315 -0.416385 139 139 139
0.220010 0.054170 -0.416431 139 139 139
0.219535 0.057030 -0.416541 139 139 139
0.218926 0.059895 -0.416681 138 138 138
0.218317 0.062760 -0.416822 138 138 138
0.217724 0.065627 -0.416958 138 138 138
0.217109 0.068495 -0.417100 138 138 138
0.216503 0.071364 -0.417239 138 138 138
0.215898 0.074235 -0.417379 138 138 138
0.215310 0.077106 -0.417514 138 138 138
0.214659 0.079980 -0.417664 138 138 138
0.213787 0.082862 -0.417865 138 138 138
0.212915 0.085746 -0.418066 138 138 138
0.212083 0.088631 -0.418258 138 138 138
0.210780 0.091533 -0.418558 138 138 138
0.209267 0.094444 -0.418906 138 138 138
0.207737 0.097360 -0.419259 138 138 138
0.205772 0.100294 -0.419712 138 138 138
0.203728 0.103235 -0.420183 138 138 138
0.201571 0.106185 -0.420680 138 138 138
0.199382 0.109140 -0.421184 138 138 138
0.196951 0.112110 -0.421744 138 138 138
0.194611 0.115081 -0.422283 138 138 138
0.191477 0.118090 -0.423005 138 138 138
0.188030 0.121120 -0.423799 138 138 138
0.184571 0.124157 -0.424596 138 138 138
0.180988 0.127206 -0.425421 138 138 138
0.176503 0.130306 -0.426455 138 138 138
0.172759 0.133379 -0.427317 138 138 138
0.169239 0.136449 -0.428128 138 138 138
0.166088 0.139508 -0.428854 138 138 138
0.163198 0.142560 -0.429520 138 138 138
0.160726 0.145596 -0.430090 138 138 138
0.158134 0.148645 -0.430687 138 138 138
0.155381 0.151707 -0.431321 138 138 138
0.152643 0.154774 -0.431952 138 138 138
0.149572 0.157865 -0.432659 138 138 138
0.146494 0.160963 -0.433368 138 138 138
0.143409 0.164067 -0.434079 138 138 138
0.138491 0.167286 -0.435212 138 138 138
0.133051 0.170546 -0.436465 138 138 138
0.125852 0.173924 -0.438124 138 138 138
0.118976 0.177297 -0.439708 138 138 138
0.112635 0.180651 -0.441169 138 138 138
0.105206 0.184087 -0.442881 138 138 138
0.096526 0.187620 -0.444880 138 138 138
0.084370 0.191400 -0.447681 138 138 138
0.076976 0.194887 -0.449384 138 138 138
0.068673 0.198450 -0.451297 138 138 138
0.055608 0.202359 -0.454307 100 100 100
0.017297 -0.168280 -0.466215 138 138 138
0.102914 -0.160453 -0.446401 138 138 138
0.106760 -0.157271 -0.445511 138 138 138
0.110073 -0.154126 -0.444744 138 138 138
0.113133 -0.151001 -0.444036 138 138 138
0.116035 -0.147890 -0.443364 138 138 138
0.118914 -0.144787 -0.442698 138 138 138
0.121346 -0.141712 -0.442135 138 138 138
0.123775 -0.138641 -0.441573 138 138 138
0.126161 -0.135578 -0.441021 138 138 138
0.128256 -0.132534 -0.440536 138 138 138
0.130319 -0.129495 -0.440059 138 138 138
0.132364 -0.126461 -0.439586 138 138 138
0.134370 -0.123433 -0.439121 139 139 139
0.136273 -0.120413 -0.438681 139 139 139
0.138239 -0.117395 -0.438226 139 139 139
0.140536 -0.114368 -0.437694 139 139 139
0.142852 -0.111344 -0.437159 139 139 139
0.145759 -0.108303 -0.436486 138 138 138
0.148992 -0.105256 -0.435737 138 138 138
0.152275 -0.102213 -0.434978 138 138 138
0.156137 -0.099157 -0.434084 138 138 138
0.160128 -0.096105 -0.433161 138 138 138
0.163623 -0.093077 -0.432352 138 138 138
0.166958 -0.090062 -0.431580 138 138 138
0.170095 -0.087059 -0.430854 138 138 138
0.172718 -0.084078 -0.430247 139 139 139
0.174846 -0.081117 -0.429754 138 138 138
0.176640 -0.078170 -0.429339 138 138 138
0.178442 -0.075226 -0.428922 138 138 138
0.179950 -0.072294 -0.428573 139 139 139
0.181428 -0.069365 -0.428231 139 139 139
0.182905 -0.066440 -0.427889 139 139 139
0.184433 -0.063516 -0.427536 138 138 138
0.185994 -0.060595 -0.427175 138 138 138
0.187613 -0.057676 -0.426800 138 138 138
0.189151 -0.054761 -0.426444 139 139 139
0.190670 -0.051851 -0.426092 139 139 139
0.192246 -0.048942 -0.425728 139 139 139
0.193762 -0.046038 -0.425377 139 139 139
0.195230 -0.043137 -0.425037 140 140 140
0.196697 -0.040240 -0.424697 141 141 141
0.198057 -0.037347 -0.424383 143 143 143
0.199186 -0.034459 -0.424122 144 144 144
0.200311 -0.031574 -0.423861 144 144 144
0.201194 -0.028694 -0.423657 144 144 144
0.202085 -0.025816 -0.423451 144 144 144
0.203107 -0.022938 -0.423214 144 144 144
0.204235 -0.020062 -0.422953 143 143 143
0.205360 -0.017188 -0.422693 143 143 143
0.206486 -0.014316 -0.422432 142 142 142
0.207488 -0.011447 -0.422200 141 141 141
0.208447 -0.008581 -0.421978 140 140 140
0.209405 -0.005716 -0.421757 140 140 140
0.210311 -0.002853 -0.421547 139 139 139
0.211275 0.000007 -0.421324 138 138 138
0.212260 0.002866 -0.421096 138 138 138
0.213245 0.005723 -0.420868 138 138 138
0.214116 0.008578 -0.420666 138 138 138
0.214835 0.011432 -0.420500 138 138 138
0.215522 0.014284 -0.420341 138 138 138
0.216207 0.017135 -0.420183 138 138 138
0.216893 0.019985 -0.420024 138 138 138
0.217307 0.022836 -0.419928 138 138 138
0.217510 0.025687 -0.419881 138 138 138
0.217719 0.028538 -0.419833 138 138 138
0.217991 0.031389 -0.419770 138 138 138
0.218168 0.034239 -0.419729 138 138 138
0.218345 0.037089 -0.419688 138 138 138
0.218477 0.039940 -0.419657 138 138 138
0.218581 0.042791 -0.419633 138 138 138
0.218579 0.045643 -0.419634 138 138 138
0.218415 0.048498 -0.419672 138 138 138
0.218251 0.051354 -0.419710 138 138 138
0.218086 0.054209 -0.419748 138 138 138
0.217742 0.057069 -0.419827 138 138 138
0.217130 0.059935 -0.419969 138 138 138
0.216511 0.062803 -0.420112 138 138 138
0.215891 0.065672 -0.420256 138 138 138
0.215277 0.068542 -0.420398 138 138 138
0.214672 0.071414 -0.420538 138 138 138
0.214076 0.074286 -0.420676 138 138 138
0.213496 0.077159 -0.420810 138 138 138
0.212911 0.080033 -0.420945 138 138 138
0.212051 0.082917 -0.421144 138 138 138
0.211178 0.085803 -0.421346 138 138 138
0.210302 0.088691 -0.421549 138 138 138
0.209022 0.091594 -0.421845 138 138 138
0.207491 0.094508 -0.422200 138 138 138
0.205875 0.097428 -0.422574 138 138 138
0.203846 0.100367 -0.423043 138 138 138
0.201752 0.103312 -0.423528 138 138 138
0.199588 0.106264 -0.424029 138 138 138
0.197300 0.109226 -0.424558 138 138 138
0.194617 0.112208 -0.425179 138 138 138
0.191928 0.115196 -0.425801 138 138 138
0.188811 0.118207 -0.426523 138 138 138
0.185566 0.121231 -0.427274 138 138 138
0.181816 0.124283 -0.428142 138 138 138
0.177941 0.127349 -0.429038 138 138 138
0.174167 0.130418 -0.429912 138 138 138
0.170323 0.133499 -0.430801 138 138 138
0.166948 0.136564 -0.431582 138 138 138
0.164184 0.139607 -0.432222 138 138 138
0.161574 0.142647 -0.432826 138 138 138
0.159092 0.145686 -0.433400 138 138 138
0.156522 0.148734 -0.433995 138 138 138
0.153581 0.151808 -0.434676 138 138 138
0.151077 0.154864 -0.435255 138 138 138
0.148161 0.157949 -0.435930 138 138 138
0.145080 0.161048 -0.436643 138 138 138
0.140597 0.164235 -0.437681 138 138 138
0.135586 0.167462 -0.438840 138 138 138
0.127445 0.170887 -0.440724 138 138 138
0.120050 0.174283 -0.442436 138 138 138
0.110496 0.177828 -0.444647 138 138 138
0.102772 0.181278 -0.446434 138 138 138
0.089845 0.185076 -0.449426 138 138 138
0.081131 0.188627 -0.451442 138 138 138
0.075650 0.191982 -0.452711 138 138 138
0.069252 0.195411 -0.454191 138 138 138
0.060629 0.199004 -0.456187 138 138 138
0.023013 -0.164907 -0.467968 138 138 138
0.104520 -0.157399 -0.449021 138 138 138
0.107812 -0.154253 -0.448255 138 138 138
0.111166 -0.151110 -0.447476 138 138 138
0.114350 -0.147982 -0.446735 138 138 138
0.117289 -0.144874 -0.446052 138 138 138
0.119853 -0.141790 -0.445456 138 138 138
0.122396 -0.138713 -0.444865 138 138 138
0.124904 -0.135643 -0.444282 138 138 138
0.127080 -0.132593 -0.443776 138 138 138
0.129145 -0.129552 -0.443296 138 138 138
0.131208 -0.126516 -0.442817 138 138 138
0.133257 -0.123485 -0.442340 139 139 139
0.135206 -0.120462 -0.441887 139 139 139
0.137156 -0.117444 -0.441434 138 138 138
0.139104 -0.114429 -0.440981 139 139 139
0.141364 -0.111406 -0.440456 139 139 139
0.143845 -0.108380 -0.439879 139 139 139
0.146442 -0.105354 -0.439275 139 139 139
0.149383 -0.102321 -0.438592 138 138 138
0.152544 -0.099287 -0.437857 138 138 138
0.156566 -0.096229 -0.436922 138 138 138
0.160572 -0.093181 -0.435991 138 138 138
0.164065 -0.090157 -0.435179 138 138 138
0.167509 -0.087142 -0.434378 138 138 138
0.170720 -0.084141 -0.433632 139 139 139
0.173211 -0.081167 -0.433053 138 138 138
0.175275 -0.078211 -0.432573 138 138 138
0.177079 -0.075266 -0.432153 138 138 138
0.178757 -0.072327 -0.431763 139 139 139
0.180244 -0.069397 -0.431418 139 139 139
0.181786 -0.066469 -0.431059 138 138 138
0.183317 -0.063544 -0.430703 139 139 139
0.184827 -0.060622 -0.430352 139 139 139
0.186448 -0.057702 -0.429976 138 138 138
0.188066 -0.054784 -0.429599 139 139 139
0.189683 -0.051871 -0.429223 139 139 139
0.191287 -0.048960 -0.428851 138 138 138
0.192760 -0.046056 -0.428508 140 140 140
0.194231 -0.043154 -0.428166 141 141 141
0.195676 -0.040256 -0.427830 142 142 142
0.197104 -0.037361 -0.427498 144 144 144
0.198266 -0.034472 -0.427228 144 144 144
0.199318 -0.031587 -0.426984 145 145 145
0.200212 -0.028705 -0.426776 145 145 145
0.201092 -0.025826 -0.426571 145 145 145
0.202041 -0.022948 -0.426351 145 145 145
0.203010 -0.020071 -0.426126 144 144 144
0.203978 -0.017197 -0.425900 143 143 143
0.204991 -0.014324 -0.425665 142 142 142
0.206020 -0.011454 -0.425426 142 142 142
0.206866 -0.008586 -0.425229 141 141 141
0.207704 -0.005720 -0.425034 140 140 140
0.208541 -0.002855 -0.424840 140 140 140
0.209454 0.000007 -0.424628 139 139 139
0.210441 0.002868 -0.424398 138 138 138
0.211230 0.005727 -0.424215 138 138 138
0.211819 0.008585 -0.424078 138 138 138
0.212568 0.011441 -0.423904 138 138 138
0.213100 0.014297 -0.423780 138 138 138
0.213672 0.017152 -0.423647 138 138 138
0.214358 0.020004 -0.423487 138 138 138
0.214929 0.022856 -0.423355 138 138 138
0.215133 0.025710 -0.423307 138 138 138
0.215399 0.028563 -0.423245 138 138 138
0.215671 0.031416 -0.423182 138 138 138
0.215885 0.034269 -0.423133 138 138 138
0.216062 0.037121 -0.423091 138 138 138
0.216239 0.039974 -0.423050 138 138 138
0.216416 0.042826 -0.423009 138 138 138
0.216554 0.045678 -0.422977 138 138 138
0.216370 0.048536 -0.423020 138 138 138
0.216170 0.051394 -0.423066 138 138 138
0.215970 0.054253 -0.423113 138 138 138
0.215759 0.057112 -0.423162 138 138 138
0.215233 0.059979 -0.423284 138 138 138
0.214684 0.062847 -0.423412 138 138 138
0.214064 0.065718 -0.423556 138 138 138
0.213444 0.068590 -0.423700 138 138 138
0.212841 0.071463 -0.423840 138 138 138
0.212261 0.074337 -0.423975 138 138 138
0.211679 0.077212 -0.424110 138 138 138
0.211133 0.080087 -0.424237 138 138 138
0.210357 0.082971 -0.424418 138 138 138
0.209451 0.085859 -0.424628 138 138 138
0.208450 0.088753 -0.424861 138 138 138
0.207353 0.091652 -0.425116 138 138 138
0.205711 0.094572 -0.425498 138 138 138
0.203945 0.097499 -0.425908 138 138 138
0.201893 0.100441 -0.426385 138 138 138
0.199794 0.103388 -0.426873 138 138 138
0.197628 0.106343 -0.427377 138 138 138
0.195038 0.109318 -0.427979 138 138 138
0.192369 0.112302 -0.428599 138 138 138
0.189592 0.115296 -0.429245 138 138 138
0.186736 0.118299 -0.429909 138 138 138
0.182998 0.121346 -0.430778 138 138 138
0.179377 0.124396 -0.431619 138 138 138
0.175617 0.127459 -0.432493 138 138 138
0.171850 0.130530 -0.433369 138 138 138
0.168077 0.133610 -0.434246 138 138 138
0.165185 0.136654 -0.434918 138 138 138
0.162448 0.139697 -0.435555 138 138 138
0.159949 0.142734 -0.436136 138 138 138
0.157417 0.145777 -0.436724 138 138 138
0.154637 0.148839 -0.437370 138 138 138
0.151963 0.151900 -0.437992 138 138 138
0.149495 0.154956 -0.438566 138 138 138
0.146689 0.158036 -0.439218 138 138 138
0.141842 0.161237 -0.440345 138 138 138
0.137325 0.164430 -0.441395 138 138 138
0.129939 0.167800 -0.443112 138 138 138
0.119767 0.171352 -0.445476 138 138 138
0.108417 0.174997 -0.448115 138 138 138
0.098366 0.178585 -0.450451 138 138 138
0.085301 0.182383 -0.453488 138 138 138
0.079355 0.185753 -0.454871 138 138 138
0.074870 0.189040 -0.455913 138 138 138
0.069061 0.192424 -0.457264 138 138 138
0.064039 0.195767 -0.458431 138 138 138
0.056481 0.199293 -0.460188 138 138 138
0.099921 -0.157656 -0.453086 138 138 138
0.105614 -0.154376 -0.451756 138 138 138
0.109023 -0.151227 -0.450960 138 138 138
0.112424 -0.148087 -0.450166 138 138 138
0.115452 -0.144972 -0.449459 138 138 138
0.118049 -0.141885 -0.448853 138 138 138
0.120642 -0.138803 -0.448247 138 138 138
0.123230 -0.135727 -0.447643 138 138 138
0.125511 -0.132670 -0.447110 138 138 138
0.127689 -0.129623 -0.446602 138 138 138
0.129882 -0.126579 -0.446090 138 138 138
0.132020 -0.123543 -0.445591 139 139 139
0.134150 -0.120511 -0.445093 139 139 139
0.136098 -0.117491 -0.444639 138 138 138
0.138038 -0.114476 -0.444185 139 139 139
0.139985 -0.111464 -0.443731 139 139 139
0.142267 -0.108444 -0.443198 139 139 139
0.144703 -0.105422 -0.442629 139 139 139
0.147329 -0.102399 -0.442016 139 139 139
0.150268 -0.099370 -0.441330 138 138 138
0.153380 -0.096341 -0.440603 138 138 138
0.156984 -0.093302 -0.439762 138 138 138
0.161016 -0.090258 -0.438820 138 138 138
0.164482 -0.087239 -0.438011 138 138 138
0.168648 -0.084206 -0.437038 138 138 138
0.171154 -0.081230 -0.436453 138 138 138
0.173751 -0.078256 -0.435847 138 138 138
0.175598 -0.075308 -0.435415 138 138 138
0.177546 -0.072361 -0.434960 138 138 138
0.179144 -0.069427 -0.434587 139 139 139
0.180681 -0.066497 -0.434228 138 138 138
0.182200 -0.063571 -0.433874 139 139 139
0.183687 -0.060649 -0.433526 139 139 139
0.185284 -0.057728 -0.433154 138 138 138
0.186926 -0.054809 -0.432770 138 138 138
0.188566 -0.051893 -0.432387 138 138 138
0.190214 -0.048981 -0.432002 139 139 139
0.191761 -0.046074 -0.431641 140 140 140
0.193210 -0.043171 -0.431303 142 142 142
0.194642 -0.040272 -0.430969 143 143 143
0.196072 -0.037376 -0.430635 144 144 144
0.197346 -0.034484 -0.430337 146 146 146
0.198324 -0.031599 -0.430109 146 146 146
0.199218 -0.028716 -0.429900 146 146 146
0.200112 -0.025836 -0.429691 146 146 146
0.201028 -0.022957 -0.429477 146 146 146
0.201997 -0.020079 -0.429251 145 145 145
0.202966 -0.017204 -0.429025 144 144 144
0.203709 -0.014331 -0.428851 143 143 143
0.204393 -0.011461 -0.428692 142 142 142
0.205155 -0.008591 -0.428514 141 141 141
0.205930 -0.005724 -0.428333 140 140 140
0.206769 -0.002857 -0.428137 140 140 140
0.207630 0.000007 -0.427936 139 139 139
0.208501 0.002870 -0.427732 139 139 139
0.209156 0.005732 -0.427580 138 138 138
0.209786 0.008592 -0.427432 138 138 138
0.210350 0.011451 -0.427301 138 138 138
0.210883 0.014309 -0.427176 138 138 138
0.211417 0.017166 -0.427052 138 138 138
0.211950 0.020022 -0.426927 138 138 138
0.212507 0.022877 -0.426797 138 138 138
0.212802 0.025733 -0.426728 138 138 138
0.213105 0.028588 -0.426657 138 138 138
0.213415 0.031443 -0.426585 138 138 138
0.213715 0.034297 -0.426515 138 138 138
0.213809 0.037153 -0.426493 138 138 138
0.213995 0.040007 -0.426450 138 138 138
0.214181 0.042862 -0.426406 138 138 138
0.214368 0.045716 -0.426362 138 138 138
0.214230 0.048575 -0.426395 138 138 138
0.213984 0.051436 -0.426452 138 138 138
0.213769 0.054298 -0.426502 138 138 138
0.213569 0.057159 -0.426549 138 138 138
0.213134 0.060026 -0.426651 138 138 138
0.212608 0.062896 -0.426774 138 138 138
0.212081 0.065767 -0.426897 138 138 138
0.211584 0.068639 -0.427013 138 138 138
0.211080 0.071511 -0.427130 138 138 138
0.210536 0.074386 -0.427257 138 138 138
0.209993 0.077262 -0.427384 138 138 138
0.209451 0.080139 -0.427511 138 138 138
0.208600 0.083026 -0.427709 138 138 138
0.207598 0.085920 -0.427943 138 138 138
0.206596 0.088816 -0.428177 138 138 138
0.205593 0.091713 -0.428411 138 138 138
0.203977 0.094634 -0.428789 138 138 138
0.201973 0.097572 -0.429257 138 138 138
0.199907 0.100516 -0.429739 138 138 138
0.197835 0.103465 -0.430223 138 138 138
0.195458 0.106429 -0.430778 138 138 138
0.192879 0.109407 -0.431380 138 138 138
0.190278 0.112390 -0.431988 138 138 138
0.187518 0.115385 -0.432632 138 138 138
0.184194 0.118410 -0.433408 138 138 138
0.180726 0.121449 -0.434218 138 138 138
0.177368 0.124489 -0.435002 138 138 138
0.173627 0.127554 -0.435876 138 138 138
0.169853 0.130628 -0.436757 138 138 138
0.166376 0.133695 -0.437569 138 138 138
0.163433 0.136744 -0.438256 138 138 138
0.160824 0.139783 -0.438865 138 138 138
0.158214 0.142826 -0.439475 138 138 138
0.155537 0.145879 -0.440100 138 138 138
0.152848 0.148938 -0.440727 138 138 138
0.150275 0.151996 -0.441328 138 138 138
0.147070 0.155094 -0.442077 138 138 138
0.143166 0.158238 -0.442988 138 138 138
0.138464 0.161435 -0.444086 138 138 138
0.130753 0.164815 -0.445887 138 138 138
0.116977 0.168568 -0.449103 138 138 138
0.106772 0.172135 -0.451486 138 138 138
0.093556 0.175907 -0.454572 138 138 138
0.083103 0.179535 -0.457013 138 138 138
0.078888 0.182793 -0.457997 138 138 138
0.074285 0.186083 -0.459072 138 138 138
0.069072 0.189423 -0.460289 138 138 138
0.065612 0.192658 -0.461097 138 138 138
0.059995 0.196045 -0.462409 138 138 138
0.050226 0.199726 -0.464690 100 100 100
0.021311 -0.161957 -0.474519 100 100 100
0.100789 -0.154640 -0.455879 138 138 138
0.106134 -0.151385 -0.454625 138 138 138
0.110883 -0.148171 -0.453511 138 138 138
0.114279 -0.145036 -0.452715 138 138 138
0.116580 -0.141962 -0.452175 138 138 138
0.119092 -0.138883 -0.451586 138 138 138
0.121683 -0.135805 -0.450978 138 138 138
0.123699 -0.132759 -0.450505 138 138 138
0.126181 -0.129696 -0.449923 138 138 138
0.128357 -0.126651 -0.449413 138 138 138
0.130532 -0.123612 -0.448903 138 138 138
0.133008 -0.120564 -0.448322 138 138 138
0.135083 -0.117537 -0.447835 138 138 138
0.137111 -0.114517 -0.447360 139 139 139
0.139154 -0.111501 -0.446881 139 139 139
0.141006 -0.108495 -0.446446 139 139 139
0.143126 -0.105484 -0.445949 139 139 139
0.145559 -0.102466 -0.445378 139 139 139
0.148215 -0.099445 -0.444755 139 139 139
0.151219 -0.096418 -0.444051 139 139 139
0.154650 -0.093383 -0.443246 138 138 138
0.158132 -0.090353 -0.442430 138 138 138
0.161705 -0.087328 -0.441592 138 138 138
0.165990 -0.084288 -0.440587 138 138 138
0.169110 -0.081291 -0.439855 138 138 138
0.172133 -0.078304 -0.439146 139 139 139
0.174044 -0.075352 -0.438698 138 138 138
0.176253 -0.072397 -0.438180 138 138 138
0.178083 -0.069455 -0.437750 138 138 138
0.179622 -0.066524 -0.437389 139 139 139
0.181160 -0.063597 -0.437028 139 139 139
0.182663 -0.060673 -0.436676 139 139 139
0.184151 -0.057753 -0.436327 139 139 139
0.185802 -0.054833 -0.435940 138 138 138
0.187450 -0.051916 -0.435553 138 138 138
0.189074 -0.049003 -0.435172 139 139 139
0.190698 -0.046093 -0.434792 141 141 141
0.192157 -0.043189 -0.434449 143 143 143
0.193607 -0.040288 -0.434109 144 144 144
0.195038 -0.037391 -0.433774 145 145 145
0.196424 -0.034497 -0.433448 146 146 146
0.197329 -0.031611 -0.433236 146 146 146
0.198224 -0.028728 -0.433026 147 147 147
0.199119 -0.025846 -0.432817 147 147 147
0.200013 -0.022966 -0.432607 147 147 147
0.200806 -0.020088 -0.432421 146 146 146
0.201529 -0.017213 -0.432251 145 145 145
0.202254 -0.014339 -0.432081 144 144 144
0.202848 -0.011468 -0.431942 142 142 142
0.203585 -0.008597 -0.431769 141 141 141
0.204335 -0.005727 -0.431593 141 141 141
0.205085 -0.002859 -0.431417 140 140 140
0.205756 0.000007 -0.431260 140 140 140
0.206332 0.002873 -0.431125 139 139 139
0.206971 0.005736 -0.430975 138 138 138
0.207620 0.008599 -0.430823 138 138 138
0.208120 0.011461 -0.430705 138 138 138
0.208621 0.014321 -0.430588 138 138 138
0.209151 0.017181 -0.430464 138 138 138
0.209679 0.020039 -0.430340 138 138 138
0.210209 0.022897 -0.430216 138 138 138
0.210679 0.025753 -0.430105 138 138 138
0.211087 0.028610 -0.430010 138 138 138
0.211397 0.031467 -0.429937 138 138 138
0.211708 0.034323 -0.429864 138 138 138
0.211859 0.037180 -0.429829 138 138 138
0.211921 0.040039 -0.429814 138 138 138
0.211983 0.042897 -0.429799 138 138 138
0.212147 0.045754 -0.429761 138 138 138
0.212147 0.048613 -0.429761 138 138 138
0.211900 0.051477 -0.429819 138 138 138
0.211654 0.054341 -0.429877 138 138 138
0.211412 0.057206 -0.429933 138 138 138
0.211132 0.060072 -0.429999 138 138 138
0.210708 0.062941 -0.430098 138 138 138
0.210284 0.065812 -0.430198 138 138 138
0.209894 0.068683 -0.430289 138 138 138
0.209453 0.071556 -0.430393 138 138 138
0.208908 0.074432 -0.430521 138 138 138
0.208363 0.077310 -0.430649 138 138 138
0.207903 0.080186 -0.430756 138 138 138
0.207148 0.083072 -0.430933 138 138 138
0.206144 0.085968 -0.431169 138 138 138
0.204902 0.088873 -0.431460 138 138 138
0.203643 0.091781 -0.431756 138 138 138
0.202072 0.094702 -0.432124 138 138 138
0.200003 0.097644 -0.432609 138 138 138
0.197930 0.100591 -0.433095 138 138 138
0.195871 0.103541 -0.433578 138 138 138
0.193388 0.106512 -0.434161 138 138 138
0.190859 0.109489 -0.434754 138 138 138
0.188163 0.112479 -0.435386 138 138 138
0.185391 0.115477 -0.436036 138 138 138
0.182091 0.118504 -0.436810 138 138 138
0.178786 0.121537 -0.437585 138 138 138
0.175378 0.124581 -0.438385 138 138 138
0.171626 0.127649 -0.439265 138 138 138
0.167823 0.130726 -0.440157 138 138 138
0.164706 0.133779 -0.440888 138 138 138
0.161666 0.136834 -0.441601 138 138 138
0.158897 0.139883 -0.442250 138 138 138
0.156123 0.142937 -0.442901 138 138 138
0.153343 0.145997 -0.443553 138 138 138
0.150550 0.149064 -0.444208 138 138 138
0.146932 0.152181 -0.445056 138 138 138
0.143310 0.155305 -0.445906 138 138 138
0.139636 0.158440 -0.446768 138 138 138
0.131144 0.161855 -0.448759 138 138 138
0.116013 0.165672 -0.452308 138 138 138
0.105239 0.169264 -0.454835 138 138 138
0.093524 0.172934 -0.457583 138 138 138
0.082399 0.176592 -0.460192 138 138 138
0.078420 0.179831 -0.461125 138 138 138
0.074123 0.183099 -0.462133 138 138 138
0.069823 0.186375 -0.463141 138 138 138
0.066358 0.189606 -0.463954 138 138 138
0.062594 0.192864 -0.464837 138 138 138
0.056018 0.196318 -0.466379 138 138 138
0.036627 -0.158086 -0.473989 138 138 138
0.100830 -0.151669 -0.458865 138 138 138
0.106559 -0.148399 -0.457515 138 138 138
0.112027 -0.145155 -0.456227 138 138 138
0.115317 -0.142030 -0.455452 138 138 138
0.117739 -0.138953 -0.454881 138 138 138
0.120133 -0.135883 -0.454317 138 138 138
0.122122 -0.132836 -0.453849 138 138 138
0.124360 -0.129783 -0.453321 138 138 138
0.126850 -0.126723 -0.452735 138 138 138
0.129026 -0.123681 -0.452222 138 138 138
0.131642 -0.120626 -0.451606 138 138 138
0.134138 -0.117580 -0.451018 138 138 138
0.136168 -0.114559 -0.450540 139 139 139
0.138195 -0.111542 -0.450062 139 139 139
0.140272 -0.108527 -0.449573 138 138 138
0.142309 -0.105518 -0.449093 139 139 139
0.144373 -0.102512 -0.448607 139 139 139
0.146449 -0.099511 -0.448118 139 139 139
0.149143 -0.096492 -0.447483 139 139 139
0.152432 -0.093459 -0.446708 139 139 139
0.155838 -0.090429 -0.445906 139 139 139
0.159155 -0.087409 -0.445125 138 138 138
0.162930 -0.084383 -0.444235 138 138 138
0.167497 -0.081341 -0.443159 138 138 138
0.170532 -0.078351 -0.442444 139 139 139
0.172746 -0.075389 -0.441923 139 139 139
0.174958 -0.072433 -0.441402 138 138 138
0.177049 -0.069483 -0.440909 138 138 138
0.178561 -0.066552 -0.440553 139 139 139
0.180101 -0.063623 -0.440190 139 139 139
0.181641 -0.060697 -0.439828 139 139 139
0.183130 -0.057776 -0.439477 139 139 139
0.184654 -0.054857 -0.439118 138 138 138
0.186304 -0.051939 -0.438729 139 139 139
0.187891 -0.049025 -0.438355 140 140 140
0.189515 -0.046114 -0.437973 141 141 141
0.190855 -0.043211 -0.437657 142 142 142
0.192314 -0.040308 -0.437313 144 144 144
0.193772 -0.037409 -0.436970 145 145 145
0.195153 -0.034514 -0.436644 146 146 146
0.196045 -0.031627 -0.436434 146 146 146
0.196932 -0.028742 -0.436225 146 146 146
0.197819 -0.025859 -0.436016 147 147 147
0.198712 -0.022977 -0.435806 147 147 147
0.199427 -0.020099 -0.435637 146 146 146
0.200156 -0.017222 -0.435466 145 145 145
0.200884 -0.014347 -0.435294 144 144 144
0.201110 -0.011475 -0.435241 143 143 143
0.201780 -0.008602 -0.435083 141 141 141
0.202532 -0.005731 -0.434906 140 140 140
0.203206 -0.002861 -0.434747 140 140 140
0.203512 0.000007 -0.434675 139 139 139
0.203976 0.002875 -0.434566 138 138 138
0.204619 0.005741 -0.434414 138 138 138
0.205290 0.008606 -0.434256 138 138 138
0.205867 0.011470 -0.434120 138 138 138
0.206323 0.014334 -0.434013 138 138 138
0.206857 0.017196 -0.433887 138 138 138
0.207390 0.020056 -0.433762 138 138 138
0.207921 0.022916 -0.433636 138 138 138
0.208425 0.025775 -0.433518 138 138 138
0.208856 0.028634 -0.433416 138 138 138
0.209288 0.031492 -0.433315 138 138 138
0.209687 0.034349 -0.433220 138 138 138
0.209921 0.037207 -0.433165 138 138 138
0.209984 0.040068 -0.433151 138 138 138
0.210046 0.042929 -0.433136 138 138 138
0.210100 0.045789 -0.433123 138 138 138
0.210155 0.048650 -0.433110 138 138 138
0.209966 0.051514 -0.433155 138 138 138
0.209777 0.054380 -0.433199 138 138 138
0.209596 0.057245 -0.433242 138 138 138
0.209407 0.060111 -0.433287 138 138 138
0.208982 0.062983 -0.433387 138 138 138
0.208578 0.065855 -0.433482 138 138 138
0.208208 0.068727 -0.433569 138 138 138
0.207824 0.071600 -0.433659 138 138 138
0.207289 0.074478 -0.433785 138 138 138
0.206845 0.077355 -0.433890 138 138 138
0.206309 0.080235 -0.434016 138 138 138
0.205535 0.083123 -0.434199 138 138 138
0.204267 0.086029 -0.434497 138 138 138
0.202998 0.088937 -0.434796 138 138 138
0.201728 0.091847 -0.435095 138 138 138
0.200138 0.094771 -0.435470 138 138 138
0.198087 0.097715 -0.435953 138 138 138
0.196032 0.100663 -0.436437 138 138 138
0.193808 0.103621 -0.436961 138 138 138
0.191369 0.106593 -0.437536 138 138 138
0.188745 0.109576 -0.438154 138 138 138
0.185951 0.112572 -0.438812 138 138 138
0.183208 0.115571 -0.439458 138 138 138
0.180036 0.118594 -0.440206 138 138 138
0.176764 0.121629 -0.440976 138 138 138
0.173359 0.124675 -0.441778 138 138 138
0.169599 0.127745 -0.442664 138 138 138
0.166078 0.130812 -0.443494 138 138 138
0.162715 0.133878 -0.444286 138 138 138
0.159425 0.136948 -0.445061 138 138 138
0.156559 0.140003 -0.445736 138 138 138
0.153699 0.143064 -0.446410 138 138 138
0.150306 0.146159 -0.447209 138 138 138
0.146794 0.149267 -0.448037 138 138 138
0.143169 0.152388 -0.448891 138 138 138
0.138445 0.155576 -0.450004 138 138 138
0.131486 0.158899 -0.451643 138 138 138
0.115599 0.162743 -0.455385 138 138 138
0.105479 0.166286 -0.457770 138 138 138
0.093492 0.169960 -0.460593 138 138 138
0.083380 0.173546 -0.462976 138 138 138
0.078255 0.176850 -0.464183 138 138 138
0.073961 0.180113 -0.465194 138 138 138
0.070525 0.183331 -0.466004 138 138 138
0.067228 0.186547 -0.466781 138 138 138
0.063704 0.189785 -0.467611 138 138 138
0.059228 0.193093 -0.468665 138 138 138
0.050563 0.196691 -0.470707 100 100 100
0.050267 -0.154333 -0.473825 138 138 138
0.102852 -0.148596 -0.461382 138 138 138
0.108877 -0.145319 -0.459956 138 138 138
0.112598 -0.142169 -0.459076 138 138 138
0.115500 -0.139066 -0.458389 138 138 138
0.118106 -0.135984 -0.457773 138 138 138
0.120249 -0.132928 -0.457266 138 138 138
0.122484 -0.129872 -0.456737 138 138 138
0.125034 -0.126807 -0.456133 138 138 138
0.127519 -0.123751 -0.455545 138 138 138
0.130274 -0.120688 -0.454893 138 138 138
0.133193 -0.117623 -0.454203 138 138 138
0.135224 -0.114601 -0.453722 138 138 138
0.137587 -0.111570 -0.453163 139 139 139
0.139606 -0.108556 -0.452685 138 138 138
0.141621 -0.105547 -0.452209 139 139 139
0.143685 -0.102541 -0.451720 139 139 139
0.145746 -0.099539 -0.451233 139 139 139
0.147964 -0.096535 -0.450708 139 139 139
0.150413 -0.093529 -0.450128 139 139 139
0.153453 -0.090509 -0.449409 139 139 139
0.156775 -0.087486 -0.448623 139 139 139
0.160094 -0.084470 -0.447838 138 138 138
0.164155 -0.081440 -0.446877 138 138 138
0.168425 -0.078412 -0.445866 138 138 138
0.171349 -0.075429 -0.445174 139 139 139
0.173642 -0.072469 -0.444632 138 138 138
0.175870 -0.069515 -0.444105 139 139 139
0.177499 -0.066579 -0.443719 139 139 139
0.179041 -0.063649 -0.443354 139 139 139
0.180582 -0.060722 -0.442990 139 139 139
0.182120 -0.057799 -0.442626 139 139 139
0.183586 -0.054880 -0.442279 138 138 138
0.185158 -0.051962 -0.441907 139 139 139
0.186726 -0.049047 -0.441536 140 140 140
0.188264 -0.046136 -0.441172 142 142 142
0.189728 -0.043230 -0.440826 143 143 143
0.191014 -0.040329 -0.440522 144 144 144
0.192470 -0.037428 -0.440177 145 145 145
0.193781 -0.034532 -0.439867 146 146 146
0.194682 -0.031644 -0.439654 146 146 146
0.195570 -0.028757 -0.439443 146 146 146
0.196464 -0.025872 -0.439232 146 146 146
0.197361 -0.022989 -0.439020 146 146 146
0.198164 -0.020109 -0.438830 146 146 146
0.198784 -0.017231 -0.438683 145 145 145
0.199501 -0.014355 -0.438513 144 144 144
0.199619 -0.011482 -0.438485 142 142 142
0.199974 -0.008608 -0.438401 141 141 141
0.200652 -0.005735 -0.438241 140 140 140
0.200958 -0.002863 -0.438169 139 139 139
0.201264 0.000007 -0.438096 139 139 139
0.201617 0.002878 -0.438013 138 138 138
0.202284 0.005746 -0.437855 138 138 138
0.202956 0.008614 -0.437696 138 138 138
0.203609 0.011480 -0.437541 138 138 138
0.204022 0.014346 -0.437444 138 138 138
0.204561 0.017210 -0.437316 138 138 138
0.205109 0.020074 -0.437187 138 138 138
0.205656 0.022936 -0.437057 138 138 138
0.206202 0.025797 -0.436928 138 138 138
0.206653 0.028658 -0.436821 138 138 138
0.207100 0.031517 -0.436715 138 138 138
0.207547 0.034377 -0.436610 138 138 138
0.207921 0.037236 -0.436521 138 138 138
0.208003 0.040098 -0.436502 138 138 138
0.208058 0.042961 -0.436489 138 138 138
0.208138 0.045823 -0.436470 138 138 138
0.208260 0.048684 -0.436441 138 138 138
0.208141 0.051550 -0.436469 138 138 138
0.207955 0.054417 -0.436513 138 138 138
0.207786 0.057284 -0.436553 138 138 138
0.207616 0.060152 -0.436593 138 138 138
0.207261 0.063024 -0.436677 138 138 138
0.206891 0.065897 -0.436765 138 138 138
0.206515 0.068771 -0.436854 138 138 138
0.206108 0.071647 -0.436950 138 138 138
0.205575 0.074527 -0.437076 138 138 138
0.205035 0.077408 -0.437204 138 138 138
0.204433 0.080292 -0.437347 138 138 138
0.203737 0.083180 -0.437511 138 138 138
0.202549 0.086085 -0.437792 138 138 138
0.201278 0.088995 -0.438093 138 138 138
0.200019 0.091907 -0.438391 138 138 138
0.198240 0.094839 -0.438812 138 138 138
0.196192 0.097785 -0.439296 138 138 138
0.194090 0.100736 -0.439794 138 138 138
0.191739 0.103702 -0.440350 138 138 138
0.189328 0.106674 -0.440921 138 138 138
0.186438 0.109670 -0.441604 138 138 138
0.183597 0.112670 -0.442277 138 138 138
0.180938 0.115669 -0.442906 138 138 138
0.177915 0.118688 -0.443621 138 138 138
0.174422 0.121734 -0.444447 138 138 138
0.171021 0.124783 -0.445252 138 138 138
0.167569 0.127842 -0.446069 138 138 138
0.163847 0.130920 -0.446950 138 138 138
0.160103 0.134007 -0.447836 138 138 138
0.157186 0.137061 -0.448526 138 138 138
0.154188 0.140125 -0.449235 138 138 138
0.150459 0.143233 -0.450118 138 138 138
0.146736 0.146348 -0.450999 138 138 138
0.143028 0.149470 -0.451876 138 138 138
0.137074 0.152720 -0.453285 138 138 138
0.130306 0.156026 -0.454886 138 138 138
0.115309 0.159805 -0.458435 138 138 138
0.107797 0.163191 -0.460212 138 138 138
0.095790 0.166851 -0.463053 138 138 138
0.085310 0.170447 -0.465533 138 138 138
0.080018 0.173753 -0.466785 138 138 138
0.074971 0.177056 -0.467979 138 138 138
0.071227 0.180289 -0.468865 138 138 138
0.068095 0.183490 -0.469606 138 138 138
0.064593 0.186722 -0.470435 138 138 138
0.061329 0.189946 -0.471207 138 138 138
0.055019 0.193377 -0.472700 138 138 138
0.042846 -0.154729 -0.478637 138 138 138
0.055987 -0.151017 -0.475514 138 138 138
0.102624 -0.145640 -0.464430 138 138 138
0.109569 -0.142324 -0.462780 138 138 138
0.112788 -0.139203 -0.462015 138 138 138
0.115683 -0.136103 -0.461327 138 138 138
0.117963 -0.133039 -0.460785 138 138 138
0.120467 -0.129968 -0.460190 138 138 138
0.123039 -0.126900 -0.459579 138 138 138
0.125608 -0.123838 -0.458968 138 138 138
0.128768 -0.120755 -0.458217 138 138 138
0.132032 -0.117675 -0.457441 138 138 138
0.134524 -0.114633 -0.456849 138 138 138
0.136932 -0.111599 -0.456277 138 138 138
0.138941 -0.108585 -0.455799 138 138 138
0.140947 -0.105576 -0.455323 139 139 139
0.142997 -0.102569 -0.454835 139 139 139
0.145012 -0.099568 -0.454357 139 139 139
0.147330 -0.096560 -0.453806 139 139 139
0.149478 -0.093563 -0.453295 139 139 139
0.152115 -0.090555 -0.452668 139 139 139
0.154954 -0.087545 -0.451994 139 139 139
0.157730 -0.084544 -0.451334 139 139 139
0.161032 -0.081533 -0.450549 138 138 138
0.165307 -0.078502 -0.449533 138 138 138
0.168473 -0.075509 -0.448781 138 138 138
0.171397 -0.072529 -0.448086 138 138 138
0.174316 -0.069556 -0.447392 139 139 139
0.176349 -0.066609 -0.446909 139 139 139
0.177908 -0.063677 -0.446539 139 139 139
0.179457 -0.060749 -0.446170 139 139 139
0.180916 -0.057826 -0.445824 139 139 139
0.182486 -0.054903 -0.445451 138 138 138
0.183993 -0.051985 -0.445092 140 140 140
0.185560 -0.049069 -0.444720 141 141 141
0.187099 -0.046157 -0.444354 142 142 142
0.188611 -0.043248 -0.443995 143 143 143
0.189899 -0.040346 -0.443689 144 144 144
0.191185 -0.037446 -0.443383 145 145 145
0.192407 -0.034550 -0.443093 145 145 145
0.193317 -0.031660 -0.442877 146 146 146
0.194212 -0.028772 -0.442664 146 146 146
0.195111 -0.025886 -0.442450 146 146 146
0.196009 -0.023001 -0.442237 146 146 146
0.196906 -0.020119 -0.442024 146 146 146
0.197508 -0.017240 -0.441881 145 145 145
0.198039 -0.014363 -0.441754 144 144 144
0.198154 -0.011488 -0.441727 142 142 142
0.198254 -0.008614 -0.441703 141 141 141
0.198595 -0.005739 -0.441622 140 140 140
0.198972 -0.002866 -0.441533 139 139 139
0.199348 0.000007 -0.441443 138 138 138
0.199699 0.002880 -0.441360 138 138 138
0.200122 0.005751 -0.441259 138 138 138
0.200809 0.008621 -0.441096 138 138 138
0.201494 0.011489 -0.440933 138 138 138
