ply
format ascii 1.0
element vertex 1190
property float x
property float y
property float z
property uchar red
property uchar green
property uchar blue
end_header
0.177961 0.135626 -0.418858 138 138 138
0.175625 0.137580 -0.419100 138 138 138
0.173299 0.139543 -0.419340 138 138 138
0.170989 0.141517 -0.419574 138 138 138
0.168993 0.143668 -0.419725 138 138 138
0.166995 0.145821 -0.419877 138 138 138
0.164983 0.147967 -0.420031 138 138 138
0.162853 0.150049 -0.420217 138 138 138
0.160581 0.152054 -0.420441 138 138 138
0.157954 0.153866 -0.420758 138 138 138
0.155691 0.155881 -0.420978 138 138 138
0.153453 0.157912 -0.421192 139 139 139
0.151213 0.159945 -0.421405 140 140 140
0.148938 0.161960 -0.421628 140 140 140
0.146525 0.163903 -0.421887 141 141 141
0.143968 0.165770 -0.422183 141 141 141
0.141407 0.167638 -0.422480 141 141 141
0.138843 0.169507 -0.422778 140 140 140
0.136278 0.171378 -0.423076 140 140 140
0.133882 0.173344 -0.423328 139 139 139
0.131632 0.175390 -0.423542 140 140 140
0.129120 0.177298 -0.423825 139 139 139
0.126819 0.179322 -0.424052 139 139 139
0.124550 0.181366 -0.424270 139 139 139
0.122617 0.183590 -0.424400 139 139 139
0.120669 0.185807 -0.424534 139 139 139
0.118721 0.188026 -0.424668 138 138 138
0.116603 0.190157 -0.424846 138 138 138
0.114482 0.192287 -0.425024 138 138 138
0.112303 0.194389 -0.425218 138 138 138
0.110109 0.196485 -0.425415 138 138 138
0.108103 0.198681 -0.425563 138 138 138
0.106095 0.200878 -0.425711 138 138 138
0.103857 0.202956 -0.425919 138 138 138
0.100690 0.204556 -0.426369 138 138 138
0.097518 0.206157 -0.426819 138 138 138
0.094550 0.207868 -0.427216 138 138 138
0.091762 0.209675 -0.427566 138 138 138
0.088703 0.211347 -0.427986 138 138 138
0.084722 0.212551 -0.428644 138 138 138
0.080080 0.213424 -0.429473 138 138 138
0.075756 0.214467 -0.430219 138 138 138
0.069986 0.214784 -0.431339 138 138 138
0.062804 0.214395 -0.432823 138 138 138
0.052903 0.212647 -0.435010 138 138 138
0.037538 0.208167 -0.438608 100 100 100
0.112982 -0.135306 -0.466300 138 138 138
0.123503 -0.124753 -0.462955 138 138 138
0.136158 -0.112839 -0.459023 138 138 138
0.140890 -0.106147 -0.457292 141 141 141
0.145369 -0.099639 -0.455634 139 139 139
0.150711 -0.092587 -0.453739 140 140 140
0.160945 -0.082377 -0.450492 138 138 138
0.176156 -0.068975 -0.445872 140 140 140
0.179560 -0.063257 -0.444522 139 139 139
0.182645 -0.057760 -0.443262 142 142 142
0.185621 -0.052346 -0.442034 145 145 145
0.188794 -0.046818 -0.440753 147 147 147
0.191548 -0.041573 -0.439588 149 149 149
0.194434 -0.036255 -0.438389 150 150 150
0.196359 -0.031563 -0.437456 148 148 148
0.197948 -0.027096 -0.436617 147 147 147
0.199544 -0.022632 -0.435777 145 145 145
0.200803 -0.018390 -0.435031 145 145 145
0.202093 -0.014137 -0.434277 144 144 144
0.202925 -0.010181 -0.433649 143 143 143
0.204336 -0.005867 -0.432864 142 142 142
0.205744 -0.001562 -0.432080 141 141 141
0.206808 0.002518 -0.431392 139 139 139
0.208115 0.006743 -0.430637 138 138 138
0.209290 0.010878 -0.429920 138 138 138
0.210352 0.014934 -0.429235 138 138 138
0.211451 0.019008 -0.428540 138 138 138
0.212548 0.023072 -0.427847 138 138 138
0.213334 0.026937 -0.427240 138 138 138
0.214041 0.030747 -0.426654 138 138 138
0.214719 0.034533 -0.426078 138 138 138
0.215216 0.038202 -0.425551 138 138 138
0.215776 0.041904 -0.425008 138 138 138
0.216335 0.045600 -0.424466 138 138 138
0.216416 0.048998 -0.424055 138 138 138
0.216478 0.052381 -0.423649 138 138 138
0.216540 0.055760 -0.423244 138 138 138
0.216382 0.059002 -0.422899 138 138 138
0.216023 0.062118 -0.422609 138 138 138
0.215595 0.065190 -0.422338 138 138 138
0.215167 0.068259 -0.422068 138 138 138
0.214750 0.071333 -0.421794 138 138 138
0.214349 0.074412 -0.421517 138 138 138
0.213958 0.077495 -0.421238 138 138 138
0.213543 0.080561 -0.420965 138 138 138
0.212876 0.083474 -0.420760 138 138 138
0.212209 0.086385 -0.420556 138 138 138
0.211543 0.089295 -0.420352 138 138 138
0.210488 0.091972 -0.420253 138 138 138
0.209320 0.094583 -0.420185 138 138 138
0.208152 0.097193 -0.420117 138 138 138
0.206738 0.099657 -0.420115 138 138 138
0.205261 0.102086 -0.420130 138 138 138
0.203772 0.104507 -0.420148 138 138 138
0.202222 0.106893 -0.420183 138 138 138
0.200671 0.109279 -0.420218 138 138 138
0.199077 0.111640 -0.420265 138 138 138
0.197471 0.113996 -0.420314 138 138 138
0.195866 0.116351 -0.420363 138 138 138
0.193995 0.118555 -0.420484 138 138 138
0.191866 0.120612 -0.420673 138 138 138
0.189723 0.122662 -0.420867 138 138 138
0.187575 0.124713 -0.421061 138 138 138
0.185498 0.126805 -0.421235 138 138 138
0.183352 0.128860 -0.421429 138 138 138
0.180914 0.130752 -0.421700 138 138 138
0.178547 0.132686 -0.421951 138 138 138
0.176172 0.134618 -0.422205 138 138 138
0.173844 0.136580 -0.422446 138 138 138
0.171695 0.138644 -0.422638 138 138 138
0.169636 0.140761 -0.422807 138 138 138
0.167692 0.142944 -0.422944 138 138 138
0.165775 0.145143 -0.423075 138 138 138
0.163775 0.147297 -0.423227 138 138 138
0.161646 0.149381 -0.423413 138 138 138
0.159616 0.151523 -0.423573 138 138 138
0.157539 0.153639 -0.423745 138 138 138
0.155340 0.155690 -0.423950 139 139 139
0.153139 0.157743 -0.424154 139 139 139
0.150938 0.159797 -0.424359 140 140 140
0.148711 0.161839 -0.424569 140 140 140
0.146358 0.163815 -0.424813 140 140 140
0.143975 0.165777 -0.425065 140 140 140
0.141521 0.167702 -0.425335 140 140 140
0.139017 0.169604 -0.425619 140 140 140
0.136488 0.171495 -0.425908 139 139 139
0.134000 0.173411 -0.426186 139 139 139
0.131338 0.175236 -0.426510 139 139 139
0.128571 0.177008 -0.426861 139 139 139
0.126400 0.179102 -0.427054 138 138 138
0.124239 0.181204 -0.427245 138 138 138
0.122240 0.183393 -0.427393 139 139 139
0.120292 0.185611 -0.427528 138 138 138
0.117796 0.187541 -0.427806 138 138 138
0.115239 0.189441 -0.428100 138 138 138
0.113425 0.191735 -0.428198 138 138 138
0.111498 0.193971 -0.428326 138 138 138
0.109362 0.196098 -0.428509 138 138 138
0.107355 0.198295 -0.428658 138 138 138
0.104695 0.200153 -0.428977 138 138 138
0.101988 0.201990 -0.429309 138 138 138
0.099090 0.203731 -0.429690 138 138 138
0.095915 0.205333 -0.430143 138 138 138
0.093101 0.207126 -0.430501 138 138 138
0.089475 0.208504 -0.431071 138 138 138
0.085698 0.209810 -0.431679 138 138 138
0.081939 0.211132 -0.432282 138 138 138
0.078172 0.212455 -0.432887 138 138 138
0.072917 0.213027 -0.433878 138 138 138
0.066263 0.212898 -0.435233 138 138 138
0.058794 0.212369 -0.436798 138 138 138
0.050144 0.211259 -0.438668 138 138 138
0.114691 -0.130550 -0.468467 138 138 138
0.130856 -0.116321 -0.463538 138 138 138
0.139445 -0.107099 -0.460724 140 140 140
0.143984 -0.100550 -0.459042 139 139 139
0.149045 -0.093679 -0.457216 139 139 139
0.155810 -0.085719 -0.454919 138 138 138
0.169190 -0.073496 -0.450786 139 139 139
0.177426 -0.064643 -0.448087 139 139 139
0.180504 -0.059147 -0.446823 141 141 141
0.183823 -0.053509 -0.445493 144 144 144
0.186977 -0.047991 -0.444211 147 147 147
0.189944 -0.042607 -0.442983 149 149 149
0.192440 -0.037536 -0.441886 150 150 150
0.194598 -0.032692 -0.440884 149 149 149
0.196193 -0.028217 -0.440039 147 147 147
0.197802 -0.023743 -0.439191 145 145 145
0.199191 -0.019417 -0.438405 144 144 144
0.200407 -0.015208 -0.437668 144 144 144
0.200992 -0.011405 -0.437106 143 143 143
0.202086 -0.007287 -0.436404 142 142 142
0.203321 -0.003088 -0.435664 141 141 141
0.204068 0.000797 -0.435059 139 139 139
0.205247 0.004946 -0.434336 138 138 138
0.206600 0.009196 -0.433567 138 138 138
0.207639 0.013243 -0.432884 138 138 138
0.208745 0.017324 -0.432184 138 138 138
0.209847 0.021395 -0.431486 138 138 138
0.210905 0.025433 -0.430800 138 138 138
0.211799 0.029362 -0.430161 138 138 138
0.212508 0.033170 -0.429573 138 138 138
0.213056 0.036873 -0.429030 138 138 138
0.213409 0.040452 -0.428541 138 138 138
0.213944 0.044136 -0.428002 138 138 138
0.214360 0.047743 -0.427497 138 138 138
0.214352 0.051086 -0.427108 138 138 138
0.214369 0.054441 -0.426713 138 138 138
0.214432 0.057820 -0.426306 138 138 138
0.214147 0.060984 -0.425994 138 138 138
0.213843 0.064133 -0.425688 138 138 138
0.213521 0.067269 -0.425387 138 138 138
0.213098 0.070340 -0.425114 138 138 138
0.212708 0.073429 -0.424832 138 138 138
0.212320 0.076516 -0.424550 138 138 138
0.211955 0.079614 -0.424262 138 138 138
0.211423 0.082609 -0.424020 138 138 138
0.210770 0.085531 -0.423811 138 138 138
0.210017 0.088391 -0.423630 138 138 138
0.209197 0.091210 -0.423466 138 138 138
0.207974 0.093790 -0.423412 138 138 138
0.206806 0.096402 -0.423344 138 138 138
0.205387 0.098866 -0.423343 138 138 138
0.203915 0.101299 -0.423356 138 138 138
0.202397 0.103705 -0.423382 138 138 138
0.200859 0.106100 -0.423414 138 138 138
0.199322 0.108496 -0.423445 138 138 138
0.197604 0.110788 -0.423525 138 138 138
0.195890 0.113083 -0.423604 138 138 138
0.194283 0.115440 -0.423653 138 138 138
0.192200 0.117524 -0.423831 138 138 138
0.190069 0.119582 -0.424022 138 138 138
0.188096 0.121733 -0.424170 138 138 138
0.185953 0.123788 -0.424363 138 138 138
0.183888 0.125890 -0.424535 138 138 138
0.181656 0.127898 -0.424752 138 138 138
0.179216 0.129791 -0.425024 138 138 138
0.176775 0.131686 -0.425297 138 138 138
0.174545 0.133703 -0.425512 138 138 138
0.172409 0.135774 -0.425702 138 138 138
0.170272 0.137848 -0.425892 138 138 138
0.168276 0.140002 -0.426045 138 138 138
0.166300 0.142168 -0.426191 138 138 138
0.164378 0.144367 -0.426323 138 138 138
0.162553 0.146620 -0.426429 138 138 138
0.160708 0.148863 -0.426541 138 138 138
0.158780 0.151062 -0.426674 138 138 138
0.156851 0.153262 -0.426807 138 138 138
0.154668 0.155323 -0.427008 138 138 138
0.152467 0.157376 -0.427213 139 139 139
0.150264 0.159430 -0.427419 139 139 139
0.148192 0.161558 -0.427589 139 139 139
0.146123 0.163689 -0.427759 139 139 139
0.143706 0.165633 -0.428021 139 139 139
0.141480 0.167683 -0.428232 139 139 139
0.138977 0.169585 -0.428515 139 139 139
0.136448 0.171476 -0.428806 139 139 139
0.133585 0.173190 -0.429185 138 138 138
0.130790 0.174945 -0.429545 138 138 138
0.128088 0.176753 -0.429881 138 138 138
0.125973 0.178878 -0.430060 138 138 138
0.123857 0.181004 -0.430240 138 138 138
0.121522 0.183015 -0.430477 138 138 138
0.118990 0.184925 -0.430766 138 138 138
0.116433 0.186824 -0.431062 138 138 138
0.114157 0.188874 -0.431283 138 138 138
0.112367 0.191183 -0.431375 138 138 138
0.110577 0.193492 -0.431467 138 138 138
0.108199 0.195494 -0.431715 138 138 138
0.105329 0.197242 -0.432091 138 138 138
0.102517 0.199023 -0.432451 138 138 138
0.099824 0.200870 -0.432780 138 138 138
0.097129 0.202720 -0.433109 138 138 138
0.094040 0.204369 -0.433542 138 138 138
0.090248 0.205659 -0.434158 138 138 138
0.086451 0.206953 -0.434775 138 138 138
0.082691 0.208272 -0.435381 138 138 138
0.078266 0.209257 -0.436161 138 138 138
0.073546 0.210099 -0.437017 138 138 138
0.067863 0.210459 -0.438124 138 138 138
0.062093 0.210785 -0.439253 138 138 138
0.054335 0.210116 -0.440900 138 138 138
0.046785 0.209568 -0.442490 138 138 138
0.121444 -0.122498 -0.469216 138 138 138
0.135956 -0.109388 -0.464731 139 139 139
0.142466 -0.101547 -0.462490 138 138 138
0.147287 -0.094829 -0.460723 139 139 139
0.153122 -0.087471 -0.458675 138 138 138
0.160283 -0.079275 -0.456259 138 138 138
0.174294 -0.066675 -0.451935 138 138 138
0.177649 -0.060995 -0.450588 140 140 140
0.181437 -0.055051 -0.449121 143 143 143
0.184622 -0.049510 -0.447825 146 146 146
0.187935 -0.043900 -0.446494 148 148 148
0.190640 -0.038692 -0.445334 149 149 149
0.192814 -0.033836 -0.444323 149 149 149
0.194445 -0.029336 -0.443464 147 147 147
0.196058 -0.024856 -0.442611 145 145 145
0.197666 -0.020387 -0.441760 144 144 144
0.198741 -0.016266 -0.441058 144 144 144
0.199445 -0.012385 -0.440460 143 143 143
0.199836 -0.008708 -0.439950 142 142 142
0.200802 -0.004674 -0.439280 141 141 141
0.201552 -0.000783 -0.438672 139 139 139
0.202372 0.003145 -0.438045 138 138 138
0.203735 0.007405 -0.437268 138 138 138
0.205047 0.011627 -0.436506 138 138 138
0.206029 0.015634 -0.435837 138 138 138
0.207137 0.019714 -0.435134 138 138 138
0.208242 0.023784 -0.434432 138 138 138
0.209245 0.027784 -0.433759 138 138 138
0.210186 0.031738 -0.433104 138 138 138
0.210973 0.035592 -0.432493 138 138 138
0.211387 0.039211 -0.431984 138 138 138
0.211740 0.042788 -0.431493 138 138 138
0.212111 0.046370 -0.430997 138 138 138
0.212323 0.049850 -0.430546 138 138 138
0.212316 0.053193 -0.430156 138 138 138
0.212309 0.056532 -0.429765 138 138 138
0.212232 0.059825 -0.429395 138 138 138
0.211988 0.063014 -0.429071 138 138 138
0.211744 0.066199 -0.428747 138 138 138
0.211522 0.069394 -0.428417 138 138 138
0.211178 0.072512 -0.428121 138 138 138
0.210802 0.075609 -0.427834 138 138 138
0.210428 0.078703 -0.427547 138 138 138
0.209994 0.081759 -0.427277 138 138 138
0.209234 0.084620 -0.427096 138 138 138
0.208473 0.087477 -0.426916 138 138 138
0.207713 0.090334 -0.426735 138 138 138
0.206708 0.093044 -0.426621 138 138 138
0.205458 0.095610 -0.426574 138 138 138
0.204032 0.098071 -0.426575 138 138 138
0.202548 0.100500 -0.426592 138 138 138
0.201053 0.102922 -0.426612 138 138 138
0.199515 0.105319 -0.426643 138 138 138
0.197948 0.107699 -0.426682 138 138 138
0.196157 0.109951 -0.426782 138 138 138
0.194367 0.112203 -0.426881 138 138 138
0.192534 0.114432 -0.426992 138 138 138
0.190608 0.116609 -0.427128 138 138 138
0.188728 0.118814 -0.427251 138 138 138
0.186666 0.120915 -0.427424 138 138 138
0.184440 0.122925 -0.427640 138 138 138
0.182275 0.124972 -0.427840 138 138 138
0.179958 0.126935 -0.428080 138 138 138
0.177683 0.128923 -0.428309 138 138 138
0.175423 0.130923 -0.428534 138 138 138
0.173160 0.132923 -0.428759 138 138 138
0.170987 0.134976 -0.428960 138 138 138
0.168893 0.137075 -0.429139 138 138 138
0.166916 0.139242 -0.429286 138 138 138
0.164985 0.141436 -0.429421 138 138 138
0.163197 0.143710 -0.429518 138 138 138
0.161488 0.146030 -0.429593 138 138 138
0.159717 0.148316 -0.429684 138 138 138
0.157864 0.150558 -0.429798 138 138 138
0.156010 0.152800 -0.429911 138 138 138
0.153996 0.154955 -0.430068 138 138 138
0.151866 0.157049 -0.430255 138 138 138
0.149804 0.159181 -0.430424 138 138 138
0.147741 0.161314 -0.430593 138 138 138
0.145677 0.163449 -0.430761 138 138 138
0.143436 0.165489 -0.430977 138 138 138
0.141210 0.167539 -0.431189 138 138 138
0.138817 0.169502 -0.431445 138 138 138
0.135969 0.171221 -0.431822 138 138 138
0.133105 0.172936 -0.432202 138 138 138
0.130242 0.174654 -0.432582 138 138 138
0.127662 0.176528 -0.432887 138 138 138
0.125453 0.178604 -0.433092 138 138 138
0.122258 0.180155 -0.433559 138 138 138
0.119872 0.182142 -0.433811 138 138 138
0.117615 0.184200 -0.434028 138 138 138
0.115068 0.186106 -0.434322 138 138 138
0.113099 0.188320 -0.434462 138 138 138
0.110903 0.190416 -0.434662 138 138 138
0.108208 0.192252 -0.434994 138 138 138
0.105748 0.194215 -0.435264 138 138 138
0.103091 0.196077 -0.435585 138 138 138
0.100354 0.197901 -0.435927 138 138 138
0.097200 0.199511 -0.436379 138 138 138
0.093563 0.200876 -0.436958 138 138 138
0.089938 0.202252 -0.437532 138 138 138
0.086988 0.203983 -0.437929 138 138 138
0.083162 0.205266 -0.438555 138 138 138
0.078541 0.206148 -0.439391 138 138 138
0.073929 0.207042 -0.440222 138 138 138
0.068707 0.207633 -0.441214 138 138 138
0.063461 0.208222 -0.442210 138 138 138
0.058070 0.208747 -0.443244 138 138 138
0.050443 0.208150 -0.444863 138 138 138
0.044019 0.208176 -0.446165 138 138 138
0.131782 -0.112125 -0.468940 138 138 138
0.139478 -0.103504 -0.466355 139 139 139
0.145555 -0.095964 -0.464227 138 138 138
0.150537 -0.089157 -0.462409 139 139 139
0.156431 -0.081778 -0.460337 138 138 138
0.166270 -0.071870 -0.457163 138 138 138
0.175009 -0.062704 -0.454300 139 139 139
0.178808 -0.056750 -0.452824 142 142 142
0.182297 -0.051009 -0.451436 146 146 146
0.185431 -0.045510 -0.450149 147 147 147
0.188489 -0.040073 -0.448884 148 148 148
0.190834 -0.035104 -0.447821 148 148 148
0.192443 -0.030615 -0.446963 147 147 147
0.194099 -0.026105 -0.446094 145 145 145
0.195749 -0.021607 -0.445228 144 144 144
0.196945 -0.017406 -0.444489 144 144 144
0.197816 -0.013417 -0.443842 143 143 143
0.198185 -0.009751 -0.443334 142 142 142
0.198715 -0.005989 -0.442783 141 141 141
0.199476 -0.002088 -0.442169 139 139 139
0.200223 0.001798 -0.441558 138 138 138
0.201048 0.005726 -0.440927 138 138 138
0.202396 0.009973 -0.440152 138 138 138
0.203464 0.014038 -0.439455 138 138 138
0.204521 0.018090 -0.438762 138 138 138
0.205622 0.022161 -0.438058 138 138 138
0.206719 0.026223 -0.437356 138 138 138
0.207655 0.030179 -0.436699 138 138 138
0.208595 0.034129 -0.436042 138 138 138
0.209341 0.037955 -0.435439 138 138 138
0.209692 0.041534 -0.434946 138 138 138
0.210043 0.045107 -0.434454 138 138 138
0.210441 0.048704 -0.433949 138 138 138
0.210467 0.052069 -0.433547 138 138 138
0.210492 0.055430 -0.433146 138 138 138
0.210534 0.058798 -0.432741 138 138 138
0.210379 0.062042 -0.432390 138 138 138
0.210136 0.065230 -0.432064 138 138 138
0.209936 0.068441 -0.431727 138 138 138
0.209700 0.071626 -0.431400 138 138 138
0.209325 0.074725 -0.431111 138 138 138
0.208954 0.077824 -0.430822 138 138 138
0.208647 0.080958 -0.430516 138 138 138
0.207945 0.083854 -0.430318 138 138 138
0.207136 0.086685 -0.430149 138 138 138
0.206325 0.089514 -0.429981 138 138 138
0.205381 0.092262 -0.429850 138 138 138
0.204121 0.094824 -0.429806 138 138 138
0.202655 0.097264 -0.429817 138 138 138
0.201167 0.099692 -0.429835 138 138 138
0.199683 0.102122 -0.429851 138 138 138
0.198170 0.104536 -0.429876 138 138 138
0.196502 0.106860 -0.429942 138 138 138
0.194710 0.109113 -0.430043 138 138 138
0.192974 0.111399 -0.430127 138 138 138
0.191191 0.113659 -0.430225 138 138 138
0.189315 0.115866 -0.430348 138 138 138
0.187434 0.118072 -0.430472 138 138 138
0.185234 0.120097 -0.430682 138 138 138
0.183006 0.122108 -0.430900 138 138 138
0.180814 0.124141 -0.431107 138 138 138
0.178628 0.126180 -0.431313 138 138 138
0.176366 0.128178 -0.431539 138 138 138
0.174102 0.130177 -0.431766 138 138 138
0.171837 0.132178 -0.431992 138 138 138
0.169570 0.134181 -0.432219 138 138 138
0.167574 0.136337 -0.432372 138 138 138
0.165727 0.138578 -0.432485 138 138 138
0.163879 0.140820 -0.432598 138 138 138
0.162135 0.143121 -0.432682 138 138 138
0.160414 0.145435 -0.432761 138 138 138
0.158700 0.147755 -0.432837 138 138 138
0.156847 0.149997 -0.432951 138 138 138
0.154964 0.152225 -0.433073 138 138 138
0.153139 0.154486 -0.433179 138 138 138
0.151222 0.156698 -0.433310 138 138 138
0.149214 0.158860 -0.433465 138 138 138
0.147205 0.161024 -0.433620 138 138 138
0.145195 0.163189 -0.433775 138 138 138
0.143159 0.165342 -0.433936 138 138 138
0.140418 0.167113 -0.434287 138 138 138
0.137539 0.168814 -0.434674 138 138 138
0.134879 0.170636 -0.435002 138 138 138
0.132217 0.172461 -0.435330 138 138 138
0.129551 0.174287 -0.435659 138 138 138
0.126552 0.175937 -0.436077 138 138 138
0.123357 0.177488 -0.436546 138 138 138
0.120286 0.179109 -0.436981 138 138 138
0.118079 0.181193 -0.437186 138 138 138
0.115872 0.183279 -0.437391 138 138 138
0.113252 0.185150 -0.437705 138 138 138
0.110711 0.187064 -0.437998 138 138 138
0.108042 0.188915 -0.438324 138 138 138
0.105343 0.190753 -0.438658 138 138 138
0.102725 0.192637 -0.438971 138 138 138
0.100091 0.194515 -0.439287 138 138 138
0.096511 0.195904 -0.439853 138 138 138
0.092883 0.197272 -0.440433 138 138 138
0.089247 0.198643 -0.441013 138 138 138
0.085605 0.200017 -0.441594 138 138 138
0.081805 0.201315 -0.442216 138 138 138
0.077785 0.202505 -0.442896 138 138 138
0.073756 0.203698 -0.443578 138 138 138
0.069523 0.204792 -0.444313 138 138 138
0.064809 0.205649 -0.445173 138 138 138
0.059705 0.206315 -0.446136 138 138 138
0.054093 0.206733 -0.447232 138 138 138
0.047682 0.206757 -0.448537 138 138 138
0.040288 0.206296 -0.450100 100 100 100
0.133725 -0.107264 -0.471007 138 138 138
0.141974 -0.098301 -0.468257 138 138 138
0.147673 -0.091024 -0.466228 138 138 138
0.153614 -0.083611 -0.464133 138 138 138
0.159893 -0.076000 -0.461946 138 138 138
0.171000 -0.065297 -0.458404 138 138 138
0.176015 -0.058554 -0.456579 140 140 140
0.179936 -0.052531 -0.455062 143 143 143
0.183109 -0.047004 -0.453759 146 146 146
0.186277 -0.041493 -0.452457 147 147 147
0.188899 -0.036344 -0.451311 147 147 147
0.190426 -0.031904 -0.450473 147 147 147
0.192061 -0.027404 -0.449605 145 145 145
0.193591 -0.022979 -0.448768 144 144 144
0.194843 -0.018740 -0.448010 142 142 142
0.195898 -0.014631 -0.447308 143 143 143
0.196471 -0.010834 -0.446741 142 142 142
0.196879 -0.007146 -0.446221 141 141 141
0.197595 -0.003271 -0.445616 140 140 140
0.198322 0.000606 -0.445008 139 139 139
0.199027 0.004462 -0.444408 138 138 138
0.199876 0.008401 -0.443768 138 138 138
0.201158 0.012603 -0.443008 138 138 138
0.202009 0.016531 -0.442369 138 138 138
0.203114 0.020608 -0.441660 138 138 138
0.204213 0.024675 -0.440954 138 138 138
0.205244 0.028692 -0.440267 138 138 138
0.206175 0.032641 -0.439609 138 138 138
0.207115 0.036589 -0.438949 138 138 138
0.207612 0.040260 -0.438413 138 138 138
0.207967 0.043839 -0.437917 138 138 138
0.208398 0.047459 -0.437400 138 138 138
0.208668 0.050975 -0.436929 138 138 138
0.208696 0.054341 -0.436525 138 138 138
0.208747 0.057717 -0.436115 138 138 138
0.208767 0.061069 -0.435715 138 138 138
0.208536 0.064267 -0.435384 138 138 138
0.208347 0.067486 -0.435042 138 138 138
0.208159 0.070702 -0.434700 138 138 138
0.207854 0.073846 -0.434390 138 138 138
0.207566 0.076996 -0.434077 138 138 138
0.207233 0.080116 -0.433776 138 138 138
0.206668 0.083097 -0.433539 138 138 138
0.205685 0.085827 -0.433417 138 138 138
0.204714 0.088563 -0.433293 138 138 138
0.203769 0.091313 -0.433161 138 138 138
0.202757 0.094022 -0.433048 138 138 138
0.201280 0.096459 -0.433062 138 138 138
0.199792 0.098888 -0.433080 138 138 138
0.198303 0.101318 -0.433097 138 138 138
0.196818 0.103749 -0.433114 138 138 138
0.195118 0.106057 -0.433189 138 138 138
0.193387 0.108347 -0.433273 138 138 138
0.191648 0.110633 -0.433359 138 138 138
0.189843 0.112883 -0.433463 138 138 138
0.188020 0.115123 -0.433571 138 138 138
0.186027 0.117266 -0.433726 138 138 138
0.183818 0.119288 -0.433939 138 138 138
0.181714 0.121371 -0.434124 138 138 138
0.179628 0.123467 -0.434303 138 138 138
0.177444 0.125509 -0.434509 138 138 138
0.175188 0.127512 -0.434735 138 138 138
0.172930 0.129516 -0.434960 138 138 138
0.170671 0.131522 -0.435186 138 138 138
0.168420 0.133535 -0.435409 138 138 138
0.166469 0.135718 -0.435551 138 138 138
0.164621 0.137960 -0.435664 138 138 138
0.162806 0.140222 -0.435768 138 138 138
0.161073 0.142531 -0.435850 138 138 138
0.159340 0.144840 -0.435932 138 138 138
0.157614 0.147154 -0.436012 138 138 138
0.155717 0.149375 -0.436138 138 138 138
0.153815 0.151594 -0.436265 138 138 138
0.152103 0.153918 -0.436341 138 138 138
0.150370 0.156232 -0.436423 138 138 138
0.148361 0.158396 -0.436578 138 138 138
0.146351 0.160560 -0.436734 138 138 138
0.144088 0.162589 -0.436958 138 138 138
0.141590 0.164491 -0.437245 138 138 138
0.139155 0.166431 -0.437514 138 138 138
0.136259 0.168124 -0.437907 138 138 138
0.133597 0.169948 -0.438237 138 138 138
0.130708 0.171652 -0.438627 138 138 138
0.126873 0.172853 -0.439271 138 138 138
0.124062 0.174607 -0.439640 138 138 138
0.121257 0.176369 -0.440006 138 138 138
0.118494 0.178157 -0.440361 138 138 138
0.115699 0.179932 -0.440723 138 138 138
0.112337 0.181409 -0.441237 138 138 138
0.109383 0.183108 -0.441642 138 138 138
0.106617 0.184909 -0.441996 138 138 138
0.103966 0.186774 -0.442318 138 138 138
0.101306 0.188638 -0.442643 138 138 138
0.097886 0.190107 -0.443170 138 138 138
0.094370 0.191531 -0.443722 138 138 138
0.090848 0.192958 -0.444275 138 138 138
0.087330 0.194391 -0.444826 138 138 138
0.084107 0.195984 -0.445298 138 138 138
0.081112 0.197698 -0.445709 138 138 138
0.077282 0.198987 -0.446341 138 138 138
0.073187 0.200145 -0.447043 138 138 138
0.069909 0.201729 -0.447528 138 138 138
0.065499 0.202738 -0.448312 138 138 138
0.060796 0.203605 -0.449173 138 138 138
0.056419 0.204647 -0.449947 138 138 138
0.051150 0.205244 -0.450956 138 138 138
0.045308 0.205559 -0.452116 138 138 138
0.028502 0.200346 -0.456176 100 100 100
0.135889 -0.102270 -0.473005 138 138 138
0.143989 -0.093424 -0.470287 138 138 138
0.149450 -0.086316 -0.468318 138 138 138
0.155719 -0.078706 -0.466123 138 138 138
0.164083 -0.069767 -0.463340 138 138 138
0.172575 -0.060774 -0.460523 139 139 139
0.177002 -0.054421 -0.458857 140 140 140
0.180507 -0.048676 -0.457453 143 143 143
0.183784 -0.043093 -0.456115 145 145 145
0.186740 -0.037727 -0.454869 146 146 146
0.188514 -0.033126 -0.453958 146 146 146
0.190018 -0.028706 -0.453123 145 145 145
0.191394 -0.024377 -0.452325 143 143 143
0.192649 -0.020131 -0.451562 141 141 141
0.193829 -0.015941 -0.450821 141 141 141
0.194565 -0.012038 -0.450206 141 141 141
0.195127 -0.008251 -0.449641 141 141 141
0.195711 -0.004455 -0.449069 140 140 140
0.196419 -0.000588 -0.448464 140 140 140
0.197126 0.003272 -0.447860 139 139 139
0.197895 0.007165 -0.447239 138 138 138
0.198747 0.011103 -0.446596 138 138 138
0.199643 0.015062 -0.445941 138 138 138
0.200599 0.019051 -0.445270 138 138 138
0.201701 0.023123 -0.444559 138 138 138
0.202801 0.027186 -0.443850 138 138 138
0.203769 0.031162 -0.443179 138 138 138
0.204698 0.035107 -0.442519 138 138 138
0.205508 0.038972 -0.441892 138 138 138
0.205919 0.042588 -0.441378 138 138 138
0.206352 0.046212 -0.440859 138 138 138
0.206784 0.049831 -0.440340 138 138 138
0.206906 0.053255 -0.439908 138 138 138
0.206958 0.056634 -0.439495 138 138 138
0.207012 0.060010 -0.439083 138 138 138
0.206934 0.063302 -0.438708 138 138 138
0.206737 0.066519 -0.438366 138 138 138
0.206541 0.069733 -0.438025 138 138 138
0.206256 0.072891 -0.437708 138 138 138
0.205912 0.076010 -0.437408 138 138 138
0.205547 0.079114 -0.437115 138 138 138
0.205106 0.082169 -0.436842 138 138 138
0.204322 0.085020 -0.436665 138 138 138
0.203339 0.087751 -0.436543 138 138 138
0.202356 0.090481 -0.436420 138 138 138
0.201379 0.093213 -0.436297 138 138 138
0.199944 0.095676 -0.436300 138 138 138
0.198460 0.098110 -0.436316 138 138 138
0.196976 0.100544 -0.436332 138 138 138
0.195447 0.102952 -0.436361 138 138 138
0.193801 0.105293 -0.436421 138 138 138
0.192069 0.107584 -0.436505 138 138 138
0.190300 0.109855 -0.436600 138 138 138
0.188493 0.112105 -0.436704 138 138 138
0.186684 0.114355 -0.436809 138 138 138
0.184739 0.116528 -0.436951 138 138 138
0.182659 0.118625 -0.437130 138 138 138
0.180573 0.120721 -0.437310 138 138 138
0.178487 0.122818 -0.437491 138 138 138
0.176333 0.124879 -0.437689 138 138 138
0.174084 0.126887 -0.437913 138 138 138
0.171817 0.128889 -0.438142 138 138 138
0.169548 0.130891 -0.438371 138 138 138
0.167406 0.132966 -0.438565 138 138 138
0.165420 0.135131 -0.438717 138 138 138
0.163513 0.137342 -0.438847 138 138 138
0.161743 0.139631 -0.438939 138 138 138
0.159989 0.141929 -0.439027 138 138 138
0.158190 0.144203 -0.439127 138 138 138
0.156390 0.146478 -0.439227 138 138 138
0.154523 0.148717 -0.439345 138 138 138
0.152778 0.151024 -0.439430 138 138 138
0.151065 0.153349 -0.439506 138 138 138
0.149351 0.155675 -0.439583 138 138 138
0.147381 0.157862 -0.439728 138 138 138
0.144853 0.159745 -0.440025 138 138 138
0.142323 0.161630 -0.440322 138 138 138
0.139876 0.163562 -0.440596 138 138 138
0.137470 0.165521 -0.440858 138 138 138
0.134978 0.167435 -0.441144 138 138 138
0.131442 0.168788 -0.441711 138 138 138
0.127606 0.169986 -0.442358 138 138 138
0.124191 0.171416 -0.442891 138 138 138
0.121429 0.173201 -0.443247 138 138 138
0.118318 0.174803 -0.443697 138 138 138
0.114927 0.176261 -0.444222 138 138 138
0.111533 0.177721 -0.444747 138 138 138
0.108272 0.179258 -0.445235 138 138 138
0.105502 0.181059 -0.445591 138 138 138
0.102615 0.182802 -0.445978 138 138 138
0.099148 0.184243 -0.446521 138 138 138
0.095500 0.185594 -0.447111 138 138 138
0.091977 0.187017 -0.447667 138 138 138
0.088502 0.188471 -0.448209 138 138 138
0.085177 0.190008 -0.448711 138 138 138
0.082311 0.191788 -0.449089 138 138 138
0.079443 0.193571 -0.449468 138 138 138
0.076589 0.195365 -0.449842 138 138 138
0.073469 0.197025 -0.450287 138 138 138
0.070223 0.198625 -0.450765 138 138 138
0.066311 0.199887 -0.451420 138 138 138
0.061882 0.200892 -0.452212 138 138 138
0.058600 0.202490 -0.452698 138 138 138
0.054333 0.203591 -0.453445 138 138 138
0.049870 0.204599 -0.454244 138 138 138
0.043574 0.204687 -0.455529 138 138 138
0.119704 -0.112816 -0.480641 0 0 0
0.137485 -0.097655 -0.475156 138 138 138
0.144832 -0.089316 -0.472642 138 138 138
0.151565 -0.081399 -0.470305 138 138 138
0.158700 -0.073247 -0.467857 138 138 138
0.167804 -0.063851 -0.464854 138 138 138
0.173801 -0.056483 -0.462735 138 138 138
0.177793 -0.050421 -0.461186 141 141 141
0.181079 -0.044828 -0.459840 143 143 143
0.184031 -0.039460 -0.458589 143 143 143
0.186163 -0.034628 -0.457571 144 144 144
0.187649 -0.030216 -0.456737 143 143 143
0.189108 -0.025830 -0.455912 142 142 142
0.190376 -0.021573 -0.455142 140 140 140
0.191572 -0.017370 -0.454393 139 139 139
0.192530 -0.013323 -0.453712 140 140 140
0.193192 -0.009470 -0.453116 141 141 141
0.193753 -0.005686 -0.452548 140 140 140
0.194428 -0.001837 -0.451949 140 140 140
0.195135 0.002027 -0.451342 139 139 139
0.195910 0.005926 -0.450716 139 139 139
0.196617 0.009777 -0.450111 138 138 138
0.197472 0.013713 -0.449464 138 138 138
0.198137 0.017526 -0.448872 138 138 138
0.199225 0.021593 -0.448161 138 138 138
0.200326 0.025661 -0.447448 138 138 138
0.201387 0.029697 -0.446747 138 138 138
0.202311 0.033643 -0.446085 138 138 138
0.203241 0.037585 -0.445423 138 138 138
0.203835 0.041315 -0.444855 138 138 138
0.204267 0.044942 -0.444332 138 138 138
0.204699 0.048563 -0.443811 138 138 138
0.205143 0.052186 -0.443287 138 138 138
0.205201 0.055571 -0.442871 138 138 138
0.205257 0.058951 -0.442456 138 138 138
0.205274 0.062302 -0.442052 138 138 138
0.205095 0.065533 -0.441704 138 138 138
0.204883 0.068739 -0.441365 138 138 138
0.204568 0.071882 -0.441055 138 138 138
0.204239 0.075013 -0.440749 138 138 138
0.203859 0.078110 -0.440458 138 138 138
0.203440 0.081181 -0.440178 138 138 138
0.202914 0.084186 -0.439928 138 138 138
0.201974 0.086945 -0.439793 138 138 138
0.200991 0.089677 -0.439671 138 138 138
0.199957 0.092377 -0.439562 138 138 138
0.198607 0.094892 -0.439541 138 138 138
0.197136 0.097335 -0.439554 138 138 138
0.195651 0.099771 -0.439570 138 138 138
0.194060 0.102145 -0.439615 138 138 138
0.192425 0.104494 -0.439673 138 138 138
0.190749 0.106820 -0.439742 138 138 138
0.188941 0.109071 -0.439847 138 138 138
0.187065 0.111283 -0.439971 138 138 138
0.185200 0.113502 -0.440091 138 138 138
0.183426 0.115776 -0.440187 138 138 138
0.181435 0.117926 -0.440342 138 138 138
0.179374 0.120037 -0.440516 138 138 138
0.177312 0.122150 -0.440690 138 138 138
0.175212 0.124243 -0.440874 138 138 138
0.172962 0.126253 -0.441099 138 138 138
0.170695 0.128255 -0.441329 138 138 138
0.168424 0.130258 -0.441559 138 138 138
0.166392 0.132397 -0.441724 138 138 138
0.164405 0.134563 -0.441876 138 138 138
0.162360 0.136698 -0.442044 138 138 138
0.160527 0.138953 -0.442154 138 138 138
0.158727 0.141228 -0.442255 138 138 138
0.156925 0.143502 -0.442356 138 138 138
0.155123 0.145778 -0.442457 138 138 138
0.153325 0.148057 -0.442556 138 138 138
0.151513 0.150328 -0.442660 138 138 138
0.149596 0.152543 -0.442792 138 138 138
0.147507 0.154666 -0.442970 138 138 138
0.145421 0.156791 -0.443148 138 138 138
0.143088 0.158784 -0.443392 138 138 138
0.140564 0.160674 -0.443688 138 138 138
0.138159 0.162632 -0.443952 138 138 138
0.135358 0.164379 -0.444322 138 138 138
0.131884 0.165764 -0.444875 138 138 138
0.128270 0.167080 -0.445465 138 138 138
0.124495 0.168315 -0.446098 138 138 138
0.121279 0.169856 -0.446579 138 138 138
0.117550 0.171127 -0.447198 138 138 138
0.114161 0.172586 -0.447725 138 138 138
0.110766 0.174047 -0.448252 138 138 138
0.107390 0.175523 -0.448774 138 138 138
0.104142 0.177072 -0.449260 138 138 138
0.101034 0.178700 -0.449708 138 138 138
0.097338 0.180022 -0.450315 138 138 138
0.093559 0.181306 -0.450943 138 138 138
0.089984 0.182703 -0.451515 138 138 138
0.086544 0.184177 -0.452050 138 138 138
0.083743 0.185990 -0.452413 138 138 138
0.081054 0.187864 -0.452745 138 138 138
0.078402 0.189761 -0.453067 138 138 138
0.076067 0.191826 -0.453303 138 138 138
0.073500 0.193773 -0.453601 138 138 138
0.070441 0.195469 -0.454031 138 138 138
0.067123 0.197035 -0.454530 138 138 138
0.063577 0.198490 -0.455089 138 138 138
0.060317 0.200097 -0.455572 138 138 138
0.056775 0.201564 -0.456129 138 138 138
0.052650 0.202739 -0.456841 138 138 138
0.047455 0.203378 -0.457839 138 138 138
0.040548 0.203160 -0.459293 138 138 138
0.124372 -0.106181 -0.481929 138 138 138
0.137993 -0.093755 -0.477611 138 138 138
0.144250 -0.086136 -0.475399 138 138 138
0.153090 -0.076872 -0.472453 138 138 138
0.162308 -0.067396 -0.469403 138 138 138
0.169494 -0.059255 -0.466936 138 138 138
0.175016 -0.052207 -0.464944 138 138 138
0.178241 -0.046647 -0.463608 140 140 140
0.181192 -0.041277 -0.462352 140 140 140
0.183928 -0.036056 -0.461158 141 141 141
0.185273 -0.031730 -0.460361 141 141 141
0.186724 -0.027345 -0.459534 140 140 140
0.188056 -0.023045 -0.458742 139 139 139
0.189148 -0.018903 -0.458018 138 138 138
0.190134 -0.014835 -0.457326 138 138 138
0.191017 -0.010840 -0.456664 139 139 139
0.191802 -0.006913 -0.456030 140 140 140
0.192393 -0.003113 -0.455452 139 139 139
0.193102 0.000755 -0.454841 139 139 139
0.193931 0.004691 -0.454197 139 139 139
0.194661 0.008559 -0.453582 139 139 139
0.195279 0.012351 -0.452999 139 139 139
0.195959 0.016177 -0.452399 138 138 138
0.196768 0.020075 -0.451764 138 138 138
0.197872 0.024148 -0.451047 138 138 138
0.198965 0.028208 -0.450333 138 138 138
0.199953 0.032196 -0.449650 138 138 138
0.200869 0.036133 -0.448988 138 138 138
0.201705 0.040015 -0.448349 138 138 138
0.202159 0.043658 -0.447818 138 138 138
0.202638 0.047310 -0.447281 138 138 138
0.203196 0.051005 -0.446722 138 138 138
0.203444 0.054508 -0.446251 138 138 138
0.203485 0.057881 -0.445838 138 138 138
0.203502 0.061235 -0.445432 138 138 138
0.203450 0.064545 -0.445046 138 138 138
0.203190 0.067725 -0.444719 138 138 138
0.202874 0.070869 -0.444408 138 138 138
0.202560 0.074011 -0.444097 138 138 138
0.202169 0.077104 -0.443807 138 138 138
0.201757 0.080182 -0.443523 138 138 138
0.201257 0.083205 -0.443265 138 138 138
0.200450 0.086045 -0.443092 138 138 138
0.199477 0.088785 -0.442966 138 138 138
0.198416 0.091472 -0.442864 138 138 138
0.197159 0.094043 -0.442816 138 138 138
0.195809 0.096560 -0.442795 138 138 138
0.194309 0.098988 -0.442816 138 138 138
0.192673 0.101338 -0.442874 138 138 138
0.191037 0.103689 -0.442932 138 138 138
0.189327 0.105997 -0.443010 138 138 138
0.187446 0.108207 -0.443135 138 138 138
0.185568 0.110421 -0.443260 138 138 138
0.183744 0.112666 -0.443370 138 138 138
0.181968 0.114940 -0.443466 138 138 138
0.180187 0.117212 -0.443563 138 138 138
0.178100 0.119311 -0.443745 138 138 138
0.175966 0.121385 -0.443939 138 138 138
0.173847 0.123469 -0.444129 138 138 138
0.171765 0.125576 -0.444309 138 138 138
0.169571 0.127622 -0.444519 138 138 138
0.167364 0.129662 -0.444733 138 138 138
0.165337 0.131805 -0.444897 138 138 138
0.163059 0.133809 -0.445130 138 138 138
0.160967 0.135920 -0.445311 138 138 138
0.159080 0.138147 -0.445436 138 138 138
0.157222 0.140391 -0.445553 138 138 138
0.155362 0.142636 -0.445670 138 138 138
0.153506 0.144883 -0.445786 138 138 138
0.151580 0.147094 -0.445920 138 138 138
0.149519 0.149231 -0.446092 138 138 138
0.147430 0.151354 -0.446271 138 138 138
0.145339 0.153478 -0.446451 138 138 138
0.143252 0.155606 -0.446629 138 138 138
0.141163 0.157735 -0.446808 138 138 138
0.138603 0.159608 -0.447115 138 138 138
0.135401 0.161136 -0.447596 138 138 138
0.132016 0.162570 -0.448127 138 138 138
0.128400 0.163883 -0.448720 138 138 138
0.124737 0.165177 -0.449326 138 138 138
0.120714 0.166283 -0.450029 138 138 138
0.116843 0.167478 -0.450689 138 138 138
0.113439 0.168929 -0.451222 138 138 138
0.110069 0.170404 -0.451745 138 138 138
0.106782 0.171928 -0.452244 138 138 138
0.103486 0.173452 -0.452746 138 138 138
0.099837 0.174793 -0.453343 138 138 138
0.095623 0.175842 -0.454092 138 138 138
0.091886 0.177150 -0.454711 138 138 138
0.088511 0.178654 -0.455231 138 138 138
0.085233 0.180214 -0.455725 138 138 138
0.082611 0.182122 -0.456041 138 138 138
0.080279 0.184185 -0.456278 138 138 138
0.077974 0.186264 -0.456507 138 138 138
0.075574 0.188296 -0.456762 138 138 138
0.073235 0.190362 -0.457000 138 138 138
0.070323 0.192135 -0.457392 138 138 138
0.067652 0.194035 -0.457718 138 138 138
0.065111 0.196005 -0.458010 138 138 138
0.062034 0.197704 -0.458445 138 138 138
0.058770 0.199310 -0.458930 138 138 138
0.054901 0.200613 -0.459577 138 138 138
0.050983 0.201896 -0.460237 138 138 138
0.044539 0.201903 -0.461574 138 138 138
0.037483 0.201612 -0.463074 100 100 100
0.124785 -0.102323 -0.484423 138 138 138
0.136719 -0.091012 -0.480573 138 138 138
0.144015 -0.082734 -0.478055 138 138 138
0.153277 -0.073216 -0.474978 138 138 138
0.164789 -0.062283 -0.471261 138 138 138
0.170661 -0.055003 -0.469160 138 138 138
0.175144 -0.048633 -0.467459 138 138 138
0.178215 -0.043181 -0.466162 138 138 138
0.181259 -0.037760 -0.464875 138 138 138
0.183037 -0.033155 -0.463949 138 138 138
0.184382 -0.028834 -0.463149 138 138 138
0.185713 -0.024530 -0.462353 138 138 138
0.186720 -0.020439 -0.461651 138 138 138
0.187724 -0.016357 -0.460950 138 138 138
0.188645 -0.012334 -0.460273 138 138 138
0.189505 -0.008355 -0.459615 138 138 138
0.190364 -0.004385 -0.458958 139 139 139
0.191112 -0.000490 -0.458333 139 139 139
0.191949 0.003454 -0.457684 139 139 139
0.192784 0.007390 -0.457036 139 139 139
0.193370 0.011166 -0.456459 139 139 139
0.193925 0.014916 -0.455892 139 139 139
0.194440 0.018637 -0.455337 138 138 138
0.195409 0.022630 -0.454654 138 138 138
0.196507 0.026697 -0.453935 138 138 138
0.197603 0.030754 -0.453218 138 138 138
0.198519 0.034694 -0.452553 138 138 138
0.199428 0.038624 -0.451890 138 138 138
0.200049 0.042372 -0.451310 138 138 138
0.200581 0.046060 -0.450755 138 138 138
0.201141 0.049760 -0.450192 138 138 138
0.201684 0.053443 -0.449636 138 138 138
0.201708 0.056809 -0.449226 138 138 138
0.201729 0.060168 -0.448817 138 138 138
0.201750 0.063523 -0.448409 138 138 138
0.201523 0.066726 -0.448071 138 138 138
0.201223 0.069882 -0.447753 138 138 138
0.200915 0.073031 -0.447438 138 138 138
0.200509 0.076117 -0.447151 138 138 138
0.200098 0.079198 -0.446866 138 138 138
0.199503 0.082167 -0.446633 138 138 138
0.198835 0.085091 -0.446420 138 138 138
0.197999 0.087914 -0.446254 138 138 138
0.196873 0.090565 -0.446170 138 138 138
0.195616 0.093139 -0.446122 138 138 138
0.194359 0.095712 -0.446075 138 138 138
0.192922 0.098179 -0.446077 138 138 138
0.191286 0.100532 -0.446135 138 138 138
0.189651 0.102884 -0.446193 138 138 138
0.187839 0.105136 -0.446300 138 138 138
0.185950 0.107344 -0.446428 138 138 138
0.184070 0.109558 -0.446553 138 138 138
0.182285 0.111828 -0.446652 138 138 138
0.180449 0.114070 -0.446765 138 138 138
0.178549 0.116276 -0.446896 138 138 138
0.176702 0.118514 -0.447011 138 138 138
0.174583 0.120598 -0.447202 138 138 138
0.172463 0.122684 -0.447393 138 138 138
0.170379 0.124792 -0.447574 138 138 138
0.168294 0.126901 -0.447755 138 138 138
0.166070 0.128933 -0.447974 138 138 138
0.163791 0.130937 -0.448208 138 138 138
0.161511 0.132942 -0.448442 138 138 138
0.159574 0.135142 -0.448581 138 138 138
0.157680 0.137367 -0.448708 138 138 138
0.155800 0.139601 -0.448831 138 138 138
0.153750 0.141742 -0.449001 138 138 138
0.151602 0.143830 -0.449197 138 138 138
0.149456 0.145922 -0.449393 138 138 138
0.147328 0.148025 -0.449584 138 138 138
0.145260 0.150162 -0.449757 138 138 138
0.143169 0.152289 -0.449937 138 138 138
0.140768 0.154248 -0.450202 138 138 138
0.137963 0.155990 -0.450577 138 138 138
0.135156 0.157733 -0.450953 138 138 138
0.132141 0.159367 -0.451385 138 138 138
0.128483 0.160657 -0.451992 138 138 138
0.124566 0.161812 -0.452670 138 138 138
0.120602 0.162950 -0.453360 138 138 138
0.116700 0.164126 -0.454032 138 138 138
0.113129 0.165488 -0.454612 138 138 138
0.109850 0.167011 -0.455113 138 138 138
0.106160 0.168319 -0.455724 138 138 138
0.102861 0.169842 -0.456229 138 138 138
0.099155 0.171154 -0.456844 138 138 138
0.095574 0.172537 -0.457424 138 138 138
0.092033 0.173947 -0.457993 138 138 138
0.088065 0.175138 -0.458677 138 138 138
0.084465 0.176529 -0.459260 138 138 138
0.082091 0.178569 -0.459509 138 138 138
0.079957 0.180737 -0.459693 138 138 138
0.077822 0.182906 -0.459877 138 138 138
0.075336 0.184895 -0.460156 138 138 138
0.072809 0.186864 -0.460446 138 138 138
0.070217 0.188803 -0.460753 138 138 138
0.068119 0.191000 -0.460926 138 138 138
0.066035 0.193206 -0.461095 138 138 138
0.063347 0.195103 -0.461427 138 138 138
0.060346 0.196843 -0.461844 138 138 138
0.057183 0.198503 -0.462303 138 138 138
0.053239 0.199769 -0.462973 138 138 138
0.049320 0.201055 -0.463636 138 138 138
0.042614 0.200931 -0.465049 138 138 138
0.026662 0.196136 -0.468952 100 100 100
0.122651 -0.100117 -0.487645 138 138 138
0.134977 -0.088573 -0.483668 138 138 138
0.143021 -0.079825 -0.480926 138 138 138
0.155709 -0.068122 -0.476854 138 138 138
0.166291 -0.057810 -0.473391 138 138 138
0.171616 -0.050895 -0.471440 138 138 138
0.175053 -0.045204 -0.470032 138 138 138
0.177937 -0.039879 -0.468785 138 138 138
0.180293 -0.034903 -0.467689 138 138 138
0.181231 -0.030836 -0.467001 138 138 138
0.182662 -0.026465 -0.466173 138 138 138
0.184007 -0.022155 -0.465370 138 138 138
0.185085 -0.018022 -0.464645 138 138 138
0.186099 -0.013937 -0.463939 138 138 138
0.187048 -0.009899 -0.463252 138 138 138
0.187910 -0.005923 -0.462590 138 138 138
0.188970 -0.001829 -0.461874 138 138 138
0.189811 0.002120 -0.461220 139 139 139
0.190650 0.006062 -0.460568 139 139 139
0.191528 0.010022 -0.459905 139 139 139
0.192042 0.013750 -0.459347 139 139 139
0.192582 0.017488 -0.458782 139 139 139
0.193217 0.021279 -0.458190 138 138 138
0.194302 0.025341 -0.457472 138 138 138
0.195370 0.029384 -0.456760 138 138 138
0.196247 0.033304 -0.456102 138 138 138
0.197141 0.037228 -0.455440 138 138 138
0.198008 0.041128 -0.454787 138 138 138
0.198522 0.044809 -0.454234 138 138 138
0.199084 0.048512 -0.453669 138 138 138
0.199640 0.052207 -0.453106 138 138 138
0.199953 0.055749 -0.452612 138 138 138
0.199975 0.059112 -0.452201 138 138 138
0.199974 0.062457 -0.451797 138 138 138
0.199899 0.065753 -0.451414 138 138 138
0.199600 0.068912 -0.451094 138 138 138
0.199250 0.072038 -0.450790 138 138 138
0.198844 0.075127 -0.450501 138 138 138
0.198436 0.078212 -0.450214 138 138 138
0.197804 0.081162 -0.449990 138 138 138
0.197149 0.084096 -0.449772 138 138 138
0.196494 0.087028 -0.449555 138 138 138
0.195360 0.089676 -0.449472 138 138 138
0.194210 0.092314 -0.449394 138 138 138
0.193060 0.094952 -0.449316 138 138 138
0.191523 0.097364 -0.449346 138 138 138
0.189900 0.099725 -0.449400 138 138 138
0.188239 0.102065 -0.449465 138 138 138
0.186350 0.104274 -0.449594 138 138 138
0.184459 0.106483 -0.449723 138 138 138
0.182522 0.108666 -0.449864 138 138 138
0.180606 0.110863 -0.450000 138 138 138
0.178689 0.113061 -0.450136 138 138 138
0.176833 0.115295 -0.450254 138 138 138
0.175028 0.117560 -0.450358 138 138 138
0.173142 0.119779 -0.450485 138 138 138
0.171077 0.121898 -0.450661 138 138 138
0.168820 0.123910 -0.450891 138 138 138
0.166646 0.125971 -0.451097 138 138 138
0.164470 0.128033 -0.451303 138 138 138
0.162243 0.130068 -0.451523 138 138 138
0.160073 0.132137 -0.451728 138 138 138
0.158178 0.134362 -0.451855 138 138 138
0.156079 0.136475 -0.452039 138 138 138
0.153894 0.138542 -0.452247 138 138 138
0.151729 0.140621 -0.452449 138 138 138
0.149580 0.142712 -0.452646 138 138 138
0.147433 0.144805 -0.452843 138 138 138
0.145237 0.146874 -0.453053 138 138 138
0.142757 0.148788 -0.453341 138 138 138
0.140100 0.150607 -0.453677 138 138 138
0.137378 0.152395 -0.454031 138 138 138
0.134651 0.154183 -0.454386 138 138 138
0.131782 0.155898 -0.454779 138 138 138
0.128353 0.157311 -0.455327 138 138 138
0.124502 0.158502 -0.455989 138 138 138
0.120513 0.159624 -0.456689 138 138 138
0.116555 0.160770 -0.457379 138 138 138
0.113338 0.162320 -0.457865 138 138 138
0.110276 0.163959 -0.458308 138 138 138
0.106692 0.165323 -0.458894 138 138 138
0.102835 0.166547 -0.459554 138 138 138
0.099058 0.167820 -0.460191 138 138 138
0.095544 0.169238 -0.460755 138 138 138
0.092054 0.170675 -0.461312 138 138 138
0.088281 0.171967 -0.461946 138 138 138
0.084882 0.173463 -0.462477 138 138 138
0.082217 0.175350 -0.462807 138 138 138
0.079741 0.177339 -0.463085 138 138 138
0.077498 0.179454 -0.463299 138 138 138
0.075221 0.181552 -0.463522 138 138 138
0.072692 0.183522 -0.463814 138 138 138
0.070696 0.185771 -0.463960 138 138 138
0.068629 0.187985 -0.464125 138 138 138
0.066514 0.190176 -0.464303 138 138 138
0.064429 0.192383 -0.464473 138 138 138
0.061590 0.194205 -0.464847 138 138 138
0.058645 0.195975 -0.465250 138 138 138
0.055395 0.197594 -0.465735 138 138 138
0.051577 0.198927 -0.466373 138 138 138
0.047653 0.200212 -0.467039 138 138 138
0.039765 0.199489 -0.468779 138 138 138
0.118012 -0.099526 -0.491593 138 138 138
0.132145 -0.086833 -0.487079 138 138 138
0.140118 -0.078143 -0.484347 138 138 138
0.157428 -0.063496 -0.478928 138 138 138
0.166569 -0.054128 -0.475868 138 138 138
0.171787 -0.047293 -0.473941 138 138 138
0.174563 -0.042032 -0.472718 138 138 138
0.177110 -0.036930 -0.471563 138 138 138
0.178747 -0.032415 -0.470670 138 138 138
0.179660 -0.028367 -0.469987 138 138 138
0.180848 -0.024153 -0.469225 138 138 138
0.182149 -0.019874 -0.468432 138 138 138
0.183396 -0.015639 -0.467655 138 138 138
0.184519 -0.011488 -0.466915 138 138 138
0.185422 -0.007482 -0.466239 138 138 138
0.186580 -0.003324 -0.465491 138 138 138
0.187612 0.000748 -0.464779 138 138 138
0.188488 0.004716 -0.464113 138 138 138
0.189439 0.008724 -0.463426 138 138 138
0.190196 0.012605 -0.462796 139 139 139
0.190723 0.016339 -0.462232 139 139 139
0.191283 0.020086 -0.461659 139 139 139
0.192166 0.024027 -0.460995 139 139 139
0.193177 0.028038 -0.460295 139 139 139
0.194119 0.032002 -0.459615 138 138 138
0.194931 0.035878 -0.458974 138 138 138
0.195788 0.039776 -0.458320 138 138 138
0.196471 0.043562 -0.457717 138 138 138
0.197023 0.047263 -0.457152 138 138 138
0.197574 0.050957 -0.456587 138 138 138
0.198118 0.054642 -0.456025 138 138 138
0.198220 0.058055 -0.455589 138 138 138
0.198193 0.061387 -0.455191 138 138 138
0.198152 0.064707 -0.454796 138 138 138
0.197975 0.067941 -0.454441 138 138 138
0.197581 0.071043 -0.454147 138 138 138
0.197177 0.074135 -0.453856 138 138 138
0.196772 0.077225 -0.453566 138 138 138
0.196145 0.080180 -0.453339 138 138 138
0.195517 0.083133 -0.453113 138 138 138
0.194890 0.086083 -0.452886 138 138 138
0.194108 0.088940 -0.452704 138 138 138
0.192957 0.091580 -0.452626 138 138 138
0.191678 0.094145 -0.452583 138 138 138
0.190097 0.096532 -0.452626 138 138 138
0.188512 0.098918 -0.452669 138 138 138
0.186749 0.101201 -0.452763 138 138 138
0.184833 0.103396 -0.452899 138 138 138
0.182902 0.105584 -0.453040 138 138 138
0.180870 0.107715 -0.453208 138 138 138
0.178845 0.109852 -0.453375 138 138 138
0.176926 0.112051 -0.453511 138 138 138
0.175115 0.114313 -0.453618 138 138 138
0.173308 0.116579 -0.453723 138 138 138
0.171431 0.118806 -0.453847 138 138 138
0.169364 0.120926 -0.454024 138 138 138
0.167188 0.122986 -0.454231 138 138 138
0.165013 0.125049 -0.454439 138 138 138
0.162833 0.127111 -0.454647 138 138 138
0.160650 0.129173 -0.454855 138 138 138
0.158416 0.131209 -0.455078 138 138 138
0.156187 0.133249 -0.455299 138 138 138
0.153956 0.135291 -0.455520 138 138 138
0.151724 0.137334 -0.455742 138 138 138
0.149461 0.139363 -0.455971 138 138 138
0.147175 0.141381 -0.456207 138 138 138
0.144647 0.143267 -0.456510 138 138 138
0.142053 0.145119 -0.456830 138 138 138
0.139396 0.146941 -0.457168 138 138 138
0.136686 0.148736 -0.457520 138 138 138
0.133992 0.150544 -0.457867 138 138 138
