ply
format ascii 1.0
element vertex 1188
property float x
property float y
property float z
property uchar red
property uchar green
property uchar blue
end_header
0.272349 0.318612 -0.013193 161 161 161
0.270416 0.320587 -0.013125 161 161 161
0.268557 0.322697 -0.013044 161 161 161
0.266711 0.324824 -0.012960 161 161 161
0.264783 0.326799 -0.012893 160 160 160
0.262836 0.328736 -0.012829 160 160 160
0.260902 0.330692 -0.012763 159 159 159
0.258969 0.332648 -0.012697 158 158 158
0.257037 0.334602 -0.012631 158 158 158
0.255097 0.336539 -0.012566 157 157 157
0.253150 0.338461 -0.012504 155 155 155
0.251170 0.340320 -0.012447 154 154 154
0.249162 0.342125 -0.012396 152 152 152
0.247136 0.343896 -0.012349 150 150 150
0.244987 0.345442 -0.012325 149 149 149
0.242895 0.347091 -0.012290 147 147 147
0.240804 0.348740 -0.012256 146 146 146
0.238713 0.350388 -0.012221 144 144 144
0.236619 0.352027 -0.012187 143 143 143
0.234423 0.353486 -0.012172 141 141 141
0.232314 0.355097 -0.012141 138 138 138
0.230303 0.356880 -0.012092 138 138 138
0.228294 0.358662 -0.012043 138 138 138
0.226250 0.360383 -0.012001 138 138 138
0.224197 0.362085 -0.011960 138 138 138
0.222145 0.363787 -0.011919 138 138 138
0.220264 0.365787 -0.011848 138 138 138
0.218514 0.368011 -0.011752 138 138 138
0.216779 0.370255 -0.011654 138 138 138
0.215069 0.372539 -0.011552 138 138 138
0.213361 0.374823 -0.011450 138 138 138
0.211694 0.377171 -0.011341 138 138 138
0.210146 0.379721 -0.011211 138 138 138
0.208639 0.382334 -0.011074 138 138 138
0.207157 0.384984 -0.010933 138 138 138
0.205759 0.387771 -0.010777 138 138 138
0.204369 0.390565 -0.010620 138 138 138
0.202982 0.393356 -0.010464 138 138 138
0.201545 0.396055 -0.010317 138 138 138
0.199918 0.398428 -0.010204 138 138 138
0.198293 0.400799 -0.010091 139 139 139
0.196670 0.403168 -0.009978 139 139 139
0.195049 0.405535 -0.009866 139 139 139
0.193213 0.407537 -0.009792 140 140 140
0.191242 0.409310 -0.009742 141 141 141
0.189039 0.410694 -0.009733 141 141 141
0.186836 0.412077 -0.009724 141 141 141
0.184644 0.413479 -0.009713 141 141 141
0.182453 0.414881 -0.009703 141 141 141
0.180113 0.416037 -0.009718 141 141 141
0.177713 0.417094 -0.009744 139 139 139
0.175223 0.418004 -0.009785 138 138 138
0.172669 0.418813 -0.009838 138 138 138
0.170115 0.419622 -0.009890 138 138 138
0.167558 0.420429 -0.009943 138 138 138
0.164998 0.421233 -0.009996 138 138 138
0.162436 0.422037 -0.010049 138 138 138
0.159748 0.422637 -0.010124 138 138 138
0.156817 0.422849 -0.010240 138 138 138
0.153842 0.422993 -0.010364 138 138 138
0.150862 0.423136 -0.010488 138 138 138
0.147768 0.423100 -0.010632 138 138 138
0.144458 0.422724 -0.010811 138 138 138
0.141255 0.422527 -0.010972 138 138 138
0.137586 0.421592 -0.011213 138 138 138
0.133736 0.420380 -0.011483 138 138 138
0.129851 0.419123 -0.011758 138 138 138
0.125870 0.417727 -0.012049 138 138 138
0.122135 0.416730 -0.012297 138 138 138
0.118597 0.416056 -0.012511 138 138 138
0.115276 0.415732 -0.012687 138 138 138
0.112141 0.415708 -0.012831 138 138 138
0.109323 0.416188 -0.012922 138 138 138
0.106603 0.416824 -0.012995 138 138 138
0.103942 0.417556 -0.013058 138 138 138
0.101195 0.418156 -0.013136 138 138 138
0.098553 0.418922 -0.013196 138 138 138
0.096247 0.420213 -0.013199 138 138 138
0.093930 0.421487 -0.013204 138 138 138
0.091516 0.422610 -0.013225 138 138 138
0.089073 0.423690 -0.013251 138 138 138
0.086631 0.424772 -0.013277 138 138 138
0.084281 0.425997 -0.013287 138 138 138
0.081774 0.426983 -0.013324 138 138 138
0.079356 0.428105 -0.013345 138 138 138
0.077132 0.429523 -0.013335 138 138 138
0.074686 0.430605 -0.013361 138 138 138
0.071930 0.431215 -0.013438 138 138 138
0.069299 0.432021 -0.013494 138 138 138
0.066498 0.432570 -0.013578 138 138 138
0.063504 0.432832 -0.013693 138 138 138
0.060197 0.432630 -0.013859 138 138 138
0.056885 0.432426 -0.014026 138 138 138
0.053445 0.432037 -0.014213 138 138 138
0.049742 0.431263 -0.014442 138 138 138
0.046031 0.430487 -0.014671 138 138 138
0.042187 0.429522 -0.014922 138 138 138
0.038316 0.428529 -0.015176 138 138 138
0.034458 0.427563 -0.015427 138 138 138
0.030379 0.426282 -0.015713 138 138 138
0.026547 0.425376 -0.015958 138 138 138
0.022605 0.424318 -0.016221 138 138 138
0.018867 0.423569 -0.016449 138 138 138
0.015420 0.423256 -0.016631 138 138 138
0.011941 0.422903 -0.016816 138 138 138
0.008470 0.422571 -0.017000 138 138 138
0.005193 0.422526 -0.017153 138 138 138
0.001964 0.422558 -0.017297 138 138 138
-0.001169 0.422734 -0.017425 138 138 138
-0.004394 0.422783 -0.017568 138 138 138
-0.007937 0.422378 -0.017761 138 138 138
-0.011525 0.421916 -0.017960 138 138 138
-0.015119 0.421454 -0.018160 138 138 138
-0.018556 0.421224 -0.018334 138 138 138
-0.022246 0.420640 -0.018547 138 138 138
-0.025847 0.420192 -0.018746 138 138 138
-0.029564 0.419586 -0.018963 138 138 138
-0.033253 0.419028 -0.019174 138 138 138
-0.036934 0.418489 -0.019384 138 138 138
-0.040517 0.418097 -0.019577 138 138 138
-0.044150 0.417642 -0.019778 138 138 138
-0.047816 0.417150 -0.019983 138 138 138
-0.051492 0.416649 -0.020190 138 138 138
-0.055291 0.415985 -0.020414 138 138 138
-0.059119 0.415290 -0.020643 138 138 138
-0.063334 0.414064 -0.020931 138 138 138
-0.068036 0.412169 -0.021294 138 138 138
-0.072444 0.410698 -0.021609 138 138 138
-0.078713 0.406659 -0.022212 138 138 138
-0.084584 0.403193 -0.022751 138 138 138
-0.090641 0.399492 -0.023318 138 138 138
-0.095932 0.396866 -0.023764 138 138 138
-0.101136 0.394378 -0.024197 138 138 138
-0.105660 0.392840 -0.024523 138 138 138
-0.109815 0.391817 -0.024792 138 138 138
-0.113627 0.391275 -0.025008 138 138 138
-0.117491 0.390670 -0.025231 138 138 138
-0.121374 0.390046 -0.025457 138 138 138
-0.125344 0.389314 -0.025695 138 138 138
-0.129468 0.388383 -0.025955 138 138 138
-0.133360 0.387774 -0.026180 138 138 138
-0.137372 0.387012 -0.026422 138 138 138
-0.141754 0.385761 -0.026719 138 138 138
-0.146047 0.384641 -0.027002 138 138 138
-0.150646 0.383122 -0.027331 138 138 138
-0.155694 0.381014 -0.027726 138 138 138
-0.161307 0.378168 -0.028205 138 138 138
-0.169311 0.372155 -0.029041 138 138 138
-0.176600 0.367123 -0.029768 138 138 138
-0.183728 0.362333 -0.030469 138 138 138
-0.189775 0.358998 -0.031006 138 138 138
-0.195651 0.355910 -0.031516 138 138 138
-0.200737 0.353881 -0.031906 138 138 138
-0.205489 0.352305 -0.032246 138 138 138
-0.210145 0.350869 -0.032571 138 138 138
-0.214652 0.349640 -0.032872 138 138 138
-0.219161 0.348419 -0.033173 138 138 138
-0.223543 0.347373 -0.033454 138 138 138
-0.228056 0.346170 -0.033754 138 138 138
-0.232655 0.344864 -0.034066 138 138 138
-0.237264 0.343558 -0.034378 138 138 138
-0.242081 0.341994 -0.034719 138 138 138
-0.247922 0.339120 -0.035211 138 138 138
-0.254046 0.335901 -0.035742 138 138 138
-0.259366 0.333733 -0.036154 138 138 138
-0.265387 0.330683 -0.036668 138 138 138
-0.275329 0.322632 -0.037753 138 138 138
-0.287766 0.311435 -0.039199 100 100 100
0.403526 -0.126308 -0.045213 162 162 162
0.404844 -0.115169 -0.044266 160 160 160
0.405935 -0.104648 -0.043379 164 164 164
0.406675 -0.095044 -0.042581 166 166 166
0.407344 -0.085664 -0.041804 166 166 166
0.408022 -0.076307 -0.041028 166 166 166
0.408070 -0.068535 -0.040408 163 163 163
0.407903 -0.061325 -0.039842 162 162 162
0.407297 -0.055217 -0.039384 160 160 160
0.406473 -0.049664 -0.038980 157 157 157
0.405263 -0.045068 -0.038669 157 157 157
0.404071 -0.040447 -0.038357 156 156 156
0.403104 -0.035303 -0.037992 155 155 155
0.402662 -0.028920 -0.037504 152 152 152
0.402551 -0.021773 -0.036941 149 149 149
0.402378 -0.014808 -0.036394 150 150 150
0.402009 -0.008339 -0.035897 149 149 149
0.401800 -0.001517 -0.035364 145 145 145
0.401663 0.005441 -0.034816 144 144 144
0.401615 0.012580 -0.034251 145 145 145
0.401524 0.019586 -0.033697 149 149 149
0.401429 0.026552 -0.033147 150 150 150
0.401670 0.034269 -0.032522 152 152 152
0.402144 0.042499 -0.031846 153 153 153
0.402572 0.050580 -0.031183 153 153 153
0.402321 0.057052 -0.030680 151 151 151
0.401928 0.063166 -0.030211 149 149 149
0.401655 0.069531 -0.029718 148 148 148
0.401522 0.076190 -0.029194 148 148 148
0.401048 0.082040 -0.028750 149 149 149
0.400274 0.087177 -0.028377 148 148 148
0.399154 0.091504 -0.028084 146 146 146
0.398177 0.096141 -0.027760 146 146 146
0.396745 0.099729 -0.027541 145 145 145
0.395182 0.103008 -0.027351 145 145 145
0.393622 0.106282 -0.027163 145 145 145
0.391952 0.109300 -0.026999 144 144 144
0.390201 0.112127 -0.026855 144 144 144
0.388452 0.114950 -0.026710 144 144 144
0.386734 0.117834 -0.026560 143 143 143
0.384988 0.120647 -0.026416 142 142 142
0.383201 0.123362 -0.026282 142 142 142
0.381425 0.126095 -0.026147 142 142 142
0.379649 0.128820 -0.026011 142 142 142
0.377843 0.131472 -0.025883 143 143 143
0.376046 0.134138 -0.025754 143 143 143
0.374257 0.136813 -0.025623 143 143 143
0.372452 0.139445 -0.025497 144 144 144
0.370604 0.141979 -0.025380 144 144 144
0.368741 0.144472 -0.025267 144 144 144
0.366858 0.146918 -0.025159 144 144 144
0.364941 0.149284 -0.025059 144 144 144
0.363047 0.151692 -0.024954 144 144 144
0.361216 0.154233 -0.024836 144 144 144
0.359397 0.156792 -0.024716 143 143 143
0.357592 0.159374 -0.024594 143 143 143
0.355909 0.162212 -0.024445 143 143 143
0.354228 0.165046 -0.024297 144 144 144
0.352529 0.167833 -0.024153 145 145 145
0.350844 0.170642 -0.024007 145 145 145
0.349219 0.173570 -0.023849 146 146 146
0.347746 0.176809 -0.023659 146 146 146
0.346274 0.180042 -0.023469 146 146 146
0.344701 0.183053 -0.023302 147 147 147
0.343178 0.186159 -0.023125 148 148 148
0.341657 0.189260 -0.022948 149 149 149
0.340020 0.192113 -0.022796 150 150 150
0.338300 0.194784 -0.022663 151 151 151
0.336582 0.197454 -0.022529 152 152 152
0.335013 0.200423 -0.022365 153 153 153
0.333418 0.203332 -0.022207 155 155 155
0.331844 0.206275 -0.022045 156 156 156
0.330316 0.209303 -0.021874 156 156 156
0.328753 0.212250 -0.021711 156 156 156
0.327097 0.215002 -0.021569 157 157 157
0.325518 0.217902 -0.021410 159 159 159
0.323900 0.220715 -0.021261 160 160 160
0.322315 0.223588 -0.021105 161 161 161
0.320755 0.226503 -0.020945 162 162 162
0.319229 0.229478 -0.020778 162 162 162
0.317805 0.232648 -0.020591 163 163 163
0.316569 0.236187 -0.020367 163 163 163
0.315346 0.239738 -0.020140 163 163 163
0.314121 0.243275 -0.019915 164 164 164
0.312792 0.246595 -0.019712 164 164 164
0.311466 0.249910 -0.019509 164 164 164
0.310142 0.253220 -0.019307 164 164 164
0.308757 0.256400 -0.019117 164 164 164
0.307372 0.259570 -0.018929 164 164 164
0.305989 0.262734 -0.018741 163 163 163
0.304635 0.265946 -0.018547 163 163 163
0.303309 0.269204 -0.018349 163 163 163
0.301972 0.272431 -0.018154 163 163 163
0.300661 0.275697 -0.017954 163 163 163
0.299258 0.278776 -0.017773 163 163 163
0.297766 0.281676 -0.017611 161 161 161
0.296187 0.284401 -0.017467 161 161 161
0.294593 0.287089 -0.017326 161 161 161
0.293128 0.290017 -0.017161 161 161 161
0.291604 0.292825 -0.017007 161 161 161
0.290048 0.295564 -0.016861 162 162 162
0.288490 0.298292 -0.016715 162 162 162
0.286893 0.300940 -0.016578 162 162 162
0.285297 0.303584 -0.016441 162 162 162
0.283685 0.306189 -0.016308 162 162 162
0.281856 0.308382 -0.016217 162 162 162
0.279990 0.310499 -0.016135 161 161 161
0.278114 0.312596 -0.016054 161 161 161
0.276239 0.314690 -0.015973 161 161 161
0.274363 0.316778 -0.015893 160 160 160
0.272472 0.318834 -0.015817 160 160 160
0.270581 0.320888 -0.015740 161 161 161
0.268688 0.322932 -0.015665 161 161 161
0.266798 0.324981 -0.015588 161 161 161
0.264894 0.326998 -0.015515 160 160 160
0.262944 0.328930 -0.015451 160 160 160
0.260996 0.330860 -0.015387 159 159 159
0.259049 0.332790 -0.015323 158 158 158
0.257103 0.334718 -0.015259 158 158 158
0.255144 0.336621 -0.015198 157 157 157
0.253142 0.338443 -0.015145 155 155 155
0.251078 0.340149 -0.015104 153 153 153
0.249070 0.341955 -0.015052 152 152 152
0.247042 0.343724 -0.015005 150 150 150
0.244884 0.345255 -0.014982 148 148 148
0.242759 0.346846 -0.014953 147 147 147
0.240668 0.348495 -0.014918 145 145 145
0.238487 0.349982 -0.014900 144 144 144
0.236248 0.351366 -0.014892 143 143 143
0.234014 0.352758 -0.014884 142 142 142
0.231812 0.354206 -0.014870 139 139 139
0.229697 0.355807 -0.014840 138 138 138
0.227686 0.357591 -0.014790 138 138 138
0.225635 0.359302 -0.014749 138 138 138
0.223587 0.361016 -0.014706 138 138 138
0.221609 0.362850 -0.014651 138 138 138
0.219588 0.364607 -0.014604 138 138 138
0.217753 0.366685 -0.014523 138 138 138
0.216011 0.368921 -0.014425 138 138 138
0.214300 0.371207 -0.014322 138 138 138
0.212590 0.373491 -0.014219 138 138 138
0.210890 0.375786 -0.014114 138 138 138
0.209360 0.378369 -0.013979 138 138 138
0.207982 0.381206 -0.013817 138 138 138
0.206605 0.384040 -0.013654 138 138 138
0.205208 0.386830 -0.013497 138 138 138
0.203774 0.389552 -0.013346 138 138 138
0.202352 0.392286 -0.013194 138 138 138
0.200966 0.395075 -0.013036 139 139 139
0.199446 0.397632 -0.012902 139 139 139
0.197821 0.400004 -0.012788 139 139 139
0.196196 0.402371 -0.012674 139 139 139
0.194569 0.404732 -0.012561 139 139 139
0.192829 0.406895 -0.012469 139 139 139
0.190936 0.408800 -0.012404 140 140 140
0.188825 0.410340 -0.012379 140 140 140
0.186622 0.411724 -0.012370 140 140 140
0.184419 0.413108 -0.012361 140 140 140
0.182216 0.414491 -0.012352 140 140 140
0.179957 0.415782 -0.012353 140 140 140
0.177532 0.416800 -0.012384 139 139 139
0.175079 0.417772 -0.012419 138 138 138
0.172537 0.418600 -0.012470 138 138 138
0.169983 0.419409 -0.012523 138 138 138
0.167426 0.420218 -0.012576 138 138 138
0.164869 0.421028 -0.012629 138 138 138
0.162291 0.421805 -0.012685 138 138 138
0.159448 0.422155 -0.012788 138 138 138
0.156519 0.422372 -0.012905 138 138 138
0.153545 0.422519 -0.013030 138 138 138
0.150567 0.422666 -0.013155 138 138 138
0.147586 0.422813 -0.013281 138 138 138
0.144149 0.422234 -0.013485 138 138 138
0.140287 0.420984 -0.013762 138 138 138
0.136188 0.419366 -0.014079 138 138 138
0.132043 0.417688 -0.014402 138 138 138
0.128064 0.416289 -0.014696 138 138 138
0.123833 0.414502 -0.015033 138 138 138
0.120364 0.413935 -0.015238 138 138 138
0.117085 0.413675 -0.015409 138 138 138
0.113976 0.413692 -0.015550 138 138 138
0.110938 0.413825 -0.015679 138 138 138
0.108117 0.414304 -0.015771 138 138 138
0.105295 0.414784 -0.015862 138 138 138
0.102469 0.415264 -0.015954 138 138 138
0.099899 0.416146 -0.016002 138 138 138
0.097492 0.417282 -0.016022 138 138 138
0.095246 0.418669 -0.016015 138 138 138
0.092927 0.419943 -0.016020 138 138 138
0.090503 0.421054 -0.016043 138 138 138
0.088058 0.422135 -0.016069 138 138 138
0.085612 0.423215 -0.016095 138 138 138
0.083298 0.424500 -0.016100 138 138 138
0.081049 0.425882 -0.016093 138 138 138
0.078824 0.427301 -0.016082 138 138 138
0.076598 0.428719 -0.016072 138 138 138
0.074028 0.429613 -0.016119 138 138 138
0.071350 0.430346 -0.016183 138 138 138
0.068808 0.431287 -0.016225 138 138 138
0.066124 0.432015 -0.016291 138 138 138
0.063125 0.432271 -0.016408 138 138 138
0.059878 0.432161 -0.016566 138 138 138
0.056628 0.432050 -0.016724 138 138 138
0.053331 0.431877 -0.016889 138 138 138
0.049637 0.431117 -0.017119 138 138 138
0.045794 0.430145 -0.017373 138 138 138
0.041792 0.428946 -0.017652 138 138 138
0.037896 0.427916 -0.017913 138 138 138
0.033917 0.426773 -0.018187 138 138 138
0.029724 0.425326 -0.018495 138 138 138
0.025823 0.424321 -0.018754 138 138 138
0.022089 0.423571 -0.018985 138 138 138
0.018359 0.422837 -0.019215 138 138 138
0.014923 0.422541 -0.019396 138 138 138
0.011481 0.422245 -0.019578 138 138 138
0.008034 0.421948 -0.019760 138 138 138
0.004688 0.421805 -0.019925 138 138 138
0.001583 0.422017 -0.020051 138 138 138
-0.001526 0.422229 -0.020177 138 138 138
-0.004638 0.422442 -0.020303 138 138 138
-0.008024 0.422266 -0.020472 138 138 138
-0.011612 0.421804 -0.020674 138 138 138
-0.015054 0.421561 -0.020851 138 138 138
-0.018403 0.421457 -0.021013 138 138 138
-0.021959 0.421064 -0.021208 138 138 138
-0.025559 0.420616 -0.021409 138 138 138
-0.029145 0.420195 -0.021607 138 138 138
-0.032817 0.419661 -0.021818 138 138 138
-0.036443 0.419199 -0.022022 138 138 138
-0.040061 0.418756 -0.022223 138 138 138
-0.043686 0.418312 -0.022425 138 138 138
-0.047340 0.417835 -0.022631 138 138 138
-0.051036 0.417305 -0.022843 138 138 138
-0.054857 0.416609 -0.023074 138 138 138
-0.058906 0.415603 -0.023340 138 138 138
-0.063093 0.414416 -0.023626 138 138 138
-0.068156 0.412019 -0.024050 138 138 138
-0.072989 0.409957 -0.024436 138 138 138
-0.079500 0.405583 -0.025083 138 138 138
-0.085622 0.401773 -0.025667 138 138 138
-0.091702 0.398043 -0.026243 138 138 138
-0.096860 0.395604 -0.026674 138 138 138
-0.102037 0.393156 -0.027107 138 138 138
-0.106148 0.392187 -0.027373 138 138 138
-0.110068 0.391488 -0.027608 138 138 138
-0.113863 0.390970 -0.027824 138 138 138
-0.117727 0.390365 -0.028050 138 138 138
-0.121599 0.389758 -0.028276 138 138 138
-0.125373 0.389292 -0.028486 138 138 138
-0.129255 0.388688 -0.028712 138 138 138
-0.133147 0.388080 -0.028940 138 138 138
-0.137045 0.387470 -0.029167 138 138 138
-0.141321 0.386361 -0.029452 138 138 138
-0.145615 0.385240 -0.029738 138 138 138
-0.149977 0.384036 -0.030034 138 138 138
-0.154984 0.381982 -0.030428 138 138 138
-0.160727 0.378960 -0.030932 138 138 138
-0.168721 0.372959 -0.031777 138 138 138
-0.177153 0.366407 -0.032685 138 138 138
-0.184413 0.361443 -0.033414 138 138 138
-0.190400 0.358190 -0.033948 138 138 138
-0.195931 0.355559 -0.034411 138 138 138
-0.200778 0.353846 -0.034770 138 138 138
-0.205416 0.352421 -0.035096 138 138 138
-0.209976 0.351110 -0.035410 138 138 138
-0.214440 0.349938 -0.035708 138 138 138
-0.218863 0.348829 -0.036000 138 138 138
-0.223324 0.347680 -0.036296 138 138 138
-0.227796 0.346529 -0.036593 138 138 138
-0.232391 0.345228 -0.036908 138 138 138
-0.237001 0.343920 -0.037224 138 138 138
-0.242742 0.341160 -0.037707 138 138 138
-0.248698 0.338140 -0.038221 138 138 138
-0.254572 0.335244 -0.038721 138 138 138
-0.259894 0.333077 -0.039138 138 138 138
-0.269380 0.325584 -0.040170 138 138 138
-0.277062 0.320436 -0.040932 138 138 138
-0.299807 0.296080 -0.043915 100 100 100
0.399691 -0.135896 -0.049138 105 105 105
0.403109 -0.119514 -0.047662 158 158 158
0.404476 -0.108295 -0.046696 162 162 162
0.405810 -0.097217 -0.045742 165 165 165
0.406510 -0.087753 -0.044948 166 166 166
0.407300 -0.078114 -0.044136 167 167 167
0.407453 -0.070079 -0.043483 165 165 165
0.407312 -0.062803 -0.042904 163 163 163
0.406859 -0.056316 -0.042403 161 161 161
0.406012 -0.050817 -0.042000 158 158 158
0.404833 -0.046141 -0.041679 159 159 159
0.403602 -0.041612 -0.041371 159 159 159
0.402390 -0.037052 -0.041061 158 158 158
0.401820 -0.030971 -0.040598 157 157 157
0.401553 -0.024191 -0.040065 153 153 153
0.401698 -0.016459 -0.039436 153 153 153
0.401314 -0.010021 -0.038936 153 153 153
0.400907 -0.003667 -0.038444 150 150 150
0.400766 0.003290 -0.037891 147 147 147
0.400417 0.009725 -0.037389 147 147 147
0.400362 0.016824 -0.036821 149 149 149
0.400248 0.023751 -0.036269 152 152 152
0.400250 0.030922 -0.035692 157 157 157
0.400797 0.039330 -0.034990 155 155 155
0.400939 0.046756 -0.034386 153 153 153
0.400963 0.053875 -0.033812 152 152 152
0.400516 0.059873 -0.033350 150 150 150
0.400348 0.066489 -0.032826 146 146 146
0.400110 0.072916 -0.032320 145 145 145
0.399825 0.079207 -0.031827 146 146 146
0.399221 0.084744 -0.031409 146 146 146
0.398355 0.089656 -0.031054 145 145 145
0.397304 0.094132 -0.030743 144 144 144
0.396184 0.098430 -0.030449 144 144 144
0.394643 0.101764 -0.030253 144 144 144
0.393091 0.105060 -0.030060 144 144 144
0.391533 0.108332 -0.029869 143 143 143
0.389792 0.111184 -0.029720 143 143 143
0.388042 0.114009 -0.029574 142 142 142
0.386259 0.116751 -0.029436 142 142 142
0.384474 0.119482 -0.029300 141 141 141
0.382690 0.122207 -0.029163 141 141 141
0.380918 0.124951 -0.029025 141 141 141
0.379147 0.127691 -0.028886 141 141 141
0.377361 0.130390 -0.028752 141 141 141
0.375566 0.133061 -0.028621 142 142 142
0.373768 0.135721 -0.028490 142 142 142
0.371946 0.138320 -0.028366 143 143 143
0.370104 0.140868 -0.028246 143 143 143
0.368239 0.143362 -0.028132 144 144 144
0.366351 0.145800 -0.028024 144 144 144
0.364440 0.148180 -0.027921 144 144 144
0.362516 0.150529 -0.027822 143 143 143
0.360635 0.152965 -0.027713 142 142 142
0.358802 0.155498 -0.027594 143 143 143
0.356966 0.158020 -0.027477 143 143 143
0.355175 0.160628 -0.027350 144 144 144
0.353493 0.163465 -0.027200 145 145 145
0.351794 0.166255 -0.027055 145 145 145
0.350083 0.169014 -0.026912 145 145 145
0.348427 0.171882 -0.026758 146 146 146
0.346964 0.175148 -0.026563 146 146 146
0.345596 0.178603 -0.026349 147 147 147
0.344162 0.181908 -0.026150 148 148 148
0.342602 0.184941 -0.025978 149 149 149
0.341081 0.188045 -0.025799 150 150 150
0.339561 0.191144 -0.025620 151 151 151
0.337855 0.193848 -0.025482 152 152 152
0.336218 0.196686 -0.025330 153 153 153
0.334662 0.199685 -0.025161 154 154 154
0.333151 0.202768 -0.024983 156 156 156
0.331644 0.205850 -0.024805 156 156 156
0.330142 0.208932 -0.024627 157 157 157
0.328616 0.211957 -0.024454 157 157 157
0.326994 0.214778 -0.024303 158 158 158
0.325428 0.217706 -0.024140 160 160 160
0.323810 0.220520 -0.023989 161 161 161
0.322219 0.223381 -0.023832 162 162 162
0.320714 0.226408 -0.023659 162 162 162
0.319211 0.229430 -0.023485 162 162 162
0.317805 0.232637 -0.023293 163 163 163
0.316551 0.236139 -0.023069 163 163 163
0.315316 0.239667 -0.022843 163 163 163
0.314092 0.243206 -0.022615 164 164 164
0.312791 0.246581 -0.022404 164 164 164
0.311464 0.249896 -0.022199 164 164 164
0.310129 0.253184 -0.021996 164 164 164
0.308796 0.256466 -0.021794 164 164 164
0.307422 0.259657 -0.021601 163 163 163
0.306039 0.262822 -0.021411 163 163 163
0.304669 0.266002 -0.021219 163 163 163
0.303340 0.269255 -0.021019 162 162 162
0.302003 0.272481 -0.020821 162 162 162
0.300669 0.275702 -0.020624 162 162 162
0.299146 0.278551 -0.020465 161 161 161
0.297563 0.281276 -0.020320 161 161 161
0.295982 0.283998 -0.020174 160 160 160
0.294398 0.286707 -0.020030 159 159 159
0.292896 0.289565 -0.019870 160 160 160
0.291433 0.292490 -0.019702 160 160 160
0.289972 0.295411 -0.019535 160 160 160
0.288465 0.298238 -0.019378 160 160 160
0.286857 0.300865 -0.019241 161 161 161
0.285238 0.303464 -0.019107 161 161 161
0.283620 0.306061 -0.018973 161 161 161
0.281886 0.308432 -0.018863 161 161 161
0.280034 0.310577 -0.018777 161 161 161
0.278184 0.312721 -0.018690 160 160 160
0.276335 0.314863 -0.018604 160 160 160
0.274482 0.316993 -0.018518 159 159 159
0.272574 0.319018 -0.018444 160 160 160
0.270646 0.321003 -0.018374 160 160 160
0.268766 0.323073 -0.018295 160 160 160
0.266885 0.325137 -0.018216 160 160 160
0.264997 0.327184 -0.018139 160 160 160
0.263055 0.329128 -0.018073 159 159 159
0.261107 0.331059 -0.018008 159 159 159
0.259159 0.332988 -0.017943 158 158 158
0.257169 0.334836 -0.017887 157 157 157
0.255137 0.336604 -0.017839 156 156 156
0.253114 0.338388 -0.017790 155 155 155
0.251054 0.340103 -0.017747 153 153 153
0.248976 0.341783 -0.017709 152 152 152
0.246948 0.343551 -0.017661 150 150 150
0.244790 0.345083 -0.017638 148 148 148
0.242625 0.346603 -0.017616 146 146 146
0.240357 0.347936 -0.017614 145 145 145
0.238117 0.349320 -0.017607 144 144 144
0.235877 0.350704 -0.017599 143 143 143
0.233637 0.352087 -0.017592 142 142 142
0.231423 0.353517 -0.017580 140 140 140
0.229221 0.354966 -0.017566 138 138 138
0.227075 0.356514 -0.017541 138 138 138
0.225076 0.358318 -0.017489 138 138 138
0.223096 0.360153 -0.017433 138 138 138
0.221116 0.361988 -0.017377 138 138 138
0.219083 0.363726 -0.017332 138 138 138
0.217044 0.365452 -0.017288 138 138 138
0.215241 0.367585 -0.017200 138 138 138
0.213530 0.369873 -0.017095 138 138 138
0.211819 0.372159 -0.016991 139 139 139
0.210272 0.374720 -0.016857 139 139 139
0.208834 0.377466 -0.016703 139 139 139
0.207430 0.380260 -0.016543 139 139 139
0.206053 0.383096 -0.016379 139 139 139
0.204678 0.385927 -0.016215 140 140 140
0.203259 0.388675 -0.016060 140 140 140
0.201826 0.391395 -0.015907 140 140 140
0.200396 0.394111 -0.015755 140 140 140
0.198957 0.396805 -0.015605 140 140 140
0.197344 0.399201 -0.015488 140 140 140
0.195715 0.401565 -0.015373 140 140 140
0.194077 0.403907 -0.015261 139 139 139
0.192380 0.406146 -0.015159 139 139 139
0.190561 0.408177 -0.015081 139 139 139
0.188611 0.409985 -0.015026 139 139 139
0.186407 0.411370 -0.015017 139 139 139
0.184181 0.412716 -0.015012 139 139 139
0.181882 0.413942 -0.015020 139 139 139
0.179605 0.415204 -0.015024 139 139 139
0.177334 0.416476 -0.015027 138 138 138
0.174899 0.417479 -0.015060 138 138 138
0.172405 0.418387 -0.015102 138 138 138
0.169850 0.419196 -0.015156 138 138 138
0.167293 0.420005 -0.015210 138 138 138
0.164720 0.420789 -0.015266 138 138 138
0.161970 0.421288 -0.015354 138 138 138
0.159148 0.421673 -0.015454 138 138 138
0.156221 0.421895 -0.015572 138 138 138
0.153246 0.422042 -0.015698 138 138 138
0.150265 0.422184 -0.015825 138 138 138
0.146809 0.421570 -0.016035 138 138 138
0.143017 0.420424 -0.016304 138 138 138
0.139145 0.419162 -0.016585 138 138 138
0.134322 0.416393 -0.017032 138 138 138
0.130259 0.414852 -0.017344 138 138 138
0.125985 0.412991 -0.017693 138 138 138
0.122148 0.411837 -0.017964 138 138 138
0.118947 0.411699 -0.018124 138 138 138
0.115839 0.411715 -0.018267 138 138 138
0.112727 0.411731 -0.018410 138 138 138
0.109734 0.411939 -0.018532 138 138 138
0.106910 0.412418 -0.018625 138 138 138
0.104248 0.413154 -0.018689 138 138 138
0.101733 0.414123 -0.018728 138 138 138
0.099166 0.415011 -0.018776 138 138 138
0.096587 0.415884 -0.018826 138 138 138
0.094204 0.417061 -0.018842 138 138 138
0.091923 0.418397 -0.018840 138 138 138
0.089488 0.419496 -0.018865 138 138 138
0.087113 0.420689 -0.018879 138 138 138
0.084899 0.422129 -0.018866 138 138 138
0.082699 0.423589 -0.018851 138 138 138
0.080501 0.425052 -0.018835 138 138 138
0.078290 0.426496 -0.018822 138 138 138
0.076064 0.427916 -0.018811 138 138 138
0.073401 0.428670 -0.018874 138 138 138
0.070860 0.429612 -0.018916 138 138 138
0.068321 0.430560 -0.018958 138 138 138
0.065755 0.431468 -0.019004 138 138 138
0.062746 0.431710 -0.019124 138 138 138
0.059498 0.431599 -0.019284 138 138 138
0.056303 0.431573 -0.019435 138 138 138
0.053197 0.431687 -0.019570 138 138 138
0.049354 0.430706 -0.019827 138 138 138
0.045376 0.429533 -0.020106 138 138 138
0.041388 0.428357 -0.020386 138 138 138
0.037475 0.427303 -0.020653 138 138 138
0.033310 0.425886 -0.020960 138 138 138
0.029107 0.424426 -0.021273 138 138 138
0.025375 0.423672 -0.021507 138 138 138
0.021639 0.422922 -0.021741 138 138 138
0.017896 0.422170 -0.021975 138 138 138
0.014413 0.421807 -0.022166 138 138 138
0.010970 0.421510 -0.022350 138 138 138
0.007672 0.421432 -0.022509 138 138 138
0.004448 0.421468 -0.022656 138 138 138
0.001301 0.421621 -0.022790 138 138 138
-0.001849 0.421775 -0.022924 138 138 138
-0.004997 0.421937 -0.023057 138 138 138
-0.008119 0.422141 -0.023186 138 138 138
-0.011580 0.421863 -0.023369 138 138 138
-0.014925 0.421760 -0.023532 138 138 138
-0.018273 0.421657 -0.023696 138 138 138
-0.021672 0.421489 -0.023868 138 138 138
-0.025291 0.421012 -0.024074 138 138 138
-0.028876 0.420592 -0.024275 138 138 138
-0.032461 0.420179 -0.024474 138 138 138
-0.036023 0.419808 -0.024670 138 138 138
-0.039606 0.419414 -0.024868 138 138 138
-0.043229 0.418970 -0.025072 138 138 138
-0.046864 0.418519 -0.025277 138 138 138
-0.050604 0.417927 -0.025498 138 138 138
-0.054600 0.416984 -0.025760 138 138 138
-0.058665 0.415955 -0.026031 138 138 138
-0.062851 0.414767 -0.026321 138 138 138
-0.068061 0.412166 -0.026772 138 138 138
-0.073583 0.409147 -0.027272 138 138 138
-0.080358 0.404410 -0.027968 138 138 138
-0.086430 0.400672 -0.028550 138 138 138
-0.092781 0.396569 -0.029176 138 138 138
-0.097945 0.394126 -0.029612 138 138 138
-0.102485 0.392557 -0.029949 138 138 138
-0.106544 0.391660 -0.030210 138 138 138
-0.110313 0.391170 -0.030424 138 138 138
-0.114104 0.390657 -0.030642 138 138 138
-0.117964 0.390059 -0.030869 138 138 138
-0.121702 0.389635 -0.031077 138 138 138
-0.125233 0.389500 -0.031252 138 138 138
-0.129015 0.389031 -0.031465 138 138 138
-0.132918 0.388406 -0.031697 138 138 138
-0.136829 0.387780 -0.031929 138 138 138
-0.140891 0.386958 -0.032183 138 138 138
-0.145195 0.385821 -0.032475 138 138 138
-0.149509 0.384682 -0.032767 138 138 138
-0.154275 0.382949 -0.033128 138 138 138
-0.160176 0.379713 -0.033662 138 138 138
-0.168960 0.372659 -0.034638 138 138 138
-0.177755 0.365626 -0.035612 138 138 138
-0.185099 0.360552 -0.036361 138 138 138
-0.190914 0.357529 -0.036875 138 138 138
-0.196190 0.355236 -0.037304 138 138 138
-0.200805 0.353830 -0.037632 138 138 138
-0.205314 0.352575 -0.037942 138 138 138
-0.209867 0.351274 -0.038258 138 138 138
-0.214277 0.350171 -0.038552 138 138 138
-0.218709 0.349050 -0.038848 138 138 138
-0.223125 0.347961 -0.039141 138 138 138
-0.227576 0.346836 -0.039438 138 138 138
-0.232127 0.345592 -0.039749 138 138 138
-0.237706 0.343027 -0.040215 138 138 138
-0.243655 0.340000 -0.040735 138 138 138
-0.249475 0.337159 -0.041234 138 138 138
-0.255486 0.334090 -0.041760 138 138 138
-0.265516 0.325873 -0.042887 138 138 138
-0.271328 0.323107 -0.043379 138 138 138
-0.280489 0.316074 -0.044371 138 138 138
0.401400 -0.123795 -0.051061 157 157 157
0.402827 -0.112415 -0.050068 159 159 159
0.404281 -0.101025 -0.049073 165 165 165
0.405645 -0.089916 -0.048106 167 167 167
0.406460 -0.080211 -0.047278 167 167 167
0.406869 -0.071544 -0.046554 166 166 166
0.406746 -0.064218 -0.045963 163 163 163
0.406399 -0.057469 -0.045431 162 162 162
0.405550 -0.051971 -0.045023 160 160 160
0.404386 -0.047255 -0.044694 160 160 160
0.403171 -0.042682 -0.044380 161 161 161
0.401988 -0.038052 -0.044058 161 161 161
0.401320 -0.032202 -0.043614 160 160 160
0.401123 -0.025251 -0.043058 156 156 156
0.401176 -0.017735 -0.042444 154 154 154
0.400832 -0.011200 -0.041929 156 156 156
0.400152 -0.005488 -0.041496 154 154 154
0.399867 0.001135 -0.040970 151 151 151
0.399421 0.007348 -0.040486 149 149 149
0.399237 0.014149 -0.039941 150 150 150
0.399286 0.021468 -0.039344 155 155 155
0.399362 0.028816 -0.038743 159 159 159
0.399564 0.036426 -0.038114 157 157 157
0.399324 0.042972 -0.037593 154 154 154
0.399463 0.050370 -0.036984 153 153 153
0.399143 0.056671 -0.036487 150 150 150
0.398946 0.063230 -0.035963 147 147 147
0.398765 0.069796 -0.035437 143 143 143
0.398542 0.076239 -0.034923 143 143 143
0.397876 0.081640 -0.034515 143 143 143
0.397188 0.086968 -0.034114 143 143 143
0.396384 0.092013 -0.033742 143 143 143
0.395351 0.096517 -0.033424 142 142 142
0.394059 0.100418 -0.033167 142 142 142
0.392521 0.103749 -0.032968 142 142 142
0.390985 0.107076 -0.032770 142 142 142
0.389358 0.110188 -0.032593 141 141 141
0.387549 0.112882 -0.032459 141 141 141
0.385741 0.115573 -0.032325 140 140 140
0.383936 0.118261 -0.032191 140 140 140
0.382172 0.121035 -0.032048 140 140 140
0.380402 0.123786 -0.031908 140 140 140
0.378633 0.126534 -0.031767 140 140 140
0.376866 0.129279 -0.031627 140 140 140
0.375052 0.131913 -0.031498 141 141 141
0.373226 0.134513 -0.031372 142 142 142
0.371404 0.137115 -0.031246 143 143 143
0.369592 0.139733 -0.031118 143 143 143
0.367737 0.142252 -0.031000 143 143 143
0.365843 0.144680 -0.030892 143 143 143
0.363931 0.147062 -0.030788 143 143 143
0.362028 0.149458 -0.030682 144 144 144
0.360146 0.151896 -0.030573 143 143 143
0.358236 0.154266 -0.030469 144 144 144
0.356355 0.156694 -0.030360 144 144 144
0.354521 0.159216 -0.030241 145 145 145
0.352757 0.161882 -0.030107 145 145 145
0.351057 0.164675 -0.029960 146 146 146
0.349345 0.167437 -0.029816 146 146 146
0.347782 0.170503 -0.029640 147 147 147
0.346357 0.173852 -0.029434 148 148 148
0.344988 0.177311 -0.029217 149 149 149
0.343623 0.180763 -0.029000 150 150 150
0.342114 0.183906 -0.028816 150 150 150
0.340556 0.186937 -0.028642 151 151 151
0.339001 0.189964 -0.028469 152 152 152
0.337425 0.192941 -0.028301 152 152 152
0.335914 0.196045 -0.028119 154 154 154
0.334411 0.199154 -0.027937 155 155 155
0.332910 0.202258 -0.027755 156 156 156
0.331399 0.205332 -0.027576 157 157 157
0.329906 0.208437 -0.027393 157 157 157
0.328416 0.211537 -0.027211 157 157 157
0.326917 0.214608 -0.027032 159 159 159
0.325338 0.217510 -0.026870 161 161 161
0.323771 0.220428 -0.026706 161 161 161
0.322209 0.223348 -0.026542 161 161 161
0.320696 0.226359 -0.026368 162 162 162
0.319193 0.229381 -0.026193 163 163 163
0.317810 0.232636 -0.025993 163 163 163
0.316535 0.236095 -0.025772 163 163 163
0.315300 0.239623 -0.025543 164 164 164
0.314067 0.243145 -0.025314 164 164 164
0.312781 0.246551 -0.025097 164 164 164
0.311443 0.249844 -0.024892 164 164 164
0.310108 0.253132 -0.024688 164 164 164
0.308806 0.256476 -0.024477 163 163 163
0.307446 0.259693 -0.024279 163 163 163
0.306087 0.262906 -0.024081 162 162 162
0.304707 0.266068 -0.023889 162 162 162
0.303371 0.269305 -0.023688 162 162 162
0.301972 0.272412 -0.023501 161 161 161
0.300481 0.275330 -0.023334 161 161 161
0.298946 0.278155 -0.023176 160 160 160
0.297359 0.280874 -0.023030 160 160 160
0.295777 0.283595 -0.022883 159 159 159
0.294198 0.286315 -0.022736 158 158 158
0.292664 0.289113 -0.022580 158 158 158
0.291201 0.292039 -0.022411 160 160 160
0.289750 0.294981 -0.022240 158 158 158
0.288269 0.297859 -0.022075 157 157 157
0.286792 0.300735 -0.021910 159 159 159
0.285173 0.303335 -0.021775 160 160 160
0.283556 0.305932 -0.021640 160 160 160
0.281916 0.308482 -0.021509 160 160 160
0.280064 0.310627 -0.021422 160 160 160
0.278214 0.312770 -0.021334 159 159 159
0.276349 0.314883 -0.021250 159 159 159
0.274459 0.316946 -0.021171 158 158 158
0.272637 0.319130 -0.021079 158 158 158
0.270709 0.321115 -0.021008 159 159 159
0.268834 0.323192 -0.020927 159 159 159
0.266961 0.325271 -0.020846 160 160 160
0.265085 0.327340 -0.020766 160 160 160
0.263165 0.329326 -0.020694 160 160 160
0.261208 0.331239 -0.020631 158 158 158
0.259195 0.333049 -0.020578 157 157 157
0.257183 0.334857 -0.020525 156 156 156
0.255138 0.336603 -0.020479 156 156 156
0.253085 0.338333 -0.020435 155 155 155
0.251036 0.340067 -0.020390 153 153 153
0.248939 0.341713 -0.020355 152 152 152
0.246854 0.343379 -0.020317 150 150 150
0.244669 0.344864 -0.020299 149 149 149
0.242475 0.346332 -0.020283 147 147 147
0.240098 0.347472 -0.020302 146 146 146
0.237813 0.348777 -0.020303 145 145 145
0.235529 0.350083 -0.020304 143 143 143
0.233265 0.351426 -0.020301 142 142 142
0.231035 0.352828 -0.020292 139 139 139
0.228844 0.354299 -0.020275 138 138 138
0.226676 0.355809 -0.020254 138 138 138
0.224584 0.357453 -0.020218 138 138 138
0.222603 0.359289 -0.020162 138 138 138
0.220619 0.361117 -0.020107 138 138 138
0.218578 0.362844 -0.020062 138 138 138
0.216538 0.364571 -0.020017 138 138 138
0.214499 0.366297 -0.019973 139 139 139
0.212852 0.368699 -0.019855 141 141 141
0.211284 0.371233 -0.019722 142 142 142
0.209847 0.373988 -0.019565 142 142 142
0.208391 0.376703 -0.019413 141 141 141
0.206967 0.379467 -0.019255 141 141 141
0.205547 0.382230 -0.019097 141 141 141
0.204129 0.384990 -0.018939 141 141 141
0.202743 0.387797 -0.018776 141 141 141
0.201305 0.390510 -0.018623 141 141 141
0.199836 0.393163 -0.018476 140 140 140
0.198368 0.395812 -0.018329 140 140 140
0.196864 0.398392 -0.018190 140 140 140
0.195235 0.400758 -0.018074 140 140 140
0.193583 0.403080 -0.017963 140 140 140
0.191886 0.405320 -0.017860 139 139 139
0.190189 0.407558 -0.017758 139 139 139
0.188294 0.409459 -0.017692 139 139 139
0.186117 0.410890 -0.017678 138 138 138
0.183818 0.412116 -0.017686 138 138 138
0.181524 0.413352 -0.017694 139 139 139
0.179253 0.414625 -0.017697 138 138 138
0.176981 0.415898 -0.017700 138 138 138
0.174709 0.417171 -0.017703 138 138 138
0.172262 0.418156 -0.017738 138 138 138
0.169710 0.418971 -0.017791 138 138 138
0.167138 0.419755 -0.017848 138 138 138
0.164466 0.420379 -0.017923 138 138 138
0.161649 0.420771 -0.018023 138 138 138
0.158831 0.421164 -0.018124 138 138 138
0.155924 0.421417 -0.018240 138 138 138
0.152921 0.421521 -0.018372 138 138 138
0.149360 0.420732 -0.018604 138 138 138
0.145706 0.419802 -0.018851 138 138 138
0.141878 0.418602 -0.019128 138 138 138
0.137371 0.416328 -0.019525 138 138 138
0.132505 0.413498 -0.019984 138 138 138
0.128308 0.411751 -0.020323 138 138 138
0.124196 0.410153 -0.020646 138 138 138
0.120827 0.409748 -0.020837 138 138 138
0.117703 0.409736 -0.020985 138 138 138
0.114591 0.409751 -0.021130 138 138 138
0.111475 0.409765 -0.021275 138 138 138
0.108556 0.410096 -0.021385 138 138 138
0.106046 0.411071 -0.021424 138 138 138
0.103530 0.412039 -0.021463 138 138 138
0.101014 0.413008 -0.021503 138 138 138
0.098431 0.413875 -0.021553 138 138 138
0.095858 0.414759 -0.021602 138 138 138
0.093394 0.415813 -0.021632 138 138 138
0.090947 0.416896 -0.021659 138 138 138
0.088739 0.418349 -0.021645 138 138 138
0.086538 0.419811 -0.021629 138 138 138
0.084337 0.421273 -0.021614 138 138 138
0.082135 0.422734 -0.021598 138 138 138
0.079935 0.424195 -0.021583 138 138 138
0.077741 0.425667 -0.021566 138 138 138
0.075468 0.427017 -0.021563 138 138 138
0.072914 0.427939 -0.021608 138 138 138
0.070375 0.428887 -0.021650 138 138 138
0.067835 0.429835 -0.021692 138 138 138
0.065295 0.430783 -0.021734 138 138 138
0.062366 0.431149 -0.021842 138 138 138
0.059130 0.431057 -0.022002 138 138 138
0.056027 0.431170 -0.022138 138 138 138
0.052790 0.431088 -0.022297 138 138 138
0.048985 0.430165 -0.022551 138 138 138
0.044957 0.428920 -0.022841 138 138 138
0.040968 0.427743 -0.023124 138 138 138
0.036987 0.426590 -0.023405 138 138 138
0.032793 0.425133 -0.023720 138 138 138
0.028720 0.423867 -0.024015 138 138 138
0.024961 0.423074 -0.024256 138 138 138
0.021195 0.422280 -0.024497 138 138 138
0.017444 0.421518 -0.024735 138 138 138
0.013903 0.421073 -0.024938 138 138 138
0.010705 0.421135 -0.025083 138 138 138
0.007538 0.421249 -0.025222 138 138 138
0.004278 0.421234 -0.025377 138 138 138
0.001097 0.421338 -0.025518 138 138 138
-0.002054 0.421492 -0.025653 138 138 138
-0.005208 0.421645 -0.025789 138 138 138
-0.008306 0.421885 -0.025915 138 138 138
-0.011498 0.421996 -0.026056 138 138 138
-0.014810 0.421938 -0.026216 138 138 138
-0.018144 0.421856 -0.026379 138 138 138
-0.021497 0.421752 -0.026545 138 138 138
-0.025023 0.421408 -0.026739 138 138 138
-0.028599 0.421000 -0.026940 138 138 138
-0.032177 0.420598 -0.027140 138 138 138
-0.035754 0.420204 -0.027341 138 138 138
-0.039310 0.419846 -0.027537 138 138 138
-0.042872 0.419489 -0.027733 138 138 138
-0.046440 0.419130 -0.027930 138 138 138
-0.050369 0.418271 -0.028184 138 138 138
-0.054409 0.417267 -0.028456 138 138 138
-0.058458 0.416260 -0.028728 138 138 138
-0.062610 0.415120 -0.029015 138 138 138
-0.067966 0.412314 -0.029495 138 138 138
-0.074062 0.408497 -0.030092 138 138 138
-0.081148 0.403331 -0.030845 138 138 138
-0.087522 0.399176 -0.031482 138 138 138
-0.093861 0.395094 -0.032112 138 138 138
-0.098543 0.393319 -0.032476 138 138 138
-0.102846 0.392078 -0.032779 138 138 138
-0.106837 0.391274 -0.033032 138 138 138
-0.110557 0.390852 -0.033241 138 138 138
-0.114355 0.390331 -0.033462 138 138 138
-0.118017 0.390003 -0.033661 138 138 138
-0.121614 0.389772 -0.033848 138 138 138
-0.125092 0.389708 -0.034017 138 138 138
-0.128769 0.389381 -0.034216 138 138 138
-0.132672 0.388757 -0.034450 138 138 138
-0.136559 0.388161 -0.034681 138 138 138
-0.140409 0.387624 -0.034906 138 138 138
-0.144746 0.386443 -0.035205 138 138 138
-0.149088 0.385264 -0.035505 138 138 138
-0.153566 0.383915 -0.035825 138 138 138
-0.159508 0.380624 -0.036372 138 138 138
-0.168335 0.373511 -0.037365 138 138 138
-0.178141 0.365133 -0.038507 138 138 138
-0.185630 0.359868 -0.039287 138 138 138
-0.191087 0.357320 -0.039751 138 138 138
-0.196267 0.355154 -0.040170 138 138 138
-0.200728 0.353952 -0.040478 138 138 138
-0.205250 0.352679 -0.040793 138 138 138
-0.209709 0.351501 -0.041099 138 138 138
-0.214141 0.350368 -0.041399 138 138 138
-0.218584 0.349233 -0.041700 138 138 138
-0.223001 0.348142 -0.041996 138 138 138
-0.227427 0.347050 -0.042293 138 138 138
-0.232833 0.344695 -0.042738 138 138 138
-0.238625 0.341857 -0.043241 138 138 138
-0.244541 0.338876 -0.043762 138 138 138
-0.251064 0.335129 -0.044373 138 138 138
-0.261310 0.326612 -0.045547 138 138 138
-0.267696 0.323094 -0.046133 138 138 138
-0.275578 0.317679 -0.046943 138 138 138
-0.291346 0.302201 -0.048943 100 100 100
0.400856 -0.117331 -0.053530 155 155 155
0.402758 -0.104821 -0.052411 163 163 163
0.404218 -0.093464 -0.051408 165 165 165
0.405433 -0.082765 -0.050470 166 166 166
0.406032 -0.073626 -0.049691 166 166 166
0.406179 -0.065634 -0.049026 164 164 164
0.405827 -0.058896 -0.048489 162 162 162
0.405087 -0.053127 -0.048050 161 161 161
0.403928 -0.048398 -0.047716 162 162 162
0.402878 -0.043424 -0.047357 162 162 162
0.401777 -0.038593 -0.047012 161 161 161
0.400947 -0.033131 -0.046602 162 162 162
0.400732 -0.026219 -0.046044 159 159 159
0.400584 -0.019180 -0.045472 157 157 157
0.400285 -0.012530 -0.044939 159 159 159
0.399669 -0.006663 -0.044486 157 157 157
0.398992 -0.000966 -0.044050 155 155 155
0.398711 0.005643 -0.043519 151 151 151
0.398521 0.012435 -0.042970 152 152 152
0.398602 0.019834 -0.042358 156 156 156
0.398538 0.026861 -0.041783 159 159 159
0.398329 0.033516 -0.041245 159 159 159
0.398224 0.040386 -0.040686 156 156 156
0.397948 0.046828 -0.040169 153 153 153
0.397715 0.053342 -0.039644 151 151 151
0.397580 0.060053 -0.039099 148 148 148
0.397389 0.066605 -0.038569 145 145 145
0.396952 0.072567 -0.038100 141 141 141
0.396527 0.078530 -0.037629 141 141 141
0.395785 0.083745 -0.037236 139 139 139
0.395088 0.089040 -0.036833 139 139 139
0.394266 0.094030 -0.036462 140 140 140
0.393399 0.098901 -0.036103 140 140 140
0.391928 0.102387 -0.035886 140 140 140
0.390286 0.105480 -0.035709 140 140 140
0.388648 0.108570 -0.035533 140 140 140
0.386923 0.111457 -0.035378 140 140 140
0.385114 0.114151 -0.035242 140 140 140
0.383322 0.116873 -0.035103 139 139 139
0.381603 0.119749 -0.034948 138 138 138
0.379843 0.122529 -0.034803 139 139 139
0.378062 0.125253 -0.034664 139 139 139
0.376274 0.127954 -0.034527 140 140 140
0.374510 0.130700 -0.034384 141 141 141
0.372683 0.133304 -0.034257 142 142 142
0.370861 0.135910 -0.034129 142 142 142
0.369049 0.138530 -0.034000 142 142 142
0.367235 0.141141 -0.033871 142 142 142
0.365336 0.143562 -0.033762 143 143 143
0.363440 0.145983 -0.033653 144 144 144
0.361547 0.148404 -0.033544 144 144 144
0.359738 0.150999 -0.033417 145 145 145
0.357824 0.153365 -0.033313 144 144 144
0.355913 0.155732 -0.033209 145 145 145
0.354005 0.158097 -0.033105 145 145 145
0.352097 0.160461 -0.033001 146 146 146
0.350417 0.163301 -0.032847 146 146 146
0.348874 0.166423 -0.032664 148 148 148
0.347333 0.169539 -0.032481 150 150 150
0.345827 0.172722 -0.032291 151 151 151
0.344418 0.176097 -0.032080 151 151 151
0.343014 0.179472 -0.031869 151 151 151
0.341625 0.182869 -0.031656 152 152 152
0.340067 0.185903 -0.031480 152 152 152
0.338584 0.189083 -0.031289 153 153 153
0.337140 0.192337 -0.031090 154 154 154
0.335658 0.195499 -0.030900 155 155 155
0.334161 0.198623 -0.030715 155 155 155
0.332660 0.201729 -0.030530 156 156 156
0.331153 0.204815 -0.030348 158 158 158
0.329661 0.207920 -0.030164 158 158 158
0.328214 0.211109 -0.029970 159 159 159
0.326796 0.214349 -0.029771 161 161 161
0.325284 0.217388 -0.029593 161 161 161
0.323771 0.220415 -0.029416 161 161 161
0.322209 0.223335 -0.029250 161 161 161
0.320678 0.226310 -0.029078 162 162 162
0.319175 0.229332 -0.028901 163 163 163
0.317816 0.232634 -0.028694 163 163 163
0.316519 0.236051 -0.028474 164 164 164
0.315266 0.239543 -0.028247 164 164 164
0.313998 0.242996 -0.028023 164 164 164
0.312739 0.246456 -0.027798 164 164 164
0.311423 0.249792 -0.027586 164 164 164
0.310092 0.253089 -0.027378 163 163 163
0.308812 0.256477 -0.027160 163 163 163
0.307456 0.259703 -0.026960 163 163 163
0.306097 0.262915 -0.026760 162 162 162
0.304731 0.266105 -0.026562 161 161 161
0.303225 0.269011 -0.026395 160 160 160
0.301731 0.271934 -0.026226 160 160 160
0.300240 0.274853 -0.026056 159 159 159
0.298750 0.277768 -0.025887 159 159 159
0.297163 0.280487 -0.025739 158 158 158
0.295578 0.283204 -0.025591 158 158 158
0.293995 0.285917 -0.025443 157 157 157
0.292432 0.288661 -0.025292 157 157 157
0.290949 0.291550 -0.025124 157 157 157
0.289466 0.294433 -0.024958 156 156 156
0.287985 0.297311 -0.024791 156 156 156
0.286508 0.300190 -0.024625 158 158 158
0.285027 0.303052 -0.024460 158 158 158
0.283491 0.305804 -0.024306 158 158 158
0.281878 0.308403 -0.024169 159 159 159
0.280094 0.310677 -0.024067 159 159 159
0.278167 0.312678 -0.023994 158 158 158
0.276218 0.314633 -0.023926 157 157 157
0.274451 0.316924 -0.023821 157 157 157
0.272700 0.319242 -0.023714 158 158 158
0.270775 0.321232 -0.023641 158 158 158
0.268901 0.323312 -0.023559 158 158 158
0.267028 0.325390 -0.023477 159 159 159
0.265157 0.327467 -0.023395 158 158 158
0.263237 0.329454 -0.023323 156 156 156
0.261223 0.331263 -0.023270 156 156 156
0.259209 0.333070 -0.023217 156 156 156
0.257196 0.334877 -0.023164 156 156 156
0.255140 0.336602 -0.023120 155 155 155
0.253078 0.338315 -0.023077 154 154 154
0.251017 0.340030 -0.023034 153 153 153
0.248896 0.341631 -0.023003 152 152 152
0.246711 0.343118 -0.022984 150 150 150
0.244520 0.344593 -0.022967 149 149 149
0.242325 0.346061 -0.022950 147 147 147
0.239948 0.347202 -0.022969 146 146 146
0.237579 0.348357 -0.022987 146 146 146
0.235293 0.349662 -0.022988 144 144 144
0.233008 0.350968 -0.022989 143 143 143
0.230733 0.352292 -0.022988 142 142 142
0.228518 0.353723 -0.022976 141 141 141
0.226341 0.355219 -0.022956 140 140 140
0.224173 0.356730 -0.022935 139 139 139
0.222110 0.358424 -0.022893 139 139 139
0.220114 0.360233 -0.022839 139 139 139
0.218073 0.361962 -0.022794 140 140 140
0.216078 0.363768 -0.022740 140 140 140
0.214158 0.365704 -0.022672 144 144 144
0.212318 0.367774 -0.022589 145 145 145
0.210859 0.370499 -0.022435 144 144 144
0.209421 0.373255 -0.022276 144 144 144
0.207965 0.375972 -0.022122 143 143 143
0.206521 0.378702 -0.021966 143 143 143
0.205100 0.381466 -0.021806 143 143 143
0.203682 0.384228 -0.021646 143 143 143
0.202201 0.386875 -0.021499 142 142 142
0.200722 0.389520 -0.021352 142 142 142
0.199247 0.392166 -0.021204 141 141 141
0.197779 0.394817 -0.021056 140 140 140
0.196313 0.397465 -0.020908 140 140 140
0.194754 0.399950 -0.020777 140 140 140
0.193089 0.402252 -0.020667 140 140 140
0.191391 0.404493 -0.020563 139 139 139
0.189639 0.406641 -0.020470 139 139 139
0.187839 0.408702 -0.020386 138 138 138
0.185754 0.410289 -0.020354 138 138 138
0.183454 0.411515 -0.020363 138 138 138
0.181173 0.412773 -0.020368 138 138 138
0.178900 0.414046 -0.020371 138 138 138
0.176628 0.415319 -0.020374 138 138 138
0.174364 0.416607 -0.020376 138 138 138
0.172066 0.417838 -0.020384 138 138 138
0.169555 0.418721 -0.020430 138 138 138
0.166961 0.419470 -0.020492 138 138 138
0.164146 0.419862 -0.020593 138 138 138
0.161329 0.420254 -0.020695 138 138 138
0.158509 0.420646 -0.020796 138 138 138
0.155553 0.420822 -0.020922 138 138 138
0.151910 0.419894 -0.021171 138 138 138
0.148260 0.418963 -0.021421 138 138 138
0.144591 0.418015 -0.021673 138 138 138
0.140519 0.416429 -0.021997 138 138 138
0.135402 0.413183 -0.022507 138 138 138
0.130999 0.411099 -0.022887 138 138 138
0.127130 0.409880 -0.023171 138 138 138
0.123207 0.408587 -0.023464 138 138 138
0.119858 0.408217 -0.023653 138 138 138
0.116703 0.408162 -0.023808 138 138 138
0.113545 0.408106 -0.023962 138 138 138
0.110587 0.408374 -0.024081 138 138 138
0.107857 0.409004 -0.024159 138 138 138
0.105329 0.409955 -0.024200 138 138 138
0.102812 0.410923 -0.024240 138 138 138
0.100293 0.411890 -0.024280 138 138 138
0.097707 0.412755 -0.024332 138 138 138
0.095135 0.413642 -0.024381 138 138 138
0.092749 0.414821 -0.024398 138 138 138
0.090432 0.416108 -0.024402 138 138 138
0.088116 0.417395 -0.024406 138 138 138
0.085914 0.418859 -0.024390 138 138 138
