ply
format ascii 1.0
element vertex 1212
property float x
property float y
property float z
property uchar red
property uchar green
property uchar blue
end_header
0.295208 0.264866 0.160493 188 188 188
0.291074 0.277411 0.160770 186 186 186
0.287509 0.284858 0.160934 182 182 182
0.284132 0.290658 0.161062 179 179 179
0.280844 0.295728 0.161174 175 175 175
0.277684 0.299659 0.161261 172 172 172
0.274540 0.303514 0.161346 170 170 170
0.271538 0.306041 0.161402 167 167 167
0.268521 0.308769 0.161462 164 164 164
0.265536 0.311241 0.161517 163 163 163
0.262556 0.313707 0.161571 162 162 162
0.259561 0.316379 0.161630 160 160 160
0.256573 0.319034 0.161688 159 159 159
0.253588 0.321717 0.161748 160 160 160
0.250583 0.324672 0.161813 161 161 161
0.247527 0.328231 0.161891 163 163 163
0.244419 0.332443 0.161984 165 165 165
0.241280 0.337082 0.162087 168 168 168
0.237905 0.344448 0.162249 171 171 171
0.234536 0.351920 0.162414 174 174 174
0.231123 0.360061 0.162594 178 178 178
0.227716 0.368330 0.162776 176 176 176
0.224584 0.373596 0.162892 175 175 175
0.221537 0.377985 0.162989 175 175 175
0.218584 0.381362 0.163064 175 175 175
0.215696 0.384044 0.163123 173 173 173
0.212824 0.386598 0.163179 171 171 171
0.209972 0.388964 0.163231 168 168 168
0.207216 0.390189 0.163258 168 168 168
0.204465 0.391384 0.163285 167 167 167
0.201717 0.392573 0.163311 166 166 166
0.198974 0.393734 0.163337 166 166 166
0.196246 0.394723 0.163358 166 166 166
0.193556 0.395223 0.163369 166 166 166
0.190874 0.395643 0.163379 165 165 165
0.188192 0.396063 0.163388 165 165 165
0.185511 0.396483 0.163397 165 165 165
0.182837 0.396823 0.163405 164 164 164
0.180177 0.396964 0.163408 164 164 164
0.177508 0.397246 0.163414 165 165 165
0.174839 0.397528 0.163420 166 166 166
0.172173 0.397781 0.163426 167 167 167
0.169509 0.398021 0.163431 168 168 168
0.166844 0.398272 0.163437 169 169 169
0.164170 0.398674 0.163446 170 170 170
0.161492 0.399144 0.163456 171 171 171
0.158800 0.399881 0.163472 172 172 172
0.156093 0.400871 0.163494 173 173 173
0.153366 0.402233 0.163524 175 175 175
0.150611 0.404132 0.163566 177 177 177
0.147839 0.406386 0.163616 178 178 178
0.145074 0.408605 0.163665 181 181 181
0.142302 0.411031 0.163718 182 182 182
0.139495 0.414194 0.163788 181 181 181
0.136684 0.417551 0.163862 180 180 180
0.133851 0.421463 0.163948 182 182 182
0.131051 0.424895 0.164024 179 179 179
0.128290 0.427669 0.164085 177 177 177
0.125559 0.429969 0.164136 175 175 175
0.122833 0.432244 0.164186 174 174 174
0.120139 0.433949 0.164224 172 172 172
0.117462 0.435366 0.164255 170 170 170
0.114784 0.436872 0.164288 168 168 168
0.112116 0.438216 0.164318 168 168 168
0.109462 0.439279 0.164341 165 165 165
0.106811 0.440342 0.164365 162 162 162
0.104165 0.441334 0.164387 160 160 160
0.101535 0.441985 0.164401 159 159 159
0.098906 0.442630 0.164415 158 158 158
0.096279 0.443275 0.164430 156 156 156
0.093656 0.443817 0.164442 155 155 155
0.091047 0.444033 0.164446 154 154 154
0.088453 0.443807 0.164441 153 153 153
0.085858 0.443608 0.164437 152 152 152
0.083261 0.443452 0.164434 150 150 150
0.080664 0.443297 0.164430 148 148 148
0.078069 0.443063 0.164425 147 147 147
0.075479 0.442633 0.164415 146 146 146
0.072888 0.442203 0.164406 145 145 145
0.070297 0.441743 0.164396 144 144 144
0.067706 0.441271 0.164385 144 144 144
0.065114 0.440788 0.164375 145 145 145
0.062521 0.440298 0.164364 145 145 145
0.059928 0.439765 0.164352 145 145 145
0.057335 0.439197 0.164340 146 146 146
0.054742 0.438580 0.164326 146 146 146
0.052147 0.437972 0.164313 147 147 147
0.049540 0.437909 0.164311 148 148 148
0.046934 0.437794 0.164309 149 149 149
0.044330 0.437600 0.164304 150 150 150
0.041728 0.437222 0.164296 150 150 150
0.039126 0.436808 0.164287 151 151 151
0.036523 0.436348 0.164277 151 151 151
0.033921 0.435772 0.164264 149 149 149
0.031318 0.435195 0.164251 147 147 147
0.028714 0.434686 0.164240 147 147 147
0.026108 0.434181 0.164229 148 148 148
0.023501 0.433585 0.164216 148 148 148
0.020894 0.432987 0.164203 148 148 148
0.018284 0.432514 0.164192 148 148 148
0.015673 0.432207 0.164185 149 149 149
0.013061 0.431900 0.164179 149 149 149
0.010448 0.431553 0.164171 149 149 149
0.007835 0.431184 0.164163 149 149 149
0.005221 0.430866 0.164156 150 150 150
0.002606 0.430561 0.164149 150 150 150
-0.000009 0.430253 0.164142 151 151 151
-0.002625 0.429946 0.164136 151 151 151
-0.005242 0.429664 0.164129 152 152 152
-0.007859 0.429493 0.164126 152 152 152
-0.010476 0.429322 0.164122 152 152 152
-0.013094 0.429152 0.164118 152 152 152
-0.015712 0.428949 0.164114 153 153 153
-0.018331 0.428649 0.164107 153 153 153
-0.020951 0.428341 0.164100 152 152 152
-0.023572 0.427979 0.164092 152 152 152
-0.026194 0.427617 0.164084 151 151 151
-0.028816 0.427255 0.164076 150 150 150
-0.031442 0.426690 0.164064 150 150 150
-0.034069 0.426125 0.164051 149 149 149
-0.036695 0.425665 0.164041 148 148 148
-0.039323 0.425205 0.164031 146 146 146
-0.041950 0.424807 0.164022 145 145 145
-0.044577 0.424462 0.164015 145 145 145
-0.047206 0.424113 0.164007 145 145 145
-0.049834 0.423764 0.163999 145 145 145
-0.052464 0.423414 0.163991 144 144 144
-0.055096 0.422983 0.163982 144 144 144
-0.057729 0.422529 0.163972 142 142 142
-0.060364 0.422075 0.163962 141 141 141
-0.062999 0.421621 0.163952 140 140 140
-0.065639 0.421024 0.163939 139 139 139
-0.068291 0.419988 0.163916 138 138 138
-0.070946 0.418951 0.163893 138 138 138
-0.073604 0.417907 0.163870 138 138 138
-0.076263 0.416852 0.163847 138 138 138
-0.078924 0.415834 0.163824 138 138 138
-0.081587 0.414824 0.163802 138 138 138
-0.084251 0.413828 0.163780 138 138 138
-0.086917 0.412831 0.163758 138 138 138
-0.089588 0.411741 0.163734 138 138 138
-0.092264 0.410609 0.163709 138 138 138
-0.094949 0.409277 0.163679 138 138 138
-0.097644 0.407743 0.163646 138 138 138
-0.100377 0.405322 0.163592 138 138 138
-0.103119 0.402791 0.163536 138 138 138
-0.105892 0.399632 0.163467 138 138 138
-0.108698 0.395854 0.163383 138 138 138
-0.111599 0.390034 0.163255 138 138 138
-0.114504 0.384410 0.163131 138 138 138
-0.117356 0.380202 0.163038 138 138 138
-0.120145 0.377570 0.162980 138 138 138
-0.122939 0.374932 0.162922 138 138 138
-0.125698 0.373131 0.162882 138 138 138
-0.128420 0.372140 0.162860 138 138 138
-0.131137 0.371323 0.162842 138 138 138
-0.133832 0.370949 0.162834 138 138 138
-0.136515 0.370822 0.162831 138 138 138
-0.139179 0.371064 0.162836 138 138 138
-0.141842 0.371305 0.162842 138 138 138
-0.144505 0.371547 0.162847 138 138 138
-0.147165 0.371819 0.162853 138 138 138
-0.149826 0.372080 0.162859 138 138 138
-0.152488 0.372302 0.162864 138 138 138
-0.155150 0.372523 0.162869 138 138 138
-0.157811 0.372745 0.162873 138 138 138
-0.160472 0.372966 0.162878 138 138 138
-0.163139 0.373099 0.162881 138 138 138
-0.165819 0.372996 0.162879 138 138 138
-0.168505 0.372826 0.162875 138 138 138
-0.171193 0.372611 0.162871 138 138 138
-0.173888 0.372304 0.162864 138 138 138
-0.176613 0.371565 0.162847 138 138 138
-0.179345 0.370753 0.162830 138 138 138
-0.182078 0.369941 0.162812 138 138 138
-0.184813 0.369128 0.162794 138 138 138
-0.187564 0.368115 0.162771 138 138 138
-0.190321 0.367046 0.162748 138 138 138
-0.193078 0.366007 0.162725 138 138 138
-0.195837 0.364967 0.162702 138 138 138
-0.198611 0.363765 0.162675 138 138 138
-0.201393 0.362483 0.162647 138 138 138
-0.204178 0.361200 0.162619 138 138 138
-0.206966 0.359915 0.162590 138 138 138
-0.209783 0.358302 0.162555 138 138 138
-0.212619 0.356481 0.162515 138 138 138
-0.215494 0.354237 0.162465 138 138 138
-0.218380 0.351928 0.162414 138 138 138
-0.221292 0.349349 0.162357 138 138 138
-0.224226 0.346576 0.162296 138 138 138
-0.227167 0.343797 0.162235 138 138 138
-0.230075 0.341455 0.162183 138 138 138
-0.232965 0.339370 0.162137 138 138 138
-0.235858 0.337298 0.162091 138 138 138
-0.238752 0.335270 0.162047 138 138 138
-0.241658 0.333156 0.162000 138 138 138
-0.244562 0.331105 0.161955 138 138 138
-0.247458 0.329186 0.161912 138 138 138
-0.250293 0.327953 0.161885 138 138 138
-0.253107 0.326973 0.161864 138 138 138
-0.255897 0.326263 0.161848 138 138 138
-0.258676 0.325682 0.161835 138 138 138
-0.261418 0.325489 0.161831 138 138 138
-0.264141 0.325484 0.161831 138 138 138
-0.266870 0.325421 0.161829 138 138 138
-0.269606 0.325292 0.161827 138 138 138
-0.272357 0.325023 0.161821 138 138 138
-0.275145 0.324402 0.161807 138 138 138
-0.277934 0.323782 0.161793 138 138 138
-0.280740 0.323014 0.161776 138 138 138
-0.283574 0.321988 0.161754 138 138 138
-0.286491 0.320221 0.161715 138 138 138
-0.289412 0.318441 0.161675 138 138 138
-0.292298 0.317023 0.161644 138 138 138
-0.295258 0.314955 0.161598 138 138 138
-0.298288 0.312302 0.161540 138 138 138
-0.301314 0.309733 0.161483 138 138 138
-0.304367 0.306974 0.161422 138 138 138
-0.307488 0.303670 0.161349 138 138 138
-0.310621 0.300321 0.161276 138 138 138
-0.313729 0.297241 0.161208 138 138 138
-0.316792 0.294605 0.161149 138 138 138
-0.319942 0.291269 0.161076 138 138 138
-0.323202 0.287086 0.160984 138 138 138
-0.326712 0.280893 0.160847 138 138 138
-0.330549 0.272126 0.160653 138 138 138
-0.334153 0.265402 0.160505 138 138 138
-0.337657 0.259595 0.160377 138 138 138
-0.341324 0.252584 0.160222 138 138 138
-0.345404 0.242398 0.159998 138 138 138
-0.351563 0.216013 0.159415 138 138 138
-0.356462 0.199887 0.159060 138 138 138
-0.360660 0.189454 0.158829 138 138 138
-0.364529 0.181714 0.158659 138 138 138
-0.368211 0.175516 0.158522 138 138 138
-0.372050 0.168232 0.158361 138 138 138
-0.376086 0.159582 0.158170 138 138 138
-0.387255 0.097885 0.156809 141 141 141
-0.391763 0.086404 0.156556 138 138 138
-0.396067 0.076592 0.156339 138 138 138
-0.400876 0.063247 0.156045 138 138 138
-0.407836 0.034543 0.155412 138 138 138
0.416735 0.098392 0.153864 186 186 186
0.412489 0.107395 0.154072 180 180 180
0.408413 0.115331 0.154255 177 177 177
0.404681 0.120947 0.154385 173 173 173
0.401010 0.126210 0.154507 172 172 172
0.397276 0.132005 0.154640 173 173 173
0.393580 0.137607 0.154770 174 174 174
0.389883 0.143302 0.154901 175 175 175
0.386120 0.149568 0.155046 177 177 177
0.382274 0.156542 0.155207 180 180 180
0.377922 0.167398 0.155457 176 176 176
0.374023 0.175015 0.155633 175 175 175
0.370463 0.180180 0.155753 173 173 173
0.367030 0.184463 0.155851 170 170 170
0.363663 0.188308 0.155940 167 167 167
0.360260 0.192489 0.156037 167 167 167
0.356854 0.196757 0.156135 166 166 166
0.353467 0.200950 0.156232 164 164 164
0.350130 0.204811 0.156321 164 164 164
0.346823 0.208490 0.156406 163 163 163
0.343567 0.211824 0.156483 163 163 163
0.340276 0.215499 0.156568 162 162 162
0.337198 0.217491 0.156614 163 163 163
0.334123 0.219488 0.156660 163 163 163
0.331022 0.221732 0.156712 163 163 163
0.327939 0.223873 0.156761 164 164 164
0.324924 0.225463 0.156798 164 164 164
0.321899 0.227174 0.156837 166 166 166
0.318831 0.229287 0.156886 168 168 168
0.315711 0.231890 0.156946 173 173 173
0.312528 0.235094 0.157020 177 177 177
0.309298 0.238772 0.157105 180 180 180
0.305996 0.243157 0.157207 181 181 181
0.302493 0.249454 0.157352 184 184 184
0.298713 0.258384 0.157558 188 188 188
0.294712 0.269526 0.157815 188 188 188
0.290781 0.280231 0.158062 184 184 184
0.287237 0.287504 0.158230 181 181 181
0.283942 0.292553 0.158347 179 179 179
0.280662 0.297561 0.158463 175 175 175
0.277574 0.300814 0.158538 172 172 172
0.274465 0.304335 0.158619 169 169 169
0.271476 0.306742 0.158675 166 166 166
0.268500 0.309071 0.158728 164 164 164
0.265533 0.311366 0.158781 163 163 163
0.262567 0.313680 0.158835 162 162 162
0.259593 0.316143 0.158892 161 161 161
0.256603 0.318809 0.158953 160 160 160
0.253595 0.321734 0.159021 161 161 161
0.250584 0.324752 0.159090 162 162 162
0.247540 0.328188 0.159170 165 165 165
0.244430 0.332413 0.159267 166 166 166
0.241267 0.337322 0.159381 170 170 170
0.237886 0.344755 0.159552 172 172 172
0.234474 0.352711 0.159736 174 174 174
0.231038 0.361124 0.159930 178 178 178
0.227605 0.369700 0.160128 175 175 175
0.224465 0.375065 0.160252 174 174 174
0.221381 0.379913 0.160364 174 174 174
0.218496 0.382501 0.160424 173 173 173
0.215631 0.384918 0.160479 171 171 171
0.212754 0.387545 0.160540 168 168 168
0.209893 0.390034 0.160597 167 167 167
0.207128 0.391381 0.160629 167 167 167
0.204379 0.392570 0.160656 166 166 166
0.201636 0.393701 0.160682 166 166 166
0.198896 0.394831 0.160708 166 166 166
0.196175 0.395750 0.160729 165 165 165
0.193465 0.396536 0.160748 165 165 165
0.190779 0.397020 0.160759 165 165 165
0.188095 0.397481 0.160769 165 165 165
0.185419 0.397862 0.160778 165 165 165
0.182734 0.398364 0.160790 165 165 165
0.180055 0.398807 0.160800 166 166 166
0.177388 0.399088 0.160807 167 167 167
0.174721 0.399370 0.160813 167 167 167
0.172058 0.399609 0.160819 168 168 168
0.169395 0.399848 0.160824 169 169 169
0.166732 0.400091 0.160830 170 170 170
0.164043 0.400751 0.160845 172 172 172
0.161337 0.401720 0.160867 173 173 173
0.158632 0.402688 0.160890 175 175 175
0.155930 0.403654 0.160912 175 175 175
0.153207 0.405004 0.160943 177 177 177
0.150438 0.407185 0.160993 179 179 179
0.147674 0.409361 0.161044 181 181 181
0.144881 0.412123 0.161107 181 181 181
0.142091 0.414930 0.161172 181 181 181
0.139295 0.417963 0.161242 180 180 180
0.136497 0.421145 0.161316 179 179 179
0.133688 0.424669 0.161397 179 179 179
0.130942 0.427104 0.161453 175 175 175
0.128209 0.429385 0.161506 175 175 175
0.125480 0.431662 0.161559 174 174 174
0.122760 0.433853 0.161609 172 172 172
0.120072 0.435465 0.161646 170 170 170
0.117387 0.437075 0.161684 168 168 168
0.114728 0.438197 0.161709 166 166 166
0.112073 0.439282 0.161734 164 164 164
0.109419 0.440367 0.161760 162 162 162
0.106769 0.441451 0.161785 160 160 160
0.104128 0.442327 0.161805 156 156 156
0.101498 0.442989 0.161820 154 154 154
0.098871 0.443634 0.161835 152 152 152
0.096258 0.443906 0.161841 152 152 152
0.093648 0.444136 0.161847 151 151 151
0.091038 0.444365 0.161852 151 151 151
0.088436 0.444379 0.161852 150 150 150
0.085843 0.444152 0.161847 148 148 148
0.083248 0.443925 0.161842 147 147 147
0.080654 0.443698 0.161836 146 146 146
0.078059 0.443471 0.161831 144 144 144
0.075468 0.443076 0.161822 143 143 143
0.072879 0.442606 0.161811 143 143 143
0.070289 0.442135 0.161800 143 143 143
0.067698 0.441663 0.161789 143 143 143
0.065106 0.441189 0.161778 143 143 143
0.062513 0.440700 0.161767 143 143 143
0.059920 0.440211 0.161756 144 144 144
0.057325 0.439721 0.161745 144 144 144
0.054729 0.439231 0.161733 145 145 145
0.052128 0.438979 0.161727 146 146 146
0.049524 0.438851 0.161725 147 147 147
0.046919 0.438724 0.161722 149 149 149
0.044316 0.438468 0.161716 149 149 149
0.041715 0.438122 0.161708 149 149 149
0.039113 0.437716 0.161698 149 149 149
0.036512 0.437210 0.161687 149 149 149
0.033911 0.436634 0.161673 147 147 147
0.031309 0.436057 0.161660 145 145 145
0.028706 0.435415 0.161645 144 144 144
0.026102 0.434822 0.161632 144 144 144
0.023496 0.434224 0.161618 145 145 145
0.020889 0.433626 0.161604 145 145 145
0.018281 0.433028 0.161590 146 146 146
0.015670 0.432689 0.161582 146 146 146
0.013059 0.432381 0.161575 146 146 146
0.010446 0.432074 0.161568 146 146 146
0.007833 0.431771 0.161561 146 146 146
0.005220 0.431524 0.161555 147 147 147
0.002605 0.431208 0.161548 147 147 147
-0.000009 0.430902 0.161541 148 148 148
-0.002625 0.430595 0.161534 148 148 148
-0.005241 0.430288 0.161527 149 149 149
-0.007857 0.430065 0.161522 150 150 150
-0.010474 0.429894 0.161518 150 150 150
-0.013091 0.429723 0.161514 150 150 150
-0.015708 0.429588 0.161511 150 150 150
-0.018326 0.429485 0.161508 150 150 150
-0.020945 0.429116 0.161500 150 150 150
-0.023566 0.428715 0.161490 149 149 149
-0.026187 0.428353 0.161482 149 149 149
-0.028809 0.427991 0.161474 148 148 148
-0.031432 0.427559 0.161464 147 147 147
-0.034058 0.427030 0.161452 146 146 146
-0.036684 0.426571 0.161441 145 145 145
-0.039311 0.426054 0.161429 144 144 144
-0.041940 0.425527 0.161417 143 143 143
-0.044567 0.425154 0.161408 142 142 142
-0.047194 0.424817 0.161401 141 141 141
-0.049822 0.424473 0.161393 140 140 140
-0.052451 0.424124 0.161385 141 141 141
-0.055081 0.423752 0.161376 140 140 140
-0.057714 0.423299 0.161365 139 139 139
-0.060348 0.422806 0.161354 138 138 138
-0.062990 0.422068 0.161337 138 138 138
-0.065633 0.421329 0.161320 138 138 138
-0.068284 0.420355 0.161297 138 138 138
-0.070939 0.419319 0.161274 138 138 138
-0.073596 0.418269 0.161249 138 138 138
-0.076255 0.417211 0.161225 138 138 138
-0.078916 0.416177 0.161201 138 138 138
-0.081578 0.415174 0.161178 138 138 138
-0.084242 0.414178 0.161155 138 138 138
-0.086909 0.413148 0.161131 138 138 138
-0.089581 0.412051 0.161106 138 138 138
-0.092263 0.410728 0.161075 138 138 138
-0.094954 0.409219 0.161040 138 138 138
-0.097649 0.407708 0.161005 138 138 138
-0.100366 0.405694 0.160959 138 138 138
-0.103111 0.403096 0.160899 138 138 138
-0.105889 0.399804 0.160823 138 138 138
-0.108694 0.396052 0.160736 138 138 138
-0.111595 0.390229 0.160602 138 138 138
-0.114502 0.384544 0.160471 138 138 138
-0.117364 0.380109 0.160368 138 138 138
-0.120153 0.377477 0.160308 138 138 138
-0.122947 0.374838 0.160247 138 138 138
-0.125727 0.372602 0.160195 138 138 138
-0.128437 0.371902 0.160179 138 138 138
-0.131130 0.371541 0.160170 138 138 138
-0.133821 0.371249 0.160164 138 138 138
-0.136513 0.370957 0.160157 138 138 138
-0.139180 0.371122 0.160161 138 138 138
-0.141844 0.371363 0.160166 138 138 138
-0.144506 0.371605 0.160172 138 138 138
-0.147167 0.371884 0.160178 138 138 138
-0.149833 0.372037 0.160182 138 138 138
-0.152498 0.372218 0.160186 138 138 138
-0.155161 0.372423 0.160191 138 138 138
-0.157823 0.372635 0.160196 138 138 138
-0.160485 0.372856 0.160201 138 138 138
-0.163145 0.373077 0.160206 138 138 138
-0.165826 0.372986 0.160204 138 138 138
-0.168517 0.372716 0.160198 138 138 138
-0.171214 0.372379 0.160190 138 138 138
-0.173912 0.372042 0.160182 138 138 138
-0.176624 0.371501 0.160170 138 138 138
-0.179354 0.370713 0.160151 138 138 138
-0.182086 0.369923 0.160133 138 138 138
-0.184820 0.369119 0.160115 138 138 138
-0.187562 0.368233 0.160094 138 138 138
-0.190318 0.367181 0.160070 138 138 138
-0.193082 0.366042 0.160044 138 138 138
-0.195853 0.364847 0.160016 138 138 138
-0.198618 0.363768 0.159991 138 138 138
-0.201401 0.362468 0.159961 138 138 138
-0.204188 0.361166 0.159931 138 138 138
-0.206976 0.359873 0.159901 138 138 138
-0.209779 0.358440 0.159868 138 138 138
-0.212644 0.356262 0.159818 138 138 138
-0.215520 0.354017 0.159766 138 138 138
-0.218400 0.351768 0.159714 138 138 138
-0.221321 0.349096 0.159652 138 138 138
-0.224258 0.346289 0.159588 138 138 138
-0.227197 0.343530 0.159524 138 138 138
-0.230120 0.341022 0.159466 138 138 138
-0.233011 0.338936 0.159418 138 138 138
-0.235904 0.336881 0.159370 138 138 138
-0.238798 0.334853 0.159323 138 138 138
-0.241699 0.332792 0.159276 138 138 138
-0.244601 0.330775 0.159229 138 138 138
-0.247486 0.328974 0.159188 138 138 138
-0.250324 0.327721 0.159159 138 138 138
-0.253103 0.327109 0.159145 138 138 138
-0.255880 0.326529 0.159131 138 138 138
-0.258659 0.325949 0.159118 138 138 138
-0.261423 0.325519 0.159108 138 138 138
-0.264149 0.325498 0.159107 138 138 138
-0.266872 0.325493 0.159107 138 138 138
-0.269596 0.325488 0.159107 138 138 138
-0.272320 0.325475 0.159107 138 138 138
-0.275108 0.324852 0.159093 138 138 138
-0.277925 0.323960 0.159072 138 138 138
-0.280744 0.323067 0.159051 138 138 138
-0.283566 0.322153 0.159030 138 138 138
-0.286456 0.320636 0.158995 138 138 138
-0.289368 0.318943 0.158956 138 138 138
-0.292252 0.317532 0.158924 138 138 138
-0.295145 0.316075 0.158890 138 138 138
-0.298170 0.313453 0.158829 138 138 138
-0.301169 0.311114 0.158775 138 138 138
-0.304207 0.308473 0.158714 138 138 138
-0.307355 0.304919 0.158632 138 138 138
-0.310509 0.301383 0.158551 138 138 138
-0.313590 0.298525 0.158485 138 138 138
-0.316648 0.295914 0.158424 138 138 138
-0.319784 0.292693 0.158350 138 138 138
-0.322949 0.289283 0.158271 138 138 138
-0.326384 0.283703 0.158143 138 138 138
-0.330153 0.275471 0.157952 138 138 138
-0.333841 0.268039 0.157781 138 138 138
-0.337343 0.262227 0.157647 138 138 138
-0.340890 0.256146 0.157506 138 138 138
-0.344997 0.245724 0.157266 138 138 138
-0.351873 0.213662 0.156525 138 138 138
-0.356848 0.196966 0.156140 138 138 138
-0.360849 0.188087 0.155935 138 138 138
-0.364560 0.181569 0.155785 138 138 138
-0.368221 0.175535 0.155645 138 138 138
-0.371908 0.169406 0.155504 138 138 138
-0.375938 0.160789 0.155305 138 138 138
-0.385061 0.114341 0.154232 138 138 138
-0.390501 0.095836 0.153805 138 138 138
-0.395319 0.082182 0.153490 138 138 138
-0.400111 0.068920 0.153184 138 138 138
-0.406563 0.043848 0.152605 138 138 138
0.416422 0.100658 0.150963 183 183 183
0.412285 0.108912 0.151162 178 178 178
0.408317 0.116100 0.151335 175 175 175
0.404652 0.121250 0.151459 172 172 172
0.400974 0.126561 0.151587 171 171 171
0.397266 0.132174 0.151722 171 171 171
0.393601 0.137552 0.151852 171 171 171
0.389927 0.143079 0.151985 174 174 174
0.386026 0.150355 0.152161 176 176 176
0.382030 0.158445 0.152356 177 177 177
0.377820 0.168255 0.152592 174 174 174
0.373874 0.176227 0.152785 173 173 173
0.370417 0.180628 0.152891 170 170 170
0.367095 0.184060 0.152973 165 165 165
0.363698 0.188130 0.153072 164 164 164
0.360254 0.192623 0.153180 164 164 164
0.356838 0.196978 0.153285 164 164 164
0.353491 0.200851 0.153378 163 163 163
0.350154 0.204713 0.153471 163 163 163
0.346838 0.208464 0.153562 162 162 162
0.343526 0.212249 0.153653 162 162 162
0.340299 0.215410 0.153729 161 161 161
0.337192 0.217631 0.153783 162 162 162
0.334110 0.219689 0.153833 162 162 162
0.331010 0.221933 0.153887 162 162 162
0.327914 0.224173 0.153941 162 162 162
0.324845 0.226231 0.153990 167 167 167
0.321773 0.228346 0.154041 169 169 169
0.318700 0.230512 0.154094 171 171 171
0.315544 0.233434 0.154164 176 176 176
0.312324 0.236982 0.154250 179 179 179
0.309014 0.241385 0.154356 181 181 181
0.305657 0.246288 0.154474 182 182 182
0.302113 0.252983 0.154635 185 185 185
0.298244 0.262761 0.154871 188 188 188
0.294246 0.273913 0.155140 188 188 188
0.290488 0.283045 0.155360 184 184 184
0.286992 0.289894 0.155525 181 181 181
0.283758 0.294388 0.155634 178 178 178
0.280506 0.299143 0.155748 175 175 175
0.277422 0.302374 0.155826 172 172 172
0.274400 0.305058 0.155891 169 169 169
0.271416 0.307428 0.155948 166 166 166
0.268440 0.309767 0.156004 164 164 164
0.265473 0.312060 0.156060 163 163 163
0.262511 0.314350 0.156115 162 162 162
0.259564 0.316534 0.156168 161 161 161
0.256612 0.318806 0.156222 162 162 162
0.253601 0.321764 0.156294 162 162 162
0.250585 0.324831 0.156368 163 163 163
0.247552 0.328145 0.156448 166 166 166
0.244401 0.332819 0.156560 168 168 168
0.241220 0.337928 0.156683 171 171 171
0.237856 0.345174 0.156858 173 173 173
0.234468 0.352866 0.157044 175 175 175
0.230986 0.361795 0.157259 175 175 175
0.227534 0.370598 0.157471 174 174 174
0.224350 0.376498 0.157613 173 173 173
0.221313 0.380802 0.157717 172 172 172
0.218439 0.383273 0.157777 171 171 171
0.215560 0.385866 0.157839 168 168 168
0.212688 0.388434 0.157901 167 167 167
0.209825 0.390955 0.157962 165 165 165
0.207046 0.392495 0.157999 165 165 165
0.204299 0.393667 0.158027 165 165 165
0.201558 0.394797 0.158055 165 165 165
0.198823 0.395875 0.158081 165 165 165
0.196104 0.396775 0.158102 165 165 165
0.193386 0.397675 0.158124 165 165 165
0.190689 0.398322 0.158140 165 165 165
0.188001 0.398863 0.158153 165 165 165
0.185310 0.399470 0.158167 166 166 166
0.182622 0.400044 0.158181 167 167 167
0.179940 0.400550 0.158193 168 168 168
0.177268 0.400928 0.158202 168 168 168
0.174603 0.401197 0.158209 169 169 169
0.171942 0.401435 0.158215 170 170 170
0.169271 0.401830 0.158224 171 171 171
0.166573 0.402640 0.158244 172 172 172
0.163872 0.403539 0.158265 173 173 173
0.161169 0.404503 0.158289 175 175 175
0.158467 0.405467 0.158312 176 176 176
0.155738 0.406918 0.158347 178 178 178
0.153005 0.408497 0.158385 181 181 181
0.150252 0.410451 0.158432 182 182 182
0.147458 0.413214 0.158499 180 180 180
0.144670 0.415958 0.158565 180 180 180
0.141897 0.418541 0.158627 179 179 179
0.139096 0.421721 0.158704 179 179 179
0.136317 0.424627 0.158774 178 178 178
0.133587 0.426693 0.158824 177 177 177
0.130855 0.428902 0.158877 175 175 175
0.128128 0.431079 0.158929 174 174 174
0.125401 0.433353 0.158984 172 172 172
0.122691 0.435369 0.159033 171 171 171
0.120012 0.436837 0.159068 168 168 168
0.117344 0.438104 0.159099 166 166 166
0.114681 0.439331 0.159128 164 164 164
0.112027 0.440416 0.159155 162 162 162
0.109374 0.441500 0.159181 160 160 160
0.106729 0.442481 0.159204 156 156 156
0.104092 0.443308 0.159224 152 152 152
0.101468 0.443829 0.159237 149 149 149
0.098859 0.444010 0.159241 148 148 148
0.096249 0.444225 0.159246 148 148 148
0.093639 0.444454 0.159252 147 147 147
0.091030 0.444683 0.159258 147 147 147
0.088421 0.444913 0.159263 146 146 146
0.085826 0.444724 0.159258 144 144 144
0.083232 0.444498 0.159253 143 143 143
0.080641 0.444202 0.159246 141 141 141
0.078050 0.443828 0.159237 142 142 142
0.075460 0.443435 0.159227 142 142 142
0.072871 0.442980 0.159216 142 142 142
0.070281 0.442524 0.159205 142 142 142
0.067690 0.442055 0.159194 141 141 141
0.065098 0.441584 0.159183 141 141 141
0.062505 0.441101 0.159171 141 141 141
0.059912 0.440611 0.159159 142 142 142
0.057315 0.440239 0.159150 143 143 143
0.054716 0.439961 0.159144 145 145 145
0.052111 0.439908 0.159142 146 146 146
0.049507 0.439781 0.159139 147 147 147
0.046903 0.439653 0.159136 149 149 149
0.044303 0.439335 0.159129 148 148 148
0.041702 0.438990 0.159120 148 148 148
0.039100 0.438623 0.159111 148 148 148
0.036501 0.438071 0.159098 146 146 146
0.033902 0.437406 0.159082 145 145 145
0.031302 0.436736 0.159066 144 144 144
0.028701 0.435999 0.159048 142 142 142
0.026097 0.435401 0.159034 142 142 142
0.023491 0.434831 0.159020 142 142 142
0.020885 0.434261 0.159006 142 142 142
0.018277 0.433667 0.158992 143 143 143
0.015668 0.433170 0.158980 143 143 143
0.013057 0.432863 0.158972 143 143 143
0.010444 0.432630 0.158967 144 144 144
0.007832 0.432407 0.158961 144 144 144
0.005218 0.432184 0.158956 145 145 145
0.002605 0.431896 0.158949 145 145 145
-0.000009 0.431576 0.158941 145 145 145
-0.002624 0.431257 0.158934 146 146 146
-0.005240 0.430937 0.158926 146 146 146
-0.007856 0.430636 0.158919 147 147 147
-0.010472 0.430487 0.158915 147 147 147
-0.013088 0.430384 0.158913 147 147 147
-0.015705 0.430281 0.158910 147 147 147
-0.018321 0.430178 0.158908 148 148 148
-0.020939 0.429984 0.158903 148 148 148
-0.023559 0.429583 0.158893 147 147 147
-0.026179 0.429182 0.158884 146 146 146
-0.028801 0.428780 0.158874 146 146 146
-0.031423 0.428379 0.158864 145 145 145
-0.034048 0.427882 0.158852 144 144 144
-0.036674 0.427356 0.158840 143 143 143
-0.039300 0.426830 0.158827 142 142 142
-0.041928 0.426304 0.158814 141 141 141
-0.044557 0.425823 0.158803 140 140 140
-0.047183 0.425486 0.158795 139 139 139
-0.049811 0.425149 0.158786 138 138 138
-0.052439 0.424812 0.158778 138 138 138
-0.055068 0.424465 0.158770 138 138 138
-0.057705 0.423768 0.158753 138 138 138
-0.060345 0.423030 0.158735 138 138 138
-0.062987 0.422291 0.158718 138 138 138
-0.065630 0.421553 0.158700 138 138 138
-0.068277 0.420722 0.158680 138 138 138
-0.070931 0.419686 0.158655 138 138 138
-0.073588 0.418631 0.158629 138 138 138
-0.076247 0.417574 0.158604 138 138 138
-0.078908 0.416520 0.158578 138 138 138
-0.081571 0.415490 0.158554 138 138 138
-0.084237 0.414434 0.158528 138 138 138
-0.086905 0.413373 0.158503 138 138 138
-0.089577 0.412245 0.158475 138 138 138
-0.092268 0.410670 0.158437 138 138 138
-0.094959 0.409161 0.158401 138 138 138
-0.097654 0.407649 0.158365 138 138 138
-0.100355 0.406065 0.158326 138 138 138
-0.103107 0.403268 0.158259 138 138 138
-0.105883 0.400042 0.158181 138 138 138
-0.108694 0.396139 0.158087 138 138 138
-0.111589 0.390452 0.157950 138 138 138
-0.114498 0.384715 0.157812 138 138 138
-0.117370 0.380072 0.157700 138 138 138
-0.120147 0.377697 0.157642 138 138 138
-0.122929 0.375318 0.157585 138 138 138
-0.125716 0.372935 0.157528 138 138 138
-0.128430 0.372133 0.157508 138 138 138
-0.131120 0.371841 0.157501 138 138 138
-0.133810 0.371549 0.157494 138 138 138
-0.136502 0.371257 0.157487 138 138 138
-0.139182 0.371180 0.157485 138 138 138
-0.141845 0.371422 0.157491 138 138 138
-0.144502 0.371780 0.157500 138 138 138
-0.147167 0.371956 0.157504 138 138 138
-0.149837 0.372069 0.157507 138 138 138
-0.152506 0.372179 0.157509 138 138 138
-0.155169 0.372383 0.157514 138 138 138
-0.157832 0.372587 0.157519 138 138 138
-0.160494 0.372792 0.157524 138 138 138
-0.163157 0.372987 0.157529 138 138 138
-0.165843 0.372803 0.157524 138 138 138
-0.168540 0.372453 0.157516 138 138 138
-0.171237 0.372116 0.157508 138 138 138
-0.173935 0.371778 0.157500 138 138 138
-0.176634 0.371435 0.157491 138 138 138
-0.179364 0.370647 0.157472 138 138 138
-0.182096 0.369858 0.157453 138 138 138
-0.184830 0.369068 0.157434 138 138 138
-0.187570 0.368209 0.157414 138 138 138
-0.190332 0.367068 0.157386 138 138 138
-0.193101 0.365873 0.157357 138 138 138
-0.195868 0.364733 0.157330 138 138 138
-0.198627 0.363730 0.157306 138 138 138
-0.201407 0.362482 0.157275 138 138 138
-0.204194 0.361181 0.157244 138 138 138
-0.206983 0.359878 0.157213 138 138 138
-0.209785 0.358447 0.157178 138 138 138
-0.212650 0.356284 0.157126 138 138 138
-0.215545 0.353801 0.157066 138 138 138
-0.218447 0.351293 0.157006 138 138 138
-0.221368 0.348621 0.156941 138 138 138
-0.224306 0.345813 0.156874 138 138 138
-0.227234 0.343195 0.156810 138 138 138
-0.230166 0.340589 0.156748 138 138 138
-0.233057 0.338503 0.156697 138 138 138
-0.235949 0.336464 0.156648 138 138 138
-0.238844 0.334428 0.156599 138 138 138
-0.241741 0.332428 0.156551 138 138 138
-0.244631 0.330538 0.156505 138 138 138
-0.247487 0.329054 0.156469 138 138 138
-0.250330 0.327750 0.156438 138 138 138
-0.253091 0.327326 0.156428 138 138 138
-0.255863 0.326796 0.156415 138 138 138
-0.258641 0.326216 0.156401 138 138 138
-0.261421 0.325635 0.156387 138 138 138
-0.264156 0.325512 0.156384 138 138 138
-0.266880 0.325507 0.156384 138 138 138
-0.269608 0.325460 0.156383 138 138 138
-0.272349 0.325287 0.156379 138 138 138
-0.275112 0.324905 0.156369 138 138 138
-0.277929 0.324013 0.156348 138 138 138
-0.280748 0.323117 0.156326 138 138 138
-0.283571 0.322197 0.156304 138 138 138
-0.286421 0.321051 0.156276 138 138 138
-0.289323 0.319452 0.156238 138 138 138
-0.292207 0.318041 0.156204 138 138 138
-0.295102 0.316555 0.156168 138 138 138
-0.298079 0.314360 0.156115 138 138 138
-0.301111 0.311716 0.156051 138 138 138
-0.304148 0.309085 0.155988 138 138 138
-0.307244 0.305977 0.155913 138 138 138
-0.310396 0.302444 0.155828 138 138 138
-0.313454 0.299784 0.155764 138 138 138
-0.316505 0.297221 0.155702 138 138 138
-0.319630 0.294084 0.155626 138 138 138
-0.322788 0.290721 0.155545 138 138 138
-0.326075 0.286349 0.155440 138 138 138
-0.329760 0.278791 0.155258 138 138 138
-0.333529 0.270671 0.155062 138 138 138
-0.337027 0.264869 0.154922 138 138 138
-0.340536 0.259074 0.154782 138 138 138
-0.344627 0.248755 0.154533 138 138 138
-0.352183 0.211320 0.153631 138 138 138
-0.357052 0.195467 0.153248 138 138 138
-0.361058 0.186561 0.153034 138 138 138
-0.364628 0.181144 0.152903 138 138 138
-0.368234 0.175533 0.152768 138 138 138
-0.371859 0.169870 0.152631 138 138 138
-0.375790 0.161994 0.152441 138 138 138
-0.382851 0.130913 0.151692 138 138 138
-0.389192 0.105623 0.151082 138 138 138
-0.394167 0.090743 0.150723 138 138 138
-0.398932 0.077617 0.150407 138 138 138
-0.405062 0.054807 0.149857 138 138 138
-0.411308 0.031508 0.149295 100 100 100
0.416118 0.102863 0.148064 181 181 181
0.412052 0.110637 0.148259 176 176 176
0.408288 0.116403 0.148404 174 174 174
0.404623 0.121552 0.148533 171 171 171
0.400939 0.126912 0.148668 171 171 171
0.397284 0.132142 0.148800 168 168 168
0.393632 0.137426 0.148932 169 169 169
0.389943 0.143059 0.149074 171 171 171
0.386088 0.150000 0.149249 175 175 175
0.382018 0.158632 0.149466 175 175 175
0.377742 0.168933 0.149724 173 173 173
0.373827 0.176680 0.149919 171 171 171
0.370497 0.180115 0.150005 167 167 167
0.367171 0.183583 0.150093 163 163 163
0.363808 0.187378 0.150188 160 160 160
0.360379 0.191753 0.150298 160 160 160
0.356953 0.196171 0.150409 162 162 162
0.353549 0.200492 0.150518 162 162 162
0.350179 0.204609 0.150621 162 162 162
0.346854 0.208436 0.150717 162 162 162
0.343608 0.211683 0.150799 161 161 161
0.340345 0.215131 0.150886 160 160 160
0.337187 0.217771 0.150952 161 161 161
0.334097 0.219890 0.151005 161 161 161
0.330995 0.222151 0.151062 162 162 162
0.327893 0.224448 0.151120 166 166 166
0.324726 0.227337 0.151192 168 168 168
0.321647 0.229518 0.151247 170 170 170
0.318553 0.231877 0.151307 173 173 173
0.315339 0.235318 0.151393 177 177 177
0.312017 0.239775 0.151505 180 180 180
0.308705 0.244221 0.151617 181 181 181
0.305276 0.249798 0.151757 183 183 183
0.301662 0.257149 0.151942 187 187 187
0.297835 0.266584 0.152179 188 188 188
0.293799 0.278118 0.152469 188 188 188
0.290146 0.286316 0.152675 183 183 183
0.286727 0.292472 0.152830 181 181 181
0.283537 0.296578 0.152933 178 178 178
0.280353 0.300706 0.153037 175 175 175
0.277266 0.303971 0.153119 171 171 171
0.274305 0.306077 0.153172 168 168 168
0.271356 0.308113 0.153223 166 166 166
0.268379 0.310463 0.153282 163 163 163
0.265413 0.312755 0.153340 162 162 162
0.262467 0.314880 0.153393 163 163 163
0.259537 0.316895 0.153444 162 162 162
0.256609 0.318935 0.153495 162 162 162
0.253607 0.321794 0.153567 163 163 163
0.250586 0.324910 0.153645 164 164 164
0.247534 0.328431 0.153734 167 167 167
0.244353 0.333427 0.153859 169 169 169
0.241173 0.338534 0.153987 171 171 171
0.237836 0.345485 0.154162 174 174 174
0.234435 0.353320 0.154359 174 174 174
0.230952 0.362280 0.154584 175 175 175
0.227507 0.370995 0.154803 173 173 173
0.224318 0.376957 0.154953 172 172 172
0.221267 0.381426 0.155066 170 170 170
0.218370 0.384179 0.155135 168 168 168
0.215494 0.386750 0.155199 167 167 167
0.212626 0.389278 0.155263 165 165 165
0.209771 0.391720 0.155324 164 164 164
0.206986 0.393332 0.155365 164 164 164
0.204220 0.394763 0.155401 165 165 165
0.201480 0.395892 0.155429 165 165 165
0.198751 0.396900 0.155455 165 165 165
0.196033 0.397800 0.155477 165 165 165
0.193314 0.398729 0.155501 165 165 165
0.190594 0.399708 0.155525 166 166 166
0.187902 0.400318 0.155541 167 167 167
0.185212 0.400928 0.155556 167 167 167
0.182522 0.401538 0.155571 168 168 168
0.179835 0.402147 0.155586 169 169 169
0.177150 0.402733 0.155601 170 170 170
0.174479 0.403128 0.155611 170 170 170
0.171781 0.403938 0.155631 171 171 171
0.169085 0.404746 0.155652 173 173 173
0.166391 0.405554 0.155672 174 174 174
0.163698 0.406362 0.155692 175 175 175
0.160998 0.407329 0.155717 176 176 176
0.158263 0.408884 0.155756 179 179 179
0.155516 0.410678 0.155801 181 181 181
0.152751 0.412861 0.155856 180 180 180
0.149990 0.415040 0.155911 180 180 180
0.147246 0.417003 0.155960 180 180 180
0.144479 0.419436 0.156021 179 179 179
0.141694 0.422297 0.156093 178 178 178
0.138937 0.424733 0.156154 177 177 177
0.136201 0.426878 0.156208 176 176 176
0.133476 0.428903 0.156259 175 175 175
0.130755 0.430924 0.156310 175 175 175
0.128034 0.433037 0.156363 173 173 173
0.125317 0.435162 0.156416 172 172 172
0.122638 0.436564 0.156452 168 168 168
0.119969 0.437819 0.156483 165 165 165
0.117302 0.439099 0.156515 163 163 163
0.114638 0.440378 0.156547 162 162 162
0.111980 0.441549 0.156577 160 160 160
0.109331 0.442607 0.156603 157 157 157
0.106694 0.443407 0.156624 153 153 153
0.104071 0.443905 0.156636 150 150 150
0.101452 0.444329 0.156647 148 148 148
0.098840 0.444601 0.156654 146 146 146
0.096232 0.444767 0.156658 145 145 145
0.093625 0.444934 0.156662 144 144 144
0.091018 0.445100 0.156666 143 143 143
0.088411 0.445266 0.156670 141 141 141
0.085811 0.445252 0.156670 140 140 140
0.083223 0.444878 0.156661 140 140 140
0.080634 0.444505 0.156651 140 140 140
0.078044 0.444131 0.156642 140 140 140
0.075453 0.443757 0.156632 140 140 140
0.072863 0.443324 0.156621 140 140 140
0.070273 0.442869 0.156610 140 140 140
0.067682 0.442413 0.156599 140 140 140
0.065091 0.441957 0.156587 139 139 139
0.062495 0.441595 0.156578 140 140 140
0.059898 0.441317 0.156571 142 142 142
0.057299 0.441039 0.156564 143 143 143
0.054699 0.440811 0.156558 145 145 145
0.052095 0.440779 0.156557 146 146 146
0.049491 0.440709 0.156556 147 147 147
0.046889 0.440546 0.156552 148 148 148
0.044289 0.440201 0.156543 148 148 148
0.041689 0.439856 0.156534 147 147 147
0.039089 0.439426 0.156523 146 146 146
0.036493 0.438748 0.156506 145 145 145
0.033894 0.438079 0.156490 144 144 144
0.031295 0.437399 0.156473 142 142 142
0.028694 0.436651 0.156454 141 141 141
0.026092 0.435957 0.156436 140 140 140
0.023487 0.435388 0.156422 140 140 140
0.020881 0.434818 0.156408 140 140 140
0.018274 0.434248 0.156393 140 140 140
0.015665 0.433781 0.156382 140 140 140
0.013054 0.433497 0.156374 141 141 141
0.010442 0.433266 0.156369 141 141 141
0.007830 0.433044 0.156363 142 142 142
0.005217 0.432820 0.156357 143 143 143
0.002604 0.432587 0.156352 143 143 143
-0.000009 0.432268 0.156344 144 144 144
-0.002624 0.431949 0.156336 144 144 144
-0.005239 0.431645 0.156328 144 144 144
-0.007854 0.431415 0.156322 145 145 145
-0.010469 0.431230 0.156317 145 145 145
-0.013085 0.431098 0.156314 144 144 144
-0.015701 0.430974 0.156311 144 144 144
-0.018317 0.430871 0.156308 145 145 145
-0.020933 0.430767 0.156306 145 145 145
-0.023551 0.430451 0.156298 144 144 144
-0.026171 0.430049 0.156288 144 144 144
-0.028793 0.429540 0.156275 143 143 143
-0.031417 0.428990 0.156261 143 143 143
-0.034041 0.428459 0.156248 142 142 142
-0.036665 0.428014 0.156237 141 141 141
-0.039290 0.427568 0.156225 140 140 140
-0.041917 0.427079 0.156213 139 139 139
-0.044546 0.426553 0.156200 138 138 138
-0.047173 0.426155 0.156190 138 138 138
-0.049799 0.425818 0.156181 138 138 138
-0.052431 0.425283 0.156168 138 138 138
-0.055064 0.424728 0.156154 138 138 138
-0.057699 0.424134 0.156139 138 138 138
-0.060340 0.423335 0.156119 138 138 138
-0.062983 0.422535 0.156099 138 138 138
-0.065626 0.421777 0.156080 138 138 138
-0.068270 0.421037 0.156061 138 138 138
-0.070923 0.420050 0.156036 138 138 138
-0.073580 0.418994 0.156010 138 138 138
-0.076240 0.417889 0.155982 138 138 138
-0.078904 0.416759 0.155954 138 138 138
-0.081568 0.415675 0.155926 138 138 138
-0.084233 0.414616 0.155900 138 138 138
-0.086905 0.413456 0.155871 138 138 138
-0.089579 0.412274 0.155841 138 138 138
-0.092264 0.410873 0.155806 138 138 138
-0.094958 0.409283 0.155766 138 138 138
-0.097656 0.407691 0.155726 138 138 138
-0.100357 0.406096 0.155686 138 138 138
-0.103104 0.403448 0.155619 138 138 138
-0.105882 0.400146 0.155536 138 138 138
-0.108708 0.395885 0.155429 138 138 138
-0.111568 0.391020 0.155307 138 138 138
-0.114456 0.385768 0.155175 138 138 138
-0.117327 0.381109 0.155058 138 138 138
-0.120132 0.378116 0.154982 138 138 138
-0.122913 0.375738 0.154923 138 138 138
-0.125695 0.373451 0.154865 138 138 138
-0.128426 0.372288 0.154836 138 138 138
-0.131115 0.372024 0.154829 138 138 138
-0.133804 0.371760 0.154823 138 138 138
-0.136494 0.371496 0.154816 138 138 138
-0.139176 0.371375 0.154813 138 138 138
-0.141836 0.371676 0.154821 138 138 138
-0.144502 0.371861 0.154825 138 138 138
-0.147171 0.371991 0.154828 138 138 138
-0.149840 0.372102 0.154831 138 138 138
-0.152512 0.372164 0.154833 138 138 138
-0.155177 0.372343 0.154837 138 138 138
-0.157840 0.372547 0.154842 138 138 138
-0.160505 0.372702 0.154846 138 138 138
-0.163176 0.372771 0.154848 138 138 138
-0.165857 0.372677 0.154846 138 138 138
-0.168556 0.372293 0.154836 138 138 138
-0.171257 0.371909 0.154826 138 138 138
-0.173958 0.371524 0.154817 138 138 138
-0.176658 0.371178 0.154808 138 138 138
-0.179375 0.370580 0.154793 138 138 138
-0.182111 0.369739 0.154772 138 138 138
-0.184853 0.368826 0.154749 138 138 138
-0.187597 0.367921 0.154726 138 138 138
-0.190351 0.366899 0.154700 138 138 138
-0.193120 0.365704 0.154670 138 138 138
-0.195883 0.364623 0.154643 138 138 138
-0.198642 0.363620 0.154618 138 138 138
-0.201413 0.362496 0.154590 138 138 138
-0.204200 0.361194 0.154557 138 138 138
-0.207003 0.359716 0.154520 138 138 138
-0.209831 0.357969 0.154476 138 138 138
-0.212700 0.355753 0.154420 138 138 138
-0.215598 0.353242 0.154357 138 138 138
-0.218501 0.350733 0.154294 138 138 138
-0.221416 0.348145 0.154229 138 138 138
-0.224345 0.345451 0.154161 138 138 138
-0.227271 0.342860 0.154096 138 138 138
-0.230202 0.340264 0.154031 138 138 138
-0.233103 0.338080 0.153976 138 138 138
-0.235994 0.336046 0.153925 138 138 138
-0.238890 0.334010 0.153874 138 138 138
-0.241777 0.332121 0.153826 138 138 138
-0.244618 0.330768 0.153792 138 138 138
-0.247470 0.329331 0.153756 138 138 138
-0.250325 0.327892 0.153720 138 138 138
-0.253116 0.327154 0.153701 138 138 138
-0.255878 0.326729 0.153691 138 138 138
-0.258642 0.326304 0.153680 138 138 138
-0.261406 0.325879 0.153669 138 138 138
-0.264164 0.325527 0.153661 138 138 138
-0.266903 0.325368 0.153657 138 138 138
-0.269644 0.325195 0.153652 138 138 138
-0.272385 0.325023 0.153648 138 138 138
-0.275127 0.324850 0.153644 138 138 138
-0.277933 0.324065 0.153624 138 138 138
-0.280753 0.323161 0.153601 138 138 138
-0.283576 0.322241 0.153578 138 138 138
-0.286402 0.321320 0.153555 138 138 138
-0.289287 0.319874 0.153518 138 138 138
-0.292189 0.318291 0.153479 138 138 138
-0.295095 0.316708 0.153439 138 138 138
-0.298022 0.314961 0.153395 138 138 138
-0.301054 0.312318 0.153328 138 138 138
-0.304089 0.309696 0.153263 138 138 138
-0.307132 0.307045 0.153196 138 138 138
-0.310274 0.303588 0.153109 138 138 138
-0.313318 0.301041 0.153045 138 138 138
-0.316367 0.298489 0.152981 138 138 138
-0.319476 0.295473 0.152905 138 138 138
-0.322673 0.291773 0.152812 138 138 138
-0.325927 0.287670 0.152709 138 138 138
-0.329488 0.281110 0.152544 138 138 138
-0.333188 0.273534 0.152354 138 138 138
-0.336720 0.267438 0.152200 138 138 138
-0.340214 0.261747 0.152057 138 138 138
-0.344188 0.252333 0.151821 138 138 138
-0.352544 0.208573 0.150721 138 138 138
-0.357265 0.193899 0.150352 138 138 138
-0.361145 0.185981 0.150153 138 138 138
-0.364715 0.180572 0.150017 138 138 138
-0.368247 0.175530 0.149890 138 138 138
-0.371851 0.170029 0.149752 138 138 138
-0.375643 0.163198 0.149580 138 138 138
-0.380297 0.150047 0.149250 138 138 138
-0.388332 0.112079 0.148295 138 138 138
-0.393283 0.097329 0.147925 138 138 138
-0.398133 0.083534 0.147578 138 138 138
-0.404099 0.061875 0.147033 138 138 138
-0.410110 0.040210 0.146489 138 138 138
0.420627 0.092249 0.144834 135 135 135
0.415913 0.104381 0.145151 178 178 178
0.412043 0.110796 0.145319 174 174 174
0.408302 0.116401 0.145466 172 172 172
0.404602 0.121794 0.145607 170 170 170
0.400933 0.127049 0.145744 168 168 168
0.397309 0.132059 0.145875 168 168 168
0.393671 0.137239 0.146011 168 168 168
0.389968 0.142971 0.146161 169 169 169
0.386133 0.149762 0.146338 172 172 172
0.382005 0.158819 0.146575 174 174 174
0.377664 0.169611 0.146858 171 171 171
0.373986 0.175581 0.147014 168 168 168
0.370579 0.179593 0.147119 164 164 164
0.367243 0.183122 0.147211 161 161 161
0.363893 0.186824 0.147308 157 157 157
0.360526 0.190707 0.147410 157 157 157
0.357124 0.194933 0.147520 160 160 160
0.353644 0.199841 0.147648 161 161 161
0.350273 0.203959 0.147756 161 161 161
0.346937 0.207866 0.147858 161 161 161
0.343690 0.211118 0.147944 160 160 160
0.340405 0.214736 0.148038 160 160 160
0.337181 0.217911 0.148121 161 161 161
0.334081 0.220117 0.148179 162 162 162
0.330984 0.222335 0.148237 164 164 164
0.327835 0.225029 0.148307 167 167 167
0.324645 0.228117 0.148388 169 169 169
0.321522 0.230688 0.148455 171 171 171
0.318356 0.233674 0.148534 175 175 175
0.315133 0.237208 0.148626 178 178 178
0.311742 0.242290 0.148759 181 181 181
0.308411 0.246921 0.148880 182 182 182
0.304907 0.253197 0.149044 185 185 185
0.301195 0.261467 0.149261 191 191 191
0.297350 0.271103 0.149513 189 189 189
0.293373 0.282135 0.149801 187 187 187
0.289777 0.289843 0.150003 183 183 183
0.286468 0.294999 0.150138 180 180 180
0.283286 0.299044 0.150244 178 178 178
0.280184 0.302410 0.150332 174 174 174
0.277154 0.305153 0.150403 168 168 168
0.274210 0.307096 0.150454 167 167 167
0.271272 0.309028 0.150505 166 166 166
0.268318 0.311158 0.150561 163 163 163
0.265375 0.313221 0.150615 163 163 163
0.262441 0.315238 0.150667 163 163 163
0.259511 0.317255 0.150720 162 162 162
0.256584 0.319287 0.150773 163 163 163
0.253609 0.321860 0.150841 164 164 164
0.250564 0.325238 0.150929 166 166 166
0.247479 0.329110 0.151030 168 168 168
0.244308 0.334010 0.151158 170 170 170
0.241126 0.339139 0.151293 172 172 172
0.237814 0.345820 0.151467 174 174 174
0.234421 0.353577 0.151670 174 174 174
0.230917 0.362765 0.151911 174 174 174
0.227501 0.371155 0.152130 172 172 172
0.224314 0.377086 0.152285 171 171 171
0.221249 0.381734 0.152407 169 169 169
0.218310 0.384982 0.152492 166 166 166
0.215438 0.387510 0.152558 164 164 164
0.212581 0.389917 0.152621 163 163 163
0.209727 0.392349 0.152685 163 163 163
0.206933 0.394092 0.152730 164 164 164
0.204155 0.395669 0.152771 164 164 164
0.201401 0.396987 0.152806 165 165 165
0.198679 0.397924 0.152830 164 164 164
0.195956 0.398900 0.152856 165 165 165
0.193230 0.399937 0.152883 166 166 166
0.190503 0.401021 0.152911 166 166 166
0.187789 0.401962 0.152936 167 167 167
0.185099 0.402585 0.152952 168 168 168
0.182411 0.403208 0.152969 169 169 169
0.179723 0.403832 0.152985 170 170 170
0.177022 0.404689 0.153007 170 170 170
0.174305 0.405784 0.153036 172 172 172
0.171610 0.406593 0.153057 173 173 173
0.168917 0.407402 0.153078 174 174 174
0.166225 0.408210 0.153099 175 175 175
0.163518 0.409285 0.153128 177 177 177
0.160787 0.410795 0.153167 180 180 180
0.158038 0.412631 0.153215 179 179 179
0.155289 0.414528 0.153265 179 179 179
0.152544 0.416422 0.153314 179 179 179
0.149808 0.418235 0.153362 179 179 179
0.147046 0.420564 0.153423 178 178 178
0.144299 0.422712 0.153479 178 178 178
0.141558 0.424840 0.153535 176 176 176
0.138818 0.427027 0.153592 175 175 175
0.136088 0.429088 0.153646 174 174 174
0.133366 0.431109 0.153699 173 173 173
0.130647 0.433127 0.153751 173 173 173
0.127950 0.434793 0.153795 172 172 172
0.125269 0.436222 0.153832 168 168 168
0.122595 0.437540 0.153867 165 165 165
0.119927 0.438815 0.153900 163 163 163
0.117260 0.440094 0.153934 161 161 161
0.114597 0.441372 0.153967 159 159 159
0.111936 0.442648 0.154000 157 157 157
0.109304 0.443311 0.154018 154 154 154
0.106681 0.443789 0.154030 150 150 150
0.104058 0.444297 0.154044 147 147 147
0.101435 0.444830 0.154057 147 147 147
0.098821 0.445160 0.154066 145 145 145
0.096213 0.445358 0.154071 143 143 143
0.093606 0.445524 0.154076 142 142 142
0.091000 0.445686 0.154080 140 140 140
0.088403 0.445602 0.154078 139 139 139
0.085808 0.445428 0.154073 139 139 139
0.083218 0.445113 0.154065 139 139 139
0.080628 0.444779 0.154056 139 139 139
0.078037 0.444434 0.154047 139 139 139
0.075447 0.444060 0.154037 139 139 139
0.072856 0.443669 0.154027 139 139 139
0.070266 0.443214 0.154015 139 139 139
0.067674 0.442829 0.154005 139 139 139
0.065076 0.442601 0.153999 140 140 140
0.062479 0.442372 0.153993 140 140 140
0.059881 0.442116 0.153986 142 142 142
0.057283 0.441839 0.153979 144 144 144
0.054682 0.441681 0.153975 145 145 145
0.052079 0.441649 0.153974 146 146 146
0.049475 0.441617 0.153973 147 147 147
0.046874 0.441412 0.153968 147 147 147
0.044276 0.441029 0.153958 147 147 147
0.041678 0.440639 0.153948 146 146 146
0.039080 0.440116 0.153934 145 145 145
0.036484 0.439421 0.153916 144 144 144
0.033886 0.438752 0.153898 142 142 142
0.031288 0.438050 0.153880 140 140 140
0.028688 0.437302 0.153861 139 139 139
0.026087 0.436554 0.153841 138 138 138
0.023483 0.435944 0.153825 138 138 138
0.020876 0.435470 0.153813 138 138 138
0.018269 0.435039 0.153801 138 138 138
0.015660 0.434608 0.153790 139 139 139
