ply
format ascii 1.0
element vertex 1200
property float x
property float y
property float z
property uchar red
property uchar green
property uchar blue
end_header
-0.313398 0.248878 0.251058 138 138 138
-0.314989 0.246106 0.251077 138 138 138
-0.316582 0.243330 0.251096 138 138 138
-0.318177 0.240551 0.251115 138 138 138
-0.319774 0.237769 0.251133 138 138 138
-0.321361 0.234958 0.251153 143 143 143
-0.322802 0.231848 0.251176 143 143 143
-0.324246 0.228734 0.251199 144 144 144
-0.325692 0.225614 0.251222 145 145 145
-0.327185 0.222580 0.251244 146 146 146
-0.328608 0.219396 0.251268 146 146 146
-0.330147 0.216440 0.251289 146 146 146
-0.331689 0.213479 0.251310 146 146 146
-0.333161 0.210369 0.251333 146 146 146
-0.334520 0.207017 0.251359 144 144 144
-0.335828 0.203549 0.251386 144 144 144
-0.337098 0.199993 0.251415 144 144 144
-0.338291 0.196264 0.251445 144 144 144
-0.339469 0.192492 0.251477 145 145 145
-0.340649 0.188712 0.251508 147 147 147
-0.341578 0.184397 0.251546 149 149 149
-0.342288 0.179607 0.251591 150 150 150
-0.342776 0.174334 0.251641 150 150 150
-0.343357 0.169236 0.251690 149 149 149
-0.343851 0.163935 0.251740 149 149 149
-0.344626 0.159206 0.251784 148 148 148
-0.345577 0.154835 0.251823 145 145 145
-0.346579 0.150553 0.251860 142 142 142
-0.347487 0.146057 0.251900 140 140 140
-0.348559 0.141895 0.251936 138 138 138
-0.349465 0.137363 0.251977 138 138 138
-0.350359 0.132788 0.252018 138 138 138
-0.351254 0.128199 0.252059 138 138 138
-0.351803 0.122846 0.252110 138 138 138
-0.352253 0.117256 0.252164 138 138 138
-0.351645 0.109348 0.252248 138 138 138
-0.351155 0.101663 0.252329 138 138 138
-0.350931 0.094523 0.252402 138 138 138
-0.351400 0.088870 0.252457 138 138 138
-0.352136 0.083778 0.252504 138 138 138
-0.352926 0.078787 0.252550 138 138 138
-0.353854 0.074078 0.252592 138 138 138
-0.354847 0.069496 0.252633 138 138 138
-0.355929 0.065095 0.252671 138 138 138
-0.357153 0.060995 0.252705 138 138 138
-0.358386 0.056899 0.252740 138 138 138
-0.360048 0.053746 0.252762 138 138 138
-0.361769 0.050716 0.252783 138 138 138
-0.363491 0.047682 0.252803 138 138 138
-0.365222 0.044656 0.252824 138 138 138
-0.366879 0.041456 0.252847 138 138 138
-0.368312 0.037738 0.252876 138 138 138
-0.369748 0.034014 0.252905 138 138 138
-0.370920 0.029676 0.252942 138 138 138
-0.371101 0.023059 0.253008 143 143 143
-0.370772 0.015244 0.253089 150 150 150
-0.370197 0.006827 0.253178 153 153 153
-0.368880 -0.003335 0.253289 157 157 157
-0.367739 -0.013142 0.253395 160 160 160
-0.366155 -0.024019 0.253514 170 170 170
-0.362591 -0.039551 0.253692 172 172 172
-0.359177 -0.054809 0.253867 168 168 168
-0.358931 -0.062745 0.253949 164 164 164
-0.359795 -0.068117 0.253998 161 161 161
-0.360685 -0.073451 0.254047 154 154 154
-0.361715 -0.078475 0.254092 152 152 152
-0.362757 -0.083492 0.254136 150 150 150
-0.364036 -0.087966 0.254174 152 152 152
-0.365081 -0.093013 0.254219 151 151 151
-0.366058 -0.098244 0.254266 148 148 148
-0.366685 -0.104331 0.254324 148 148 148
-0.367503 -0.109988 0.254377 150 150 150
-0.368021 -0.116387 0.254439 152 152 152
-0.368186 -0.123667 0.254512 156 156 156
-0.366965 -0.134327 0.254627 160 160 160
-0.363526 -0.150414 0.254810 178 178 178
0.265980 0.261000 0.251369 180 180 180
0.259545 0.264651 0.251301 181 181 181
0.211662 0.323332 0.250503 185 185 185
0.204514 0.328090 0.250420 179 179 179
0.198764 0.331011 0.250363 175 175 175
0.153806 0.386314 0.249612 173 173 173
0.147190 0.390540 0.249537 168 168 168
0.141993 0.392888 0.249488 158 158 158
0.138090 0.393512 0.249461 156 156 156
0.134307 0.393983 0.249437 153 153 153
0.130476 0.394526 0.249411 152 152 152
0.126622 0.395110 0.249385 150 150 150
0.123353 0.394907 0.249370 146 146 146
0.120360 0.394336 0.249359 143 143 143
0.117465 0.393633 0.249350 142 142 142
0.114573 0.392931 0.249341 141 141 141
0.112174 0.391557 0.249341 143 143 143
0.110110 0.389724 0.249347 144 144 144
0.108171 0.387717 0.249355 143 143 143
0.106207 0.385744 0.249363 144 144 144
0.104506 0.383404 0.249375 140 140 140
0.102950 0.380860 0.249391 140 140 140
0.101344 0.378380 0.249405 142 142 142
0.099687 0.375967 0.249418 148 148 148
0.099356 0.371704 0.249456 168 168 168
0.079910 0.394065 0.249145 178 178 178
0.073401 0.398462 0.249070 179 179 179
0.067807 0.401604 0.249011 175 175 175
0.062723 0.404050 0.248961 169 169 169
0.058863 0.404791 0.248934 164 164 164
0.055030 0.405505 0.248907 161 161 161
0.051422 0.405910 0.248884 156 156 156
0.048089 0.405932 0.248866 150 150 150
0.044888 0.405774 0.248850 145 145 145
0.041915 0.405298 0.248839 142 142 142
0.039163 0.404510 0.248831 140 140 140
0.036412 0.403723 0.248824 139 139 139
0.033727 0.402844 0.248818 138 138 138
0.031161 0.401798 0.248814 138 138 138
0.028609 0.400732 0.248810 138 138 138
0.026088 0.399623 0.248807 138 138 138
0.023568 0.398514 0.248804 138 138 138
0.021060 0.397387 0.248801 138 138 138
0.018546 0.396272 0.248798 138 138 138
0.015960 0.395262 0.248793 138 138 138
0.013308 0.394348 0.248787 138 138 138
0.010560 0.393577 0.248780 138 138 138
0.007780 0.392856 0.248772 138 138 138
0.005014 0.392117 0.248764 138 138 138
0.002274 0.391342 0.248756 138 138 138
-0.000532 0.390666 0.248748 138 138 138
-0.003386 0.390065 0.248738 138 138 138
-0.006238 0.389464 0.248728 138 138 138
-0.008965 0.388680 0.248721 138 138 138
-0.011584 0.387740 0.248716 138 138 138
-0.014189 0.386781 0.248711 138 138 138
-0.016757 0.385767 0.248706 138 138 138
-0.019325 0.384755 0.248702 138 138 138
-0.021883 0.383730 0.248698 138 138 138
-0.024374 0.382605 0.248695 138 138 138
-0.026849 0.381458 0.248692 138 138 138
-0.029314 0.380298 0.248690 138 138 138
-0.031780 0.379138 0.248687 138 138 138
-0.034187 0.377891 0.248686 138 138 138
-0.036498 0.376498 0.248687 138 138 138
-0.038787 0.375072 0.248688 138 138 138
-0.041002 0.373533 0.248690 138 138 138
-0.043229 0.372010 0.248692 138 138 138
-0.045491 0.370542 0.248694 138 138 138
-0.047751 0.369068 0.248695 138 138 138
-0.050008 0.367590 0.248697 138 138 138
-0.052264 0.366111 0.248698 138 138 138
-0.054565 0.364700 0.248699 138 138 138
-0.056908 0.363353 0.248699 138 138 138
-0.059302 0.362086 0.248698 138 138 138
-0.061697 0.360820 0.248697 138 138 138
-0.064083 0.359542 0.248696 138 138 138
-0.066733 0.358675 0.248690 144 144 144
-0.069476 0.357957 0.248682 138 138 138
-0.072218 0.357239 0.248674 140 140 140
-0.074958 0.356521 0.248666 143 143 143
-0.077951 0.356206 0.248653 146 146 146
-0.080948 0.355901 0.248640 147 147 147
-0.083942 0.355595 0.248627 150 150 150
-0.086903 0.355242 0.248614 152 152 152
-0.090243 0.355497 0.248594 159 159 159
-0.095041 0.358082 0.248544 165 165 165
-0.100226 0.361304 0.248487 172 172 172
-0.104641 0.363312 0.248445 179 179 179
-0.108703 0.364770 0.248410 177 177 177
-0.112563 0.365915 0.248378 176 176 176
-0.116414 0.367058 0.248347 174 174 174
-0.119961 0.367722 0.248322 172 172 172
-0.123304 0.368063 0.248301 170 170 170
-0.126320 0.367883 0.248287 168 168 168
-0.129273 0.367605 0.248274 167 167 167
-0.131985 0.366937 0.248265 166 166 166
-0.134674 0.366236 0.248257 165 165 165
-0.137432 0.365651 0.248248 164 164 164
-0.140203 0.365090 0.248238 163 163 163
-0.142731 0.364134 0.248234 161 161 161
-0.144878 0.362551 0.248237 160 160 160
-0.147022 0.360961 0.248240 158 158 158
-0.149142 0.359331 0.248244 156 156 156
-0.151252 0.357682 0.248248 152 152 152
-0.153044 0.355503 0.248259 148 148 148
-0.154823 0.353299 0.248269 151 151 151
-0.156604 0.351093 0.248280 151 151 151
-0.158387 0.348886 0.248291 151 151 151
-0.160121 0.346594 0.248303 151 151 151
-0.161781 0.344171 0.248317 148 148 148
-0.163700 0.342183 0.248325 147 147 147
-0.165622 0.340194 0.248333 146 146 146
-0.167554 0.338221 0.248341 146 146 146
-0.169573 0.336392 0.248347 147 147 147
-0.171823 0.334954 0.248348 147 147 147
-0.174072 0.333515 0.248350 147 147 147
-0.176341 0.332109 0.248350 147 147 147
-0.178636 0.330747 0.248351 148 148 148
-0.181001 0.329505 0.248350 149 149 149
-0.183456 0.328419 0.248347 149 149 149
-0.185903 0.327320 0.248344 149 149 149
-0.188378 0.326272 0.248340 149 149 149
-0.190853 0.325224 0.248337 149 149 149
-0.193314 0.324153 0.248333 148 148 148
-0.195865 0.323240 0.248328 148 148 148
-0.198414 0.322327 0.248323 147 147 147
-0.200962 0.321413 0.248318 146 146 146
-0.203496 0.320477 0.248313 145 145 145
-0.205873 0.319265 0.248312 145 145 145
-0.208123 0.317831 0.248313 144 144 144
-0.210373 0.316396 0.248314 143 143 143
-0.212647 0.315004 0.248315 142 142 142
-0.215005 0.313760 0.248314 140 140 140
-0.217380 0.312547 0.248312 138 138 138
-0.219685 0.311208 0.248312 138 138 138
-0.222031 0.309944 0.248312 138 138 138
-0.224350 0.308632 0.248311 138 138 138
-0.226662 0.307307 0.248311 138 138 138
-0.228902 0.305852 0.248313 138 138 138
-0.231070 0.304266 0.248316 138 138 138
-0.233262 0.302723 0.248318 138 138 138
-0.235546 0.301346 0.248319 138 138 138
-0.237744 0.299812 0.248321 138 138 138
-0.239942 0.298278 0.248324 138 138 138
-0.242147 0.296754 0.248326 138 138 138
-0.244437 0.295386 0.248327 138 138 138
-0.246738 0.294039 0.248327 138 138 138
-0.249040 0.292691 0.248327 138 138 138
-0.251323 0.291312 0.248327 138 138 138
-0.253532 0.289793 0.248330 138 138 138
-0.255820 0.288420 0.248330 138 138 138
-0.258109 0.287048 0.248331 138 138 138
-0.260441 0.285757 0.248330 138 138 138
-0.262787 0.284491 0.248329 138 138 138
-0.265193 0.283341 0.248327 138 138 138
-0.267651 0.282287 0.248324 138 138 138
-0.270108 0.281233 0.248320 138 138 138
-0.272574 0.280197 0.248317 138 138 138
-0.275062 0.279205 0.248313 138 138 138
-0.277478 0.278079 0.248310 138 138 138
-0.279895 0.276953 0.248308 138 138 138
-0.282316 0.275838 0.248305 138 138 138
-0.284766 0.274778 0.248302 138 138 138
-0.287040 0.273383 0.248303 138 138 138
-0.289202 0.271773 0.248306 139 139 139
-0.291432 0.270293 0.248308 138 138 138
-0.293681 0.268847 0.248309 138 138 138
-0.295928 0.267397 0.248310 138 138 138
-0.298097 0.265795 0.248314 138 138 138
-0.300244 0.264150 0.248317 138 138 138
-0.302375 0.262470 0.248322 138 138 138
-0.304466 0.260712 0.248327 138 138 138
-0.306506 0.258851 0.248333 138 138 138
-0.308387 0.256674 0.248343 138 138 138
-0.310268 0.254495 0.248353 138 138 138
-0.312152 0.252314 0.248363 138 138 138
-0.314053 0.250166 0.248373 138 138 138
-0.315731 0.247569 0.248388 138 138 138
-0.317324 0.244796 0.248405 138 138 138
-0.318918 0.242019 0.248422 138 138 138
-0.320642 0.239494 0.248437 138 138 138
-0.322414 0.237059 0.248450 143 143 143
-0.323875 0.233993 0.248470 144 144 144
-0.325318 0.230883 0.248491 144 144 144
-0.326895 0.228033 0.248509 146 146 146
-0.328631 0.225500 0.248523 147 147 147
-0.330141 0.222500 0.248543 149 149 149
-0.331499 0.219182 0.248566 148 148 148
-0.332954 0.216051 0.248588 147 147 147
-0.334497 0.213091 0.248607 148 148 148
-0.335904 0.209844 0.248629 146 146 146
-0.337034 0.206018 0.248658 145 145 145
-0.338279 0.202415 0.248685 144 144 144
-0.339525 0.198802 0.248712 145 145 145
-0.340722 0.195077 0.248740 145 145 145
-0.341904 0.191308 0.248768 146 146 146
-0.343059 0.187469 0.248798 148 148 148
-0.343772 0.182695 0.248838 150 150 150
-0.344486 0.177902 0.248879 150 150 150
-0.345077 0.172836 0.248922 148 148 148
-0.345574 0.167549 0.248969 148 148 148
-0.346016 0.162127 0.249016 147 147 147
-0.346913 0.157647 0.249053 145 145 145
-0.347868 0.153275 0.249088 141 141 141
-0.348697 0.148616 0.249127 139 139 139
-0.349580 0.144059 0.249164 138 138 138
-0.350646 0.139873 0.249197 138 138 138
-0.351252 0.134687 0.249242 138 138 138
-0.352097 0.129993 0.249281 138 138 138
-0.352349 0.124004 0.249335 138 138 138
-0.352874 0.118579 0.249382 138 138 138
-0.352459 0.111095 0.249454 138 138 138
-0.351645 0.102708 0.249536 138 138 138
-0.351232 0.095159 0.249608 138 138 138
-0.351827 0.089783 0.249654 138 138 138
-0.352576 0.084721 0.249697 138 138 138
-0.353366 0.079733 0.249739 138 138 138
-0.354401 0.075263 0.249775 138 138 138
-0.355275 0.070420 0.249815 138 138 138
-0.356400 0.066119 0.249848 138 138 138
-0.357627 0.062026 0.249880 138 138 138
-0.358858 0.057926 0.249911 138 138 138
-0.360421 0.054556 0.249934 138 138 138
-0.362229 0.051723 0.249950 138 138 138
-0.364041 0.048894 0.249967 138 138 138
-0.365842 0.046030 0.249984 138 138 138
-0.367683 0.043248 0.250000 138 138 138
-0.369204 0.039735 0.250024 138 138 138
-0.370728 0.036216 0.250048 138 138 138
-0.372255 0.032692 0.250073 138 138 138
-0.372813 0.026944 0.250123 138 138 138
-0.372758 0.019766 0.250190 146 146 146
-0.372218 0.011444 0.250270 145 145 145
-0.371337 0.002298 0.250359 149 149 149
-0.370616 -0.006522 0.250444 153 153 153
-0.369759 -0.015699 0.250534 158 158 158
-0.368230 -0.026479 0.250641 167 167 167
-0.365068 -0.041115 0.250794 172 172 172
-0.362137 -0.055285 0.250940 166 166 166
-0.362037 -0.062895 0.251011 163 163 163
-0.362876 -0.068334 0.251057 160 160 160
-0.363549 -0.074186 0.251107 153 153 153
-0.364568 -0.079245 0.251149 152 152 152
-0.365626 -0.084232 0.251189 152 152 152
-0.366631 -0.089364 0.251231 152 152 152
-0.367638 -0.094513 0.251274 150 150 150
-0.368261 -0.100598 0.251326 146 146 146
-0.368927 -0.106608 0.251378 147 147 147
-0.369601 -0.112624 0.251431 149 149 149
-0.370113 -0.119056 0.251487 150 150 150
-0.370080 -0.126834 0.251559 155 155 155
-0.368954 -0.137297 0.251662 160 160 160
-0.366235 -0.151680 0.251810 177 177 177
0.271785 0.258222 0.248465 186 186 186
0.264099 0.263506 0.248384 181 181 181
0.257853 0.266912 0.248325 185 185 185
0.209205 0.326612 0.247591 183 183 183
0.202970 0.330162 0.247531 176 176 176
0.197613 0.332564 0.247485 175 175 175
0.152088 0.388626 0.246797 172 172 172
0.145971 0.392191 0.246738 163 163 163
0.141501 0.393566 0.246705 157 157 157
0.137569 0.394230 0.246680 154 154 154
0.133785 0.394703 0.246658 152 152 152
0.130010 0.395173 0.246636 150 150 150
0.126317 0.395539 0.246615 148 148 148
0.123180 0.395160 0.246603 147 147 147
0.120324 0.394402 0.246595 147 147 147
0.117429 0.393699 0.246587 145 145 145
0.114536 0.392998 0.246579 144 144 144
0.111884 0.391970 0.246575 144 144 144
0.109572 0.390478 0.246576 146 146 146
0.107355 0.388855 0.246579 148 148 148
0.105398 0.386873 0.246586 149 149 149
0.103407 0.384935 0.246593 152 152 152
0.101802 0.382462 0.246606 153 153 153
0.100147 0.380053 0.246618 161 161 161
0.092920 0.385371 0.246539 175 175 175
0.082920 0.394573 0.246413 171 171 171
0.076684 0.398576 0.246350 180 180 180
0.070458 0.402588 0.246286 179 179 179
0.065672 0.404606 0.246246 172 172 172
0.061917 0.405195 0.246223 167 167 167
0.058058 0.405938 0.246198 161 161 161
0.054224 0.406655 0.246174 157 157 157
0.050820 0.406773 0.246156 151 151 151
0.047512 0.406763 0.246141 145 145 145
0.044549 0.406269 0.246130 141 141 141
0.041805 0.405468 0.246124 139 139 139
0.039053 0.404680 0.246117 138 138 138
0.036303 0.403893 0.246110 138 138 138
0.033554 0.403107 0.246104 138 138 138
0.030973 0.402080 0.246100 138 138 138
0.028438 0.400992 0.246097 138 138 138
0.025917 0.399883 0.246094 138 138 138
0.023396 0.398774 0.246091 138 138 138
0.020845 0.397712 0.246088 138 138 138
0.018252 0.396711 0.246083 138 138 138
0.015634 0.395748 0.246079 138 138 138
0.012982 0.394835 0.246074 138 138 138
0.010289 0.393985 0.246068 138 138 138
0.007509 0.393264 0.246060 138 138 138
0.004758 0.392504 0.246053 138 138 138
0.002018 0.391729 0.246047 138 138 138
-0.000739 0.390982 0.246040 138 138 138
-0.003501 0.390245 0.246032 138 138 138
-0.006098 0.389269 0.246028 138 138 138
-0.008695 0.388292 0.246024 138 138 138
-0.011291 0.387316 0.246019 138 138 138
-0.013940 0.386420 0.246014 138 138 138
-0.016593 0.385534 0.246009 138 138 138
-0.019226 0.384618 0.246004 138 138 138
-0.021792 0.383605 0.246000 138 138 138
-0.024311 0.382522 0.245997 138 138 138
-0.026779 0.381364 0.245994 138 138 138
-0.029207 0.380147 0.245993 138 138 138
-0.031558 0.378813 0.245993 138 138 138
-0.033981 0.377589 0.245991 138 138 138
-0.036240 0.376115 0.245993 138 138 138
-0.038455 0.374577 0.245995 138 138 138
-0.040671 0.373037 0.245997 138 138 138
-0.042887 0.371498 0.245999 138 138 138
-0.045136 0.370007 0.246001 138 138 138
-0.047396 0.368533 0.246002 138 138 138
-0.049653 0.367053 0.246004 138 138 138
-0.051910 0.365573 0.246005 138 138 138
-0.054172 0.364102 0.246006 138 138 138
-0.056520 0.362762 0.246006 138 138 138
-0.058914 0.361492 0.246005 138 138 138
-0.061493 0.360511 0.246001 138 138 138
-0.064099 0.359574 0.245996 138 138 138
-0.066936 0.359000 0.245987 138 138 138
-0.069851 0.358550 0.245977 141 141 141
-0.072613 0.357866 0.245970 145 145 145
-0.075352 0.357149 0.245962 145 145 145
-0.078242 0.356671 0.245952 147 147 147
-0.081238 0.356365 0.245940 149 149 149
-0.084431 0.356377 0.245925 153 153 153
-0.087863 0.356772 0.245905 157 157 157
-0.092180 0.358583 0.245869 161 161 161
-0.097276 0.361649 0.245819 168 168 168
-0.102716 0.365286 0.245762 175 175 175
-0.107301 0.367575 0.245721 175 175 175
-0.111161 0.368720 0.245693 175 175 175
-0.115013 0.369862 0.245665 173 173 173
-0.118729 0.370796 0.245639 171 171 171
-0.121774 0.370655 0.245625 169 169 169
-0.124729 0.370376 0.245613 168 168 168
-0.127681 0.370096 0.245602 166 166 166
-0.130630 0.369817 0.245590 164 164 164
-0.133405 0.369256 0.245581 163 163 163
-0.136091 0.368556 0.245574 162 162 162
-0.138775 0.367856 0.245567 161 161 161
-0.141430 0.367108 0.245560 160 160 160
-0.143787 0.365876 0.245559 159 159 159
-0.145897 0.364236 0.245563 157 157 157
-0.148005 0.362590 0.245566 156 156 156
-0.150113 0.360943 0.245570 154 154 154
-0.152222 0.359297 0.245573 153 153 153
-0.154163 0.357369 0.245580 150 150 150
-0.155941 0.355167 0.245590 150 150 150
-0.157721 0.352964 0.245600 150 150 150
-0.159471 0.350707 0.245610 150 150 150
-0.161212 0.348429 0.245621 150 150 150
-0.162885 0.346033 0.245633 148 148 148
-0.164708 0.343886 0.245642 148 148 148
-0.166629 0.341900 0.245649 147 147 147
-0.168573 0.339950 0.245656 148 148 148
-0.170517 0.337999 0.245663 149 149 149
-0.172730 0.336501 0.245665 149 149 149
-0.174979 0.335064 0.245666 149 149 149
-0.177227 0.333626 0.245667 149 149 149
-0.179476 0.332189 0.245668 149 149 149
-0.181777 0.330839 0.245669 150 150 150
-0.184223 0.329741 0.245666 150 150 150
-0.186700 0.328698 0.245663 150 150 150
-0.189177 0.327655 0.245660 150 150 150
-0.191661 0.326626 0.245656 150 150 150
-0.194117 0.325550 0.245653 150 150 150
-0.196569 0.324467 0.245651 149 149 149
-0.199020 0.323385 0.245648 148 148 148
-0.201508 0.322369 0.245644 147 147 147
-0.204031 0.321416 0.245640 146 146 146
-0.206281 0.319982 0.245641 146 146 146
-0.208643 0.318748 0.245640 145 145 145
-0.211020 0.317540 0.245639 145 145 145
-0.213204 0.315990 0.245641 144 144 144
-0.215517 0.314667 0.245641 141 141 141
-0.217891 0.313454 0.245640 139 139 139
-0.220188 0.312105 0.245640 139 139 139
-0.222462 0.310713 0.245641 138 138 138
-0.224795 0.309427 0.245640 138 138 138
-0.227105 0.308101 0.245640 138 138 138
-0.229271 0.306516 0.245643 138 138 138
-0.231439 0.304930 0.245646 138 138 138
-0.233606 0.303344 0.245648 138 138 138
-0.235822 0.301844 0.245650 138 138 138
-0.238044 0.300355 0.245652 138 138 138
-0.240280 0.298891 0.245653 138 138 138
-0.242507 0.297410 0.245655 138 138 138
-0.244763 0.295980 0.245656 138 138 138
-0.247064 0.294633 0.245656 138 138 138
-0.249365 0.293286 0.245656 138 138 138
-0.251602 0.291822 0.245658 138 138 138
-0.253805 0.290292 0.245660 138 138 138
-0.256060 0.288860 0.245661 138 138 138
-0.258360 0.287509 0.245661 138 138 138
-0.260705 0.286243 0.245661 138 138 138
-0.263050 0.284977 0.245660 138 138 138
-0.265405 0.283732 0.245659 138 138 138
-0.267859 0.282671 0.245656 138 138 138
-0.270313 0.281612 0.245653 138 138 138
-0.272807 0.280632 0.245649 138 138 138
-0.275302 0.279652 0.245645 138 138 138
-0.277745 0.278579 0.245642 138 138 138
-0.280161 0.277453 0.245640 138 138 138
-0.282596 0.276366 0.245637 138 138 138
-0.285046 0.275306 0.245634 138 138 138
-0.287446 0.274154 0.245632 138 138 138
-0.289635 0.272597 0.245635 138 138 138
-0.291883 0.271152 0.245636 138 138 138
-0.294131 0.269706 0.245637 138 138 138
-0.296340 0.268186 0.245639 138 138 138
-0.298495 0.266558 0.245643 138 138 138
-0.300623 0.264878 0.245646 138 138 138
-0.302757 0.263205 0.245650 138 138 138
-0.304847 0.261447 0.245655 138 138 138
-0.306938 0.259687 0.245659 138 138 138
-0.308917 0.257706 0.245666 138 138 138
-0.310836 0.255604 0.245675 138 138 138
-0.312719 0.253424 0.245684 138 138 138
-0.314612 0.251262 0.245693 138 138 138
-0.316472 0.249030 0.245702 138 138 138
-0.318064 0.246259 0.245718 138 138 138
-0.319734 0.243635 0.245732 138 138 138
-0.321541 0.241280 0.245743 138 138 138
-0.323349 0.238924 0.245754 138 138 138
-0.324945 0.236134 0.245769 144 144 144
-0.326438 0.233128 0.245787 145 145 145
-0.328171 0.230601 0.245800 147 147 147
-0.329906 0.228072 0.245813 148 148 148
-0.331644 0.225540 0.245826 149 149 149
-0.333059 0.222347 0.245845 150 150 150
-0.334414 0.219019 0.245867 149 149 149
-0.335770 0.215685 0.245888 149 149 149
-0.337284 0.212664 0.245906 148 148 148
-0.338392 0.208798 0.245933 147 147 147
-0.339470 0.204860 0.245961 145 145 145
-0.340730 0.201281 0.245985 145 145 145
-0.341937 0.197583 0.246010 145 145 145
-0.343136 0.193856 0.246035 146 146 146
-0.344338 0.190122 0.246060 147 147 147
-0.345261 0.185792 0.246092 149 149 149
-0.346009 0.181081 0.246128 149 149 149
-0.346747 0.176329 0.246164 148 148 148
-0.347259 0.171083 0.246205 147 147 147
-0.347741 0.165756 0.246248 146 146 146
-0.348278 0.160522 0.246289 144 144 144
-0.349200 0.156087 0.246321 140 140 140
-0.350073 0.151530 0.246355 138 138 138
-0.350815 0.146678 0.246392 138 138 138
-0.351675 0.142059 0.246427 138 138 138
-0.352144 0.136584 0.246470 138 138 138
-0.352754 0.131389 0.246511 138 138 138
-0.352882 0.125135 0.246562 138 138 138
-0.353356 0.119604 0.246606 138 138 138
-0.353175 0.112628 0.246666 138 138 138
-0.352072 0.103616 0.246746 138 138 138
-0.351552 0.095836 0.246814 138 138 138
-0.352212 0.090604 0.246854 138 138 138
-0.353015 0.085664 0.246892 138 138 138
-0.353810 0.080686 0.246930 138 138 138
-0.355019 0.076603 0.246958 138 138 138
-0.355949 0.071889 0.246993 138 138 138
-0.356909 0.067222 0.247027 138 138 138
-0.358121 0.063101 0.247056 138 138 138
-0.359351 0.059001 0.247084 138 138 138
-0.360888 0.055577 0.247105 138 138 138
-0.362684 0.052721 0.247121 138 138 138
-0.364482 0.049861 0.247136 138 138 138
-0.366300 0.047037 0.247151 138 138 138
-0.368297 0.044611 0.247161 138 138 138
-0.369980 0.041469 0.247179 138 138 138
-0.371504 0.037954 0.247201 138 138 138
-0.373067 0.034518 0.247223 138 138 138
-0.374110 0.029882 0.247256 138 138 138
-0.374492 0.023713 0.247306 138 138 138
-0.374182 0.015929 0.247373 138 138 138
-0.373493 0.007236 0.247449 139 139 139
-0.372604 -0.001958 0.247530 148 148 148
-0.372152 -0.010183 0.247601 149 149 149
-0.371717 -0.018407 0.247672 158 158 158
-0.370024 -0.029600 0.247773 167 167 167
-0.366851 -0.044304 0.247912 170 170 170
-0.364851 -0.056332 0.248022 165 165 165
-0.365040 -0.063281 0.248079 162 162 162
-0.365279 -0.070140 0.248135 158 158 158
-0.366125 -0.075597 0.248177 152 152 152
-0.367123 -0.080716 0.248215 150 150 150
-0.368155 -0.085775 0.248252 150 150 150
-0.369167 -0.090901 0.248290 150 150 150
-0.369868 -0.096790 0.248336 145 145 145
-0.370431 -0.103038 0.248385 144 144 144
-0.371044 -0.109191 0.248434 145 145 145
-0.371702 -0.115262 0.248481 147 147 147
-0.372160 -0.121843 0.248534 149 149 149
-0.371782 -0.130477 0.248608 154 154 154
-0.370913 -0.140347 0.248695 162 162 162
-0.368808 -0.153275 0.248813 180 180 180
0.268677 0.262341 0.245460 183 183 183
0.262223 0.266007 0.245405 181 181 181
0.213687 0.325424 0.244751 183 183 183
0.207149 0.329360 0.244693 178 178 178
0.201754 0.331799 0.244652 176 176 176
0.196455 0.334127 0.244612 174 174 174
0.150559 0.390687 0.243991 170 170 170
0.145527 0.392803 0.243953 163 163 163
0.140909 0.394378 0.243921 157 157 157
0.137096 0.394884 0.243901 153 153 153
0.133263 0.395424 0.243881 150 150 150
0.129700 0.395609 0.243864 149 149 149
0.126304 0.395574 0.243850 148 148 148
0.122930 0.395515 0.243835 147 147 147
0.120118 0.394698 0.243829 147 147 147
0.117308 0.393882 0.243823 146 146 146
0.114498 0.393067 0.243817 146 146 146
0.111609 0.392362 0.243810 145 145 145
0.109283 0.390891 0.243811 146 146 146
0.106898 0.389498 0.243811 149 149 149
0.104165 0.388586 0.243806 154 154 154
0.101235 0.387946 0.243798 163 163 163
0.097597 0.388287 0.243780 166 166 166
0.093819 0.388830 0.243760 169 169 169
0.085707 0.395394 0.243676 172 172 172
0.079762 0.398979 0.243623 176 176 176
0.073474 0.403064 0.243566 179 179 179
0.068467 0.405382 0.243527 170 170 170
0.064617 0.406099 0.243505 165 165 165
0.060940 0.406580 0.243485 162 162 162
0.057255 0.407081 0.243466 158 158 158
0.053553 0.407615 0.243446 153 153 153
0.050463 0.407292 0.243435 147 147 147
0.047478 0.406826 0.243425 144 144 144
0.044495 0.406360 0.243416 140 140 140
0.041670 0.405674 0.243409 138 138 138
0.038929 0.404871 0.243403 138 138 138
0.036189 0.404069 0.243397 138 138 138
0.033445 0.403276 0.243391 138 138 138
0.030788 0.402359 0.243387 138 138 138
0.028266 0.401251 0.243384 138 138 138
0.025679 0.400238 0.243380 138 138 138
0.023093 0.399225 0.243377 138 138 138
0.020498 0.398226 0.243373 138 138 138
0.017881 0.397261 0.243369 138 138 138
0.015265 0.396296 0.243365 138 138 138
0.012650 0.395331 0.243361 138 138 138
0.010008 0.394408 0.243356 138 138 138
0.007242 0.393666 0.243350 138 138 138
0.004501 0.392891 0.243344 138 138 138
0.001873 0.391953 0.243340 138 138 138
-0.000574 0.390752 0.243338 138 138 138
-0.003189 0.389798 0.243334 138 138 138
-0.005828 0.388881 0.243329 138 138 138
-0.008426 0.387904 0.243325 138 138 138
-0.011022 0.386928 0.243322 138 138 138
-0.013641 0.385987 0.243317 138 138 138
-0.016295 0.385101 0.243312 138 138 138
-0.018948 0.384214 0.243308 138 138 138
-0.021600 0.383328 0.243303 138 138 138
-0.024160 0.382306 0.243299 138 138 138
-0.026464 0.380900 0.243300 138 138 138
-0.028814 0.379564 0.243300 138 138 138
-0.031243 0.378346 0.243298 138 138 138
-0.033577 0.376987 0.243298 138 138 138
-0.035866 0.375559 0.243299 138 138 138
-0.038123 0.374081 0.243301 138 138 138
-0.040339 0.372541 0.243303 138 138 138
-0.042556 0.371001 0.243304 138 138 138
-0.044779 0.369470 0.243306 138 138 138
-0.047041 0.367997 0.243308 138 138 138
-0.049298 0.366516 0.243309 138 138 138
-0.051555 0.365036 0.243310 138 138 138
-0.053812 0.363554 0.243312 138 138 138
-0.056339 0.362489 0.243309 138 138 138
-0.058959 0.361570 0.243304 138 138 138
-0.061566 0.360633 0.243300 138 138 138
-0.064172 0.359696 0.243296 138 138 138
-0.066869 0.358902 0.243290 141 141 141
-0.069783 0.358453 0.243281 144 144 144
-0.072696 0.358003 0.243272 146 146 146
-0.075606 0.357554 0.243262 148 148 148
-0.078621 0.357276 0.243251 150 150 150
-0.082076 0.357695 0.243233 152 152 152
-0.085525 0.358114 0.243215 155 155 155
-0.089694 0.359683 0.243186 155 155 155
-0.094322 0.361995 0.243148 163 163 163
-0.100099 0.366155 0.243092 169 169 169
-0.105301 0.369421 0.243045 173 173 173
-0.109735 0.371478 0.243011 174 174 174
-0.113475 0.372438 0.242988 173 173 173
-0.116607 0.372430 0.242974 170 170 170
-0.119773 0.372484 0.242960 168 168 168
-0.122887 0.372460 0.242947 166 166 166
-0.125917 0.372304 0.242935 164 164 164
-0.128943 0.372148 0.242923 163 163 163
-0.131966 0.371993 0.242911 161 161 161
-0.134804 0.371542 0.242902 159 159 159
-0.137281 0.370504 0.242899 158 158 158
-0.139757 0.369468 0.242896 158 158 158
-0.142233 0.368431 0.242894 157 157 157
-0.144708 0.367394 0.242891 156 156 156
-0.146839 0.365792 0.242893 155 155 155
-0.148965 0.364181 0.242896 155 155 155
-0.151084 0.362554 0.242899 153 153 153
-0.153191 0.360909 0.242902 152 152 152
-0.155256 0.359191 0.242906 149 149 149
-0.157058 0.357033 0.242915 149 149 149
-0.158813 0.354792 0.242924 149 149 149
-0.160551 0.352519 0.242933 149 149 149
-0.162291 0.350244 0.242943 149 149 149
-0.164002 0.347916 0.242953 148 148 148
-0.165714 0.345586 0.242963 149 149 149
-0.167647 0.343624 0.242969 149 149 149
-0.169589 0.341676 0.242975 150 150 150
-0.171535 0.339730 0.242982 150 150 150
-0.173642 0.338056 0.242985 151 151 151
-0.175894 0.336628 0.242986 151 151 151
-0.178146 0.335200 0.242987 151 151 151
-0.180399 0.333772 0.242988 151 151 151
-0.182651 0.332344 0.242989 151 151 151
-0.185035 0.331141 0.242988 151 151 151
-0.187500 0.330079 0.242985 152 152 152
-0.189977 0.329040 0.242982 152 152 152
-0.192460 0.328013 0.242979 152 152 152
-0.194926 0.326957 0.242976 151 151 151
-0.197376 0.325875 0.242974 150 150 150
-0.199826 0.324793 0.242971 149 149 149
-0.202276 0.323714 0.242969 149 149 149
-0.204722 0.322627 0.242966 148 148 148
-0.207098 0.321420 0.242965 147 147 147
-0.209474 0.320212 0.242964 147 147 147
-0.211749 0.318828 0.242964 146 146 146
-0.213863 0.317157 0.242968 145 145 145
-0.216046 0.315607 0.242970 143 143 143
-0.218401 0.314361 0.242969 140 140 140
-0.220693 0.313005 0.242969 140 140 140
-0.222959 0.311600 0.242970 139 139 139
-0.225237 0.310219 0.242970 138 138 138
-0.227475 0.308764 0.242972 138 138 138
-0.229647 0.307189 0.242974 138 138 138
-0.231868 0.305704 0.242976 138 138 138
-0.234087 0.304212 0.242977 138 138 138
-0.236204 0.302535 0.242981 138 138 138
-0.238440 0.301072 0.242982 138 138 138
-0.240676 0.299609 0.242983 138 138 138
-0.242894 0.298112 0.242985 138 138 138
-0.245094 0.296582 0.242987 138 138 138
-0.247390 0.295228 0.242987 138 138 138
-0.249679 0.293861 0.242987 138 138 138
-0.251881 0.292332 0.242989 138 138 138
-0.254083 0.290802 0.242991 138 138 138
-0.256299 0.289299 0.242993 138 138 138
-0.258623 0.287994 0.242992 138 138 138
-0.260966 0.286726 0.242992 138 138 138
-0.263303 0.285446 0.242991 138 138 138
-0.265640 0.284165 0.242991 138 138 138
-0.268051 0.283026 0.242989 138 138 138
-0.270547 0.282046 0.242985 138 138 138
-0.273041 0.281066 0.242982 138 138 138
-0.275535 0.280087 0.242979 138 138 138
-0.278012 0.279078 0.242975 138 138 138
-0.280428 0.277953 0.242973 138 138 138
-0.282877 0.276893 0.242971 138 138 138
-0.285326 0.275834 0.242968 138 138 138
-0.287775 0.274777 0.242965 138 138 138
-0.290027 0.273342 0.242966 138 138 138
-0.292224 0.271800 0.242969 138 138 138
-0.294421 0.270258 0.242971 138 138 138
-0.296619 0.268716 0.242973 138 138 138
-0.298807 0.267155 0.242975 138 138 138
-0.300939 0.265482 0.242978 138 138 138
-0.303077 0.263820 0.242981 138 138 138
-0.305215 0.262157 0.242985 138 138 138
-0.307318 0.260423 0.242988 138 138 138
-0.309350 0.258548 0.242994 138 138 138
-0.311324 0.256553 0.243000 138 138 138
-0.313286 0.254534 0.243007 138 138 138
-0.315170 0.252357 0.243015 138 138 138
-0.317140 0.250345 0.243021 138 138 138
-0.318827 0.247767 0.243033 138 138 138
-0.320632 0.245417 0.243043 138 138 138
-0.322438 0.243065 0.243053 138 138 138
-0.324246 0.240711 0.243063 138 138 138
-0.326012 0.238268 0.243073 145 145 145
-0.327712 0.235686 0.243085 146 146 146
-0.329445 0.233164 0.243097 146 146 146
-0.331179 0.230639 0.243108 148 148 148
-0.332915 0.228111 0.243119 148 148 148
-0.334581 0.225435 0.243132 149 149 149
-0.335940 0.222123 0.243151 150 150 150
-0.337291 0.218786 0.243170 150 150 150
-0.338644 0.215442 0.243189 150 150 150
-0.339755 0.211591 0.243213 149 149 149
-0.340668 0.207317 0.243241 147 147 147
-0.341917 0.203724 0.243263 146 146 146
-0.343150 0.200084 0.243285 146 146 146
-0.344355 0.196376 0.243307 146 146 146
-0.345566 0.192667 0.243330 146 146 146
-0.346715 0.188817 0.243354 148 148 148
-0.347539 0.184272 0.243384 147 147 147
-0.348293 0.179563 0.243416 147 147 147
-0.348919 0.174566 0.243451 146 146 146
-0.349313 0.169061 0.243490 145 145 145
-0.349591 0.163287 0.243532 143 143 143
-0.350357 0.158526 0.243564 139 139 139
-0.351086 0.153670 0.243597 138 138 138
-0.351843 0.148855 0.243630 138 138 138
-0.352734 0.144308 0.243660 138 138 138
-0.353280 0.139003 0.243698 138 138 138
-0.353410 0.132783 0.243744 138 138 138
-0.353532 0.126519 0.243790 138 138 138
-0.353838 0.120627 0.243833 138 138 138
-0.353844 0.114061 0.243882 138 138 138
-0.352795 0.105169 0.243953 138 138 138
-0.351898 0.096571 0.244021 138 138 138
-0.352597 0.091425 0.244056 138 138 138
-0.353443 0.086580 0.244089 138 138 138
-0.354320 0.081786 0.244121 138 138 138
-0.355529 0.077706 0.244146 138 138 138
-0.356622 0.073355 0.244174 138 138 138
-0.357553 0.068630 0.244205 138 138 138
-0.358615 0.064175 0.244234 138 138 138
-0.359844 0.060078 0.244259 138 138 138
-0.361381 0.056654 0.244278 138 138 138
-0.363125 0.053685 0.244293 138 138 138
-0.364923 0.050826 0.244307 138 138 138
-0.366844 0.048237 0.244318 138 138 138
-0.368836 0.045804 0.244327 138 138 138
-0.370756 0.043200 0.244338 138 138 138
-0.372279 0.039689 0.244358 138 138 138
-0.373897 0.036384 0.244376 138 138 138
-0.375303 0.032582 0.244398 138 138 138
-0.375659 0.026362 0.244443 138 138 138
-0.375677 0.019336 0.244495 138 138 138
-0.375346 0.011478 0.244556 138 138 138
-0.374773 0.003024 0.244621 138 138 138
-0.374150 -0.005583 0.244688 144 144 144
-0.373817 -0.013557 0.244749 149 149 149
-0.373415 -0.021728 0.244812 158 158 158
-0.371820 -0.032725 0.244901 166 166 166
-0.368649 -0.047466 0.245025 167 167 167
-0.367401 -0.057765 0.245108 163 163 163
-0.367439 -0.065081 0.245162 162 162 162
-0.367865 -0.071518 0.245208 154 154 154
-0.368701 -0.077008 0.245246 151 151 151
-0.369671 -0.082205 0.245280 149 149 149
-0.370626 -0.087458 0.245316 149 149 149
-0.371454 -0.093035 0.245354 148 148 148
-0.371801 -0.099789 0.245403 142 142 142
-0.372390 -0.105989 0.245446 142 142 142
-0.373065 -0.112010 0.245489 144 144 144
-0.373741 -0.118055 0.245531 146 146 146
-0.374101 -0.124892 0.245580 149 149 149
-0.373679 -0.133659 0.245648 154 154 154
-0.373123 -0.142795 0.245718 164 164 164
-0.368852 -0.161054 0.245873 0 0 0
0.275012 0.258875 0.242551 184 184 184
0.266481 0.265258 0.242476 181 181 181
0.221020 0.320479 0.241940 184 184 184
0.211388 0.328487 0.241850 181 181 181
0.205907 0.331027 0.241813 177 177 177
0.200587 0.333370 0.241777 175 175 175
0.195298 0.335687 0.241742 177 177 177
0.150209 0.391173 0.241204 169 169 169
0.144991 0.393538 0.241169 162 162 162
0.140317 0.395189 0.241140 156 156 156
0.136510 0.395689 0.241122 152 152 152
0.133031 0.395755 0.241109 149 149 149
0.129686 0.395645 0.241097 149 149 149
0.126290 0.395610 0.241084 147 147 147
0.122898 0.395576 0.241071 146 146 146
0.119869 0.395054 0.241063 146 146 146
0.117059 0.394237 0.241058 146 146 146
0.114250 0.393422 0.241053 144 144 144
0.111323 0.392770 0.241046 144 144 144
0.108314 0.392234 0.241038 148 148 148
0.105724 0.391127 0.241035 150 150 150
0.102841 0.390423 0.241029 159 159 159
0.098703 0.391453 0.241007 162 162 162
0.094653 0.392370 0.240985 163 163 163
0.088053 0.396828 0.240931 166 166 166
0.082478 0.399891 0.240889 173 173 173
0.076544 0.403469 0.240843 175 175 175
0.071788 0.405429 0.240812 168 168 168
0.067356 0.406950 0.240785 164 164 164
0.063683 0.407420 0.240768 159 159 159
0.060016 0.407891 0.240751 156 156 156
0.056471 0.408199 0.240736 152 152 152
0.053381 0.407872 0.240726 150 150 150
0.050429 0.407354 0.240718 147 147 147
0.047444 0.406888 0.240710 143 143 143
0.044460 0.406423 0.240702 139 139 139
0.041533 0.405882 0.240694 138 138 138
0.038792 0.405080 0.240689 138 138 138
0.036053 0.404277 0.240684 138 138 138
0.033325 0.403460 0.240679 138 138 138
0.030585 0.402664 0.240674 138 138 138
0.028015 0.401626 0.240671 138 138 138
0.025445 0.400588 0.240668 138 138 138
0.022844 0.399597 0.240664 138 138 138
0.020187 0.398689 0.240660 138 138 138
0.017552 0.397750 0.240656 138 138 138
0.014924 0.396803 0.240653 138 138 138
0.012297 0.395857 0.240649 138 138 138
0.009671 0.394910 0.240645 138 138 138
0.007120 0.393856 0.240642 138 138 138
0.004685 0.392634 0.240641 138 138 138
0.002251 0.391411 0.240640 138 138 138
-0.000217 0.390239 0.240638 138 138 138
-0.002746 0.389157 0.240636 138 138 138
-0.005410 0.388275 0.240631 138 138 138
-0.008091 0.387420 0.240627 138 138 138
-0.010753 0.386540 0.240623 138 138 138
-0.013349 0.385564 0.240619 138 138 138
-0.015997 0.384667 0.240615 138 138 138
-0.018582 0.383678 0.240612 138 138 138
-0.021047 0.382510 0.240610 138 138 138
-0.023609 0.381489 0.240607 138 138 138
-0.026052 0.380291 0.240605 138 138 138
-0.028387 0.378931 0.240606 138 138 138
-0.030722 0.377571 0.240606 138 138 138
-0.033057 0.376211 0.240606 138 138 138
-0.035386 0.374841 0.240606 138 138 138
-0.037654 0.373378 0.240607 138 138 138
-0.039922 0.371915 0.240608 138 138 138
-0.042190 0.370451 0.240609 138 138 138
-0.044443 0.368964 0.240610 138 138 138
-0.046685 0.367459 0.240612 138 138 138
-0.048978 0.366034 0.240612 138 138 138
-0.051324 0.364689 0.240612 138 138 138
-0.053802 0.363547 0.240610 138 138 138
-0.056286 0.362415 0.240608 138 138 138
-0.058944 0.361555 0.240604 138 138 138
-0.061614 0.360715 0.240599 138 138 138
-0.064245 0.359818 0.240595 139 139 139
-0.066850 0.358881 0.240591 144 144 144
-0.069716 0.358355 0.240584 147 147 147
-0.072629 0.357906 0.240576 149 149 149
-0.076108 0.358352 0.240560 151 151 151
-0.079724 0.359020 0.240541 151 151 151
-0.083187 0.359457 0.240525 153 153 153
-0.087298 0.360927 0.240500 153 153 153
-0.091675 0.362833 0.240471 156 156 156
-0.097481 0.367024 0.240421 163 163 163
-0.102821 0.370499 0.240378 171 171 171
-0.107671 0.373212 0.240342 173 173 173
-0.111352 0.374073 0.240322 172 172 172
-0.114485 0.374064 0.240310 169 169 169
-0.117618 0.374062 0.240298 167 167 167
-0.120821 0.374177 0.240285 165 165 165
-0.123980 0.374230 0.240273 163 163 163
-0.127006 0.374073 0.240262 161 161 161
-0.129944 0.373779 0.240253 160 160 160
-0.132692 0.373179 0.240247 158 158 158
-0.135528 0.372727 0.240239 157 157 157
-0.138045 0.371757 0.240236 156 156 156
-0.140561 0.370788 0.240232 155 155 155
-0.143035 0.369752 0.240230 154 154 154
-0.145509 0.368716 0.240227 153 153 153
-0.147761 0.367317 0.240228 152 152 152
-0.149887 0.365707 0.240230 152 152 152
-0.152013 0.364097 0.240233 151 151 151
-0.154140 0.362487 0.240236 150 150 150
-0.156265 0.360874 0.240238 149 149 149
-0.158145 0.358849 0.240244 148 148 148
-0.159867 0.356557 0.240253 148 148 148
-0.161591 0.354264 0.240261 148 148 148
-0.163316 0.351969 0.240270 148 148 148
-0.165043 0.349671 0.240278 148 148 148
-0.166724 0.347293 0.240288 148 148 148
-0.168692 0.345394 0.240293 149 149 149
-0.170651 0.343477 0.240298 150 150 150
-0.172601 0.341544 0.240303 151 151 151
-0.174604 0.339696 0.240308 151 151 151
-0.176838 0.338241 0.240309 152 152 152
-0.179072 0.336786 0.240310 152 152 152
-0.181319 0.335353 0.240311 152 152 152
-0.183570 0.333926 0.240312 152 152 152
-0.185903 0.332639 0.240311 152 152 152
-0.188298 0.331459 0.240310 153 153 153
-0.190776 0.330425 0.240307 153 153 153
-0.193259 0.329401 0.240305 153 153 153
-0.195757 0.328403 0.240302 153 153 153
-0.198185 0.327286 0.240300 152 152 152
-0.200634 0.326207 0.240298 151 151 151
-0.203083 0.325127 0.240295 150 150 150
-0.205531 0.324049 0.240293 149 149 149
-0.207929 0.322882 0.240292 149 149 149
-0.210296 0.321663 0.240291 149 149 149
-0.212409 0.319993 0.240294 147 147 147
-0.214522 0.318323 0.240297 146 146 146
-0.216647 0.316673 0.240300 145 145 145
-0.218910 0.315267 0.240300 141 141 141
-0.221198 0.313904 0.240301 141 141 141
-0.223498 0.312564 0.240301 140 140 140
-0.225824 0.311270 0.240300 140 140 140
-0.227995 0.309697 0.240302 140 140 140
-0.230215 0.308212 0.240304 139 139 139
-0.232436 0.306727 0.240305 139 139 139
-0.234573 0.305088 0.240308 138 138 138
-0.236653 0.303347 0.240311 138 138 138
-0.238836 0.301789 0.240313 138 138 138
-0.241071 0.300327 0.240314 138 138 138
-0.243280 0.298815 0.240316 138 138 138
-0.245476 0.297279 0.240318 138 138 138
-0.247715 0.295822 0.240319 138 138 138
-0.249958 0.294370 0.240320 138 138 138
-0.252160 0.292842 0.240322 138 138 138
-0.254369 0.291328 0.240323 138 138 138
-0.256597 0.289845 0.240324 138 138 138
-0.258868 0.288444 0.240325 138 138 138
-0.261204 0.287164 0.240325 138 138 138
-0.263540 0.285883 0.240324 138 138 138
-0.265876 0.284603 0.240324 138 138 138
-0.268259 0.283409 0.240322 138 138 138
-0.270764 0.282450 0.240319 138 138 138
-0.273269 0.281491 0.240316 138 138 138
-0.275768 0.280521 0.240313 138 138 138
-0.278260 0.279542 0.240310 138 138 138
-0.280709 0.278480 0.240308 138 138 138
-0.283165 0.277435 0.240305 138 138 138
-0.285626 0.276399 0.240303 138 138 138
-0.288037 0.275271 0.240301 138 138 138
-0.290297 0.273854 0.240302 138 138 138
-0.292520 0.272362 0.240303 138 138 138
-0.294713 0.270814 0.240305 138 138 138
-0.296907 0.269265 0.240307 138 138 138
-0.299101 0.267716 0.240309 138 138 138
-0.301269 0.266116 0.240311 138 138 138
-0.303394 0.264429 0.240314 138 138 138
-0.305530 0.262763 0.240317 138 138 138
-0.307668 0.261100 0.240320 138 138 138
-0.309783 0.259388 0.240323 138 138 138
-0.311756 0.257395 0.240328 138 138 138
-0.313730 0.255401 0.240334 138 138 138
-0.315699 0.253394 0.240340 138 138 138
-0.317640 0.251327 0.240346 138 138 138
-0.319519 0.249133 0.240353 138 138 138
-0.321277 0.246694 0.240363 138 138 138
-0.323037 0.244253 0.240372 138 138 138
-0.324799 0.241809 0.240381 138 138 138
-0.326799 0.239839 0.240387 138 138 138
-0.328575 0.237414 0.240396 144 144 144
-0.330304 0.234889 0.240406 144 144 144
-0.332036 0.232362 0.240416 144 144 144
-0.333781 0.229857 0.240426 144 144 144
-0.335657 0.227614 0.240434 144 144 144
-0.337165 0.224612 0.240448 146 146 146
-0.338515 0.221280 0.240465 147 147 147
-0.339898 0.218004 0.240481 148 148 148
-0.341343 0.214846 0.240496 148 148 148
-0.342215 0.210495 0.240522 147 147 147
-0.343122 0.206203 0.240546 145 145 145
-0.344373 0.202606 0.240565 145 145 145
-0.345586 0.198920 0.240585 144 144 144
-0.346797 0.195219 0.240605 145 145 145
-0.347997 0.191481 0.240625 146 146 146
-0.348915 0.187141 0.240650 147 147 147
-0.349754 0.182617 0.240677 147 147 147
-0.350575 0.178039 0.240704 146 146 146
-0.350882 0.172358 0.240740 144 144 144
-0.351170 0.166616 0.240777 143 143 143
-0.351493 0.160923 0.240813 138 138 138
-0.352081 0.155772 0.240845 138 138 138
-0.352605 0.150464 0.240878 138 138 138
-0.353447 0.145816 0.240905 138 138 138
-0.354105 0.140757 0.240936 138 138 138
-0.354154 0.134366 0.240978 138 138 138
-0.354182 0.127902 0.241020 138 138 138
-0.354350 0.121716 0.241060 138 138 138
-0.354333 0.115102 0.241104 138 138 138
-0.353530 0.106749 0.241162 138 138 138
-0.352689 0.098276 0.241221 138 138 138
-0.353097 0.092498 0.241258 138 138 138
-0.353878 0.087513 0.241288 138 138 138
-0.354829 0.082885 0.241314 138 138 138
-0.356038 0.078807 0.241337 138 138 138
-0.357250 0.074721 0.241359 138 138 138
-0.358198 0.070035 0.241386 138 138 138
-0.359218 0.065494 0.241412 138 138 138
-0.360337 0.061155 0.241437 138 138 138
-0.361887 0.057763 0.241453 138 138 138
-0.363566 0.054648 0.241467 138 138 138
-0.365407 0.051890 0.241478 138 138 138
-0.367386 0.049436 0.241487 138 138 138
-0.369374 0.046995 0.241496 138 138 138
-0.371398 0.044630 0.241504 138 138 138
-0.373098 0.041526 0.241517 138 138 138
-0.374726 0.038246 0.241533 138 138 138
-0.376357 0.034962 0.241548 138 138 138
-0.376825 0.029005 0.241586 138 138 138
-0.377090 0.022558 0.241627 138 138 138
-0.376611 0.014366 0.241683 138 138 138
-0.376331 0.006597 0.241735 138 138 138
-0.376014 -0.001293 0.241789 138 138 138
-0.375785 -0.009014 0.241840 142 142 142
-0.375508 -0.016882 0.241893 150 150 150
-0.374899 -0.025561 0.241953 158 158 158
-0.373266 -0.036679 0.242032 164 164 164
-0.370902 -0.049569 0.242126 163 163 163
-0.370027 -0.059017 0.242192 161 161 161
-0.369879 -0.066791 0.242244 156 156 156
-0.370342 -0.073154 0.242284 150 150 150
-0.371207 -0.078587 0.242316 149 149 149
-0.372057 -0.084080 0.242349 148 148 148
-0.372889 -0.089638 0.242383 147 147 147
-0.373469 -0.095825 0.242421 141 141 141
-0.373754 -0.102746 0.242466 139 139 139
-0.374371 -0.108897 0.242504 140 140 140
-0.375058 -0.114907 0.242541 142 142 142
-0.375656 -0.121157 0.242580 145 145 145
-0.376004 -0.128045 0.242624 149 149 149
-0.376110 -0.135550 0.242673 153 153 153
-0.375306 -0.145316 0.242740 164 164 164
0.283582 0.252495 0.239653 143 143 143
0.271890 0.263005 0.239555 184 184 184
0.264285 0.268174 0.239500 189 189 189
0.215392 0.327936 0.238998 181 181 181
0.209342 0.331217 0.238960 178 178 178
0.204463 0.332964 0.238934 175 175 175
0.199421 0.334940 0.238906 174 174 174
0.156444 0.387486 0.238465 176 176 176
0.149880 0.391630 0.238419 169 169 169
0.144152 0.394679 0.238383 162 162 162
0.139786 0.395920 0.238362 155 155 155
0.136225 0.396090 0.238349 151 151 151
0.132703 0.396214 0.238337 148 148 148
0.129410 0.396036 0.238327 147 147 147
0.126120 0.395857 0.238317 146 146 146
0.122835 0.395679 0.238307 146 146 146
0.119620 0.395409 0.238298 144 144 144
0.116682 0.394768 0.238292 144 144 144
0.113732 0.394146 0.238286 145 145 145
0.110441 0.393992 0.238276 147 147 147
0.107139 0.393860 0.238266 150 150 150
0.104446 0.392897 0.238262 155 155 155
0.100464 0.393709 0.238245 158 158 158
0.096147 0.394992 0.238223 161 161 161
0.091006 0.397426 0.238192 165 165 165
0.085659 0.400160 0.238159 172 172 172
0.079840 0.403566 0.238121 174 174 174
0.075356 0.405136 0.238097 170 170 170
0.070796 0.406826 0.238072 165 165 165
0.066553 0.408086 0.238051 159 159 159
0.062886 0.408550 0.238036 153 153 153
0.059548 0.408562 0.238025 151 151 151
0.056311 0.408438 0.238015 149 149 149
0.053243 0.408080 0.238007 147 147 147
0.050296 0.407557 0.238000 144 144 144
0.047348 0.407039 0.237994 140 140 140
0.044401 0.406521 0.237987 138 138 138
0.041446 0.406021 0.237980 138 138 138
0.038667 0.405272 0.237975 138 138 138
0.035979 0.404397 0.237971 138 138 138
0.033250 0.403582 0.237967 138 138 138
0.030458 0.402859 0.237962 138 138 138
0.027805 0.401941 0.237958 138 138 138
0.025194 0.400962 0.237955 138 138 138
0.022537 0.400053 0.237952 138 138 138
0.019881 0.399144 0.237948 138 138 138
0.017235 0.398222 0.237945 138 138 138
0.014608 0.397275 0.237942 138 138 138
0.012192 0.396022 0.237941 138 138 138
0.009850 0.394662 0.237941 138 138 138
0.007498 0.393317 0.237941 138 138 138
0.005064 0.392091 0.237940 138 138 138
0.002629 0.390868 0.237939 138 138 138
0.000140 0.389725 0.237937 138 138 138
-0.002385 0.388635 0.237935 138 138 138
-0.004950 0.387607 0.237932 138 138 138
-0.007632 0.386752 0.237928 138 138 138
-0.010312 0.385897 0.237924 138 138 138
-0.012991 0.385042 0.237920 138 138 138
-0.015381 0.383760 0.237920 138 138 138
-0.017879 0.382638 0.237918 138 138 138
-0.020337 0.381458 0.237917 138 138 138
-0.022795 0.380278 0.237915 138 138 138
-0.025309 0.379184 0.237913 138 138 138
-0.027750 0.377981 0.237912 138 138 138
-0.030186 0.376771 0.237911 138 138 138
-0.032538 0.375434 0.237911 138 138 138
-0.034874 0.374074 0.237911 138 138 138
-0.037175 0.372659 0.237911 138 138 138
-0.039443 0.371195 0.237912 138 138 138
-0.041712 0.369731 0.237913 138 138 138
-0.044031 0.368343 0.237913 138 138 138
-0.046463 0.367128 0.237912 138 138 138
-0.048862 0.365864 0.237912 138 138 138
-0.051340 0.364722 0.237910 138 138 138
-0.053818 0.363580 0.237908 138 138 138
-0.056295 0.362438 0.237907 138 138 138
-0.058879 0.361463 0.237904 138 138 138
-0.061549 0.360622 0.237900 138 138 138
-0.064218 0.359783 0.237896 140 140 140
-0.066885 0.358943 0.237892 146 146 146
-0.069940 0.358714 0.237883 150 150 150
-0.073565 0.359381 0.237867 153 153 153
-0.077183 0.360049 0.237852 153 153 153
-0.080795 0.360715 0.237836 152 152 152
-0.084777 0.361975 0.237816 152 152 152
-0.089295 0.364094 0.237789 153 153 153
-0.094573 0.367436 0.237752 153 153 153
-0.100371 0.371625 0.237709 168 168 168
-0.104943 0.373886 0.237681 174 174 174
-0.108828 0.375065 0.237662 172 172 172
-0.112347 0.375672 0.237647 168 168 168
-0.115494 0.375688 0.237636 166 166 166
-0.118666 0.375753 0.237625 163 163 163
-0.121866 0.375868 0.237614 162 162 162
-0.124937 0.375781 0.237605 160 160 160
-0.127697 0.375196 0.237599 158 158 158
-0.130445 0.374596 0.237593 157 157 157
-0.133226 0.374053 0.237587 156 156 156
