ply
format ascii 1.0
element vertex 1164
property float x
property float y
property float z
property uchar red
property uchar green
property uchar blue
end_header
-0.181102 -0.030819 -0.413873 138 138 138
-0.179911 -0.035045 -0.414575 138 138 138
-0.178687 -0.039299 -0.415286 138 138 138
-0.176169 -0.044387 -0.416340 138 138 138
-0.172860 -0.049992 -0.417604 138 138 138
-0.166647 -0.057471 -0.419639 138 138 138
-0.157678 -0.066744 -0.422407 138 138 138
-0.147794 -0.076636 -0.425420 138 138 138
-0.142532 -0.083579 -0.427212 138 138 138
-0.139028 -0.089404 -0.428538 138 138 138
-0.135738 -0.095106 -0.429810 138 138 138
-0.132532 -0.100766 -0.431061 138 138 138
-0.129427 -0.106375 -0.432287 138 138 138
-0.125807 -0.112334 -0.433651 138 138 138
-0.122412 -0.118160 -0.434957 138 138 138
-0.119061 -0.123972 -0.436253 138 138 138
-0.115171 -0.130152 -0.437694 138 138 138
-0.111835 -0.135984 -0.438989 138 138 138
-0.108258 -0.141988 -0.440350 138 138 138
-0.102011 -0.149774 -0.442426 100 100 100
0.062965 0.214914 -0.436662 138 138 138
0.055446 0.215203 -0.435170 138 138 138
0.047760 0.215588 -0.433635 138 138 138
0.043638 0.214255 -0.432984 138 138 138
0.039616 0.212881 -0.432357 138 138 138
0.035923 0.211352 -0.431812 138 138 138
0.033064 0.209420 -0.431474 138 138 138
0.030183 0.207502 -0.431129 138 138 138
0.027782 0.205352 -0.430904 138 138 138
0.025637 0.203076 -0.430743 138 138 138
0.023559 0.200770 -0.430598 138 138 138
0.021482 0.198465 -0.430453 138 138 138
0.019406 0.196160 -0.430308 138 138 138
0.017233 0.193906 -0.430139 138 138 138
0.014827 0.191770 -0.429911 138 138 138
0.012354 0.189669 -0.429667 138 138 138
0.009482 0.187772 -0.429322 138 138 138
0.005537 0.186419 -0.428708 138 138 138
0.001355 0.185193 -0.428033 138 138 138
-0.004472 0.184807 -0.426945 138 138 138
-0.012155 0.185375 -0.425390 138 138 138
-0.021387 0.186748 -0.423444 138 138 138
-0.029666 0.187654 -0.421736 138 138 138
-0.036525 0.187852 -0.420382 138 138 138
-0.041698 0.187198 -0.419451 138 138 138
-0.047044 0.186642 -0.418476 138 138 138
-0.051101 0.185432 -0.417824 138 138 138
-0.054869 0.184079 -0.417244 138 138 138
-0.058611 0.182718 -0.416670 138 138 138
-0.061463 0.180902 -0.416320 138 138 138
-0.064371 0.179117 -0.415955 138 138 138
-0.067377 0.177388 -0.415565 138 138 138
-0.070332 0.175637 -0.415188 138 138 138
-0.073255 0.173872 -0.414819 138 138 138
-0.076177 0.172110 -0.414449 138 138 138
-0.079261 0.170438 -0.414038 138 138 138
-0.082385 0.168791 -0.413616 138 138 138
-0.085369 0.167074 -0.413229 138 138 138
-0.088437 0.165407 -0.412820 138 138 138
-0.091507 0.163744 -0.412411 138 138 138
-0.094574 0.162084 -0.412001 138 138 138
-0.097760 0.160492 -0.411561 138 138 138
-0.100658 0.158750 -0.411194 138 138 138
-0.103475 0.156969 -0.410847 138 138 138
-0.106290 0.155189 -0.410500 138 138 138
-0.108919 0.153314 -0.410199 138 138 138
-0.111069 0.151181 -0.410021 138 138 138
-0.113075 0.148972 -0.409879 138 138 138
-0.114992 0.146716 -0.409760 138 138 138
-0.116909 0.144461 -0.409641 138 138 138
-0.118721 0.142150 -0.409548 138 138 138
-0.120377 0.139754 -0.409495 138 138 138
-0.121779 0.137219 -0.409507 138 138 138
-0.123182 0.134685 -0.409519 138 138 138
-0.124584 0.132150 -0.409530 138 138 138
-0.126125 0.129691 -0.409507 138 138 138
-0.127736 0.127273 -0.409465 138 138 138
-0.128773 0.124534 -0.409571 138 138 138
-0.129805 0.121792 -0.409678 138 138 138
-0.130901 0.119084 -0.409769 138 138 138
-0.132480 0.116647 -0.409735 138 138 138
-0.133947 0.114146 -0.409731 138 138 138
-0.134882 0.111347 -0.409863 138 138 138
-0.135939 0.108614 -0.409964 138 138 138
-0.137283 0.106043 -0.409991 138 138 138
-0.138626 0.103471 -0.410019 138 138 138
-0.139904 0.100862 -0.410063 138 138 138
-0.141181 0.098252 -0.410108 138 138 138
-0.142459 0.095642 -0.410152 138 138 138
-0.143900 0.093125 -0.410155 138 138 138
-0.145475 0.090685 -0.410123 138 138 138
-0.147022 0.088229 -0.410097 138 138 138
-0.148328 0.085634 -0.410135 138 138 138
-0.149697 0.083076 -0.410156 138 138 138
-0.151271 0.080636 -0.410124 138 138 138
-0.152846 0.078196 -0.410091 138 138 138
-0.154157 0.075604 -0.410127 138 138 138
-0.155365 0.072951 -0.410190 138 138 138
-0.156391 0.070190 -0.410300 138 138 138
-0.157447 0.067446 -0.410403 138 138 138
-0.158433 0.064660 -0.410524 138 138 138
-0.159116 0.061693 -0.410724 138 138 138
-0.159798 0.058725 -0.410924 138 138 138
-0.160481 0.055754 -0.411124 138 138 138
-0.161118 0.052754 -0.411337 138 138 138
-0.161613 0.049667 -0.411587 138 138 138
-0.162156 0.046606 -0.411824 138 138 138
-0.162823 0.043617 -0.412030 138 138 138
-0.163514 0.040640 -0.412229 138 138 138
-0.164217 0.037668 -0.412426 138 138 138
-0.164919 0.034693 -0.412623 138 138 138
-0.165845 0.031852 -0.412762 138 138 138
-0.166819 0.029038 -0.412888 138 138 138
-0.167712 0.026173 -0.413036 138 138 138
-0.168604 0.023307 -0.413184 138 138 138
-0.169499 0.020440 -0.413332 138 138 138
-0.170381 0.017564 -0.413483 138 138 138
-0.171364 0.014749 -0.413607 138 138 138
-0.172366 0.011943 -0.413727 138 138 138
-0.173396 0.009153 -0.413840 138 138 138
-0.174393 0.006342 -0.413962 138 138 138
-0.175298 0.003473 -0.414108 138 138 138
-0.176190 0.000594 -0.414257 138 138 138
-0.177109 -0.002270 -0.414400 138 138 138
-0.178028 -0.005135 -0.414542 138 138 138
-0.178889 -0.008038 -0.414701 138 138 138
-0.179481 -0.011111 -0.414930 138 138 138
-0.180067 -0.014190 -0.415161 138 138 138
-0.180544 -0.017340 -0.415422 138 138 138
-0.180323 -0.020932 -0.415867 138 138 138
-0.180213 -0.024459 -0.416284 138 138 138
-0.180206 -0.027926 -0.416674 138 138 138
-0.179327 -0.031949 -0.417295 138 138 138
-0.178133 -0.036179 -0.418001 138 138 138
-0.176403 -0.040758 -0.418850 138 138 138
-0.173144 -0.046322 -0.420107 138 138 138
-0.168320 -0.052900 -0.421780 138 138 138
-0.159098 -0.062315 -0.424626 138 138 138
-0.148500 -0.072645 -0.427841 138 138 138
-0.142047 -0.080342 -0.429956 138 138 138
-0.137694 -0.086706 -0.431514 138 138 138
-0.135172 -0.091904 -0.432587 138 138 138
-0.132454 -0.097241 -0.433712 138 138 138
-0.129466 -0.102764 -0.434911 138 138 138
-0.126117 -0.108537 -0.436209 138 138 138
-0.122317 -0.114617 -0.437628 138 138 138
-0.119204 -0.120265 -0.438865 138 138 138
-0.115932 -0.126030 -0.440146 138 138 138
-0.112418 -0.131968 -0.441494 138 138 138
-0.109397 -0.137596 -0.442711 138 138 138
-0.105227 -0.143996 -0.444238 138 138 138
0.058651 0.213661 -0.439005 138 138 138
0.050368 0.214331 -0.437315 138 138 138
0.044572 0.213809 -0.436243 138 138 138
0.040565 0.212426 -0.435617 138 138 138
0.036556 0.211050 -0.434990 138 138 138
0.033402 0.209262 -0.434576 138 138 138
0.030579 0.207315 -0.434245 138 138 138
0.028051 0.205226 -0.433987 138 138 138
0.025637 0.203084 -0.433758 138 138 138
0.023600 0.200757 -0.433623 138 138 138
0.021564 0.198431 -0.433487 138 138 138
0.019529 0.196106 -0.433352 138 138 138
0.017471 0.193794 -0.433211 138 138 138
0.014921 0.191729 -0.432946 138 138 138
0.012448 0.189629 -0.432701 138 138 138
0.009996 0.187520 -0.432460 138 138 138
0.006709 0.185835 -0.432009 138 138 138
0.002538 0.184601 -0.431334 138 138 138
-0.001638 0.183377 -0.430657 138 138 138
-0.008956 0.183756 -0.429188 138 138 138
-0.017507 0.184778 -0.427405 138 138 138
-0.026480 0.186033 -0.425514 138 138 138
-0.033679 0.186401 -0.424068 138 138 138
-0.039872 0.186266 -0.422876 138 138 138
-0.045103 0.185649 -0.421925 138 138 138
-0.049895 0.184815 -0.421084 138 138 138
-0.053702 0.183481 -0.420492 138 138 138
-0.057473 0.182134 -0.419908 138 138 138
-0.060822 0.180573 -0.419431 138 138 138
-0.063747 0.178797 -0.419060 138 138 138
-0.066756 0.177068 -0.418668 138 138 138
-0.069754 0.175338 -0.418278 138 138 138
-0.072735 0.173603 -0.417893 138 138 138
-0.075620 0.171821 -0.417531 138 138 138
-0.078403 0.169990 -0.417194 138 138 138
-0.081480 0.168317 -0.416782 138 138 138
-0.084395 0.166562 -0.416411 138 138 138
-0.087511 0.164918 -0.415989 138 138 138
-0.090759 0.163349 -0.415532 138 138 138
-0.093826 0.161688 -0.415121 138 138 138
-0.097033 0.160107 -0.414673 138 138 138
-0.100145 0.158479 -0.414250 138 138 138
-0.102963 0.156697 -0.413901 138 138 138
-0.105689 0.154868 -0.413575 138 138 138
-0.108215 0.152936 -0.413300 138 138 138
-0.110492 0.150871 -0.413088 138 138 138
-0.112432 0.148625 -0.412963 138 138 138
-0.114350 0.146369 -0.412843 138 138 138
-0.116267 0.144113 -0.412723 138 138 138
-0.118155 0.141843 -0.412611 138 138 138
-0.119597 0.139329 -0.412612 138 138 138
-0.121000 0.136793 -0.412624 138 138 138
-0.122402 0.134257 -0.412636 138 138 138
-0.123793 0.131714 -0.412651 138 138 138
-0.125183 0.129172 -0.412667 138 138 138
-0.126200 0.126421 -0.412778 138 138 138
-0.127243 0.123684 -0.412883 138 138 138
-0.128287 0.120946 -0.412988 138 138 138
-0.129331 0.118207 -0.413092 138 138 138
-0.130308 0.115430 -0.413214 138 138 138
-0.131204 0.112606 -0.413358 138 138 138
-0.132101 0.109780 -0.413501 138 138 138
-0.133210 0.107073 -0.413590 138 138 138
-0.134353 0.104385 -0.413669 138 138 138
-0.135637 0.101775 -0.413713 138 138 138
-0.136920 0.099165 -0.413756 138 138 138
-0.138203 0.096554 -0.413800 138 138 138
-0.139487 0.093943 -0.413844 138 138 138
-0.140885 0.091397 -0.413858 138 138 138
-0.142487 0.088968 -0.413819 138 138 138
-0.144089 0.086540 -0.413780 138 138 138
-0.145691 0.084112 -0.413741 138 138 138
-0.147322 0.081701 -0.413694 138 138 138
-0.148876 0.079246 -0.413667 138 138 138
-0.150654 0.076921 -0.413583 138 138 138
-0.152215 0.074471 -0.413554 138 138 138
-0.153453 0.071833 -0.413610 138 138 138
-0.154772 0.069241 -0.413644 138 138 138
-0.155944 0.066563 -0.413717 138 138 138
-0.157014 0.063824 -0.413817 138 138 138
-0.157831 0.060935 -0.413983 138 138 138
-0.158527 0.057972 -0.414181 138 138 138
-0.159222 0.055007 -0.414379 138 138 138
-0.159871 0.052012 -0.414590 138 138 138
-0.160511 0.049010 -0.414803 138 138 138
-0.161197 0.046033 -0.415004 138 138 138
-0.161944 0.043089 -0.415190 138 138 138
-0.162701 0.040151 -0.415373 138 138 138
-0.163403 0.037177 -0.415571 138 138 138
-0.164105 0.034201 -0.415769 138 138 138
-0.164882 0.031268 -0.415948 138 138 138
-0.165698 0.028357 -0.416117 138 138 138
-0.166498 0.025434 -0.416290 138 138 138
-0.167372 0.022555 -0.416444 138 138 138
-0.168248 0.019675 -0.416597 138 138 138
-0.169209 0.016845 -0.416728 138 138 138
-0.170192 0.014028 -0.416854 138 138 138
-0.171175 0.011209 -0.416979 138 138 138
-0.172204 0.008417 -0.417093 138 138 138
-0.173186 0.005595 -0.417219 138 138 138
-0.174055 0.002701 -0.417376 138 138 138
-0.174959 -0.000172 -0.417523 138 138 138
-0.175837 -0.003063 -0.417677 138 138 138
-0.176687 -0.005974 -0.417839 138 138 138
-0.177546 -0.008880 -0.417999 138 138 138
-0.178341 -0.011828 -0.418176 138 138 138
-0.178914 -0.014917 -0.418412 138 138 138
-0.179124 -0.018236 -0.418744 138 138 138
-0.179116 -0.021696 -0.419136 138 138 138
-0.179107 -0.025161 -0.419528 138 138 138
-0.178742 -0.028856 -0.420015 138 138 138
-0.177528 -0.033094 -0.420729 138 138 138
-0.176238 -0.037388 -0.421464 138 138 138
-0.173334 -0.042717 -0.422630 138 138 138
-0.169862 -0.048421 -0.423950 138 138 138
-0.161791 -0.057080 -0.426499 138 138 138
-0.149493 -0.068476 -0.430180 138 138 138
-0.141781 -0.076967 -0.432640 138 138 138
-0.136970 -0.083616 -0.434327 138 138 138
-0.134347 -0.088872 -0.435430 138 138 138
-0.132078 -0.093911 -0.436440 138 138 138
-0.129459 -0.099188 -0.437545 138 138 138
-0.126585 -0.104642 -0.438720 138 138 138
-0.122625 -0.110817 -0.440187 138 138 138
-0.119137 -0.116699 -0.441530 138 138 138
-0.115398 -0.122761 -0.442942 138 138 138
-0.112681 -0.128168 -0.444080 138 138 138
-0.110217 -0.133421 -0.445152 138 138 138
-0.106270 -0.139662 -0.446625 138 138 138
-0.097298 -0.149236 -0.449453 100 100 100
0.054258 0.212453 -0.441322 138 138 138
0.045623 0.213306 -0.439533 138 138 138
0.041390 0.212032 -0.438848 138 138 138
0.037269 0.210710 -0.438190 138 138 138
0.033655 0.209145 -0.437659 138 138 138
0.030864 0.207183 -0.437334 138 138 138
0.028311 0.205106 -0.437069 138 138 138
0.025788 0.203016 -0.436811 138 138 138
0.023551 0.200789 -0.436625 138 138 138
0.021514 0.198463 -0.436489 138 138 138
0.019480 0.196137 -0.436353 138 138 138
0.017366 0.193853 -0.436198 138 138 138
0.015014 0.191689 -0.435982 138 138 138
0.012543 0.189587 -0.435735 138 138 138
0.010091 0.187479 -0.435493 138 138 138
0.007613 0.185386 -0.435245 138 138 138
0.003722 0.184009 -0.434638 138 138 138
-0.000612 0.182863 -0.433919 138 138 138
-0.005881 0.182199 -0.432961 138 138 138
-0.014380 0.183191 -0.431184 138 138 138
-0.022842 0.184182 -0.429414 138 138 138
-0.030944 0.185006 -0.427733 138 138 138
-0.037651 0.185132 -0.426405 138 138 138
-0.043159 0.184654 -0.425380 138 138 138
-0.048164 0.183928 -0.424482 138 138 138
-0.052486 0.182857 -0.423756 138 138 138
-0.056289 0.181525 -0.423161 138 138 138
-0.060074 0.180189 -0.422571 138 138 138
-0.063124 0.178477 -0.422167 138 138 138
-0.066055 0.176707 -0.421793 138 138 138
-0.068734 0.174809 -0.421483 138 138 138
-0.071496 0.172957 -0.421151 138 138 138
-0.074235 0.171096 -0.420825 138 138 138
-0.077027 0.169268 -0.420485 138 138 138
-0.080504 0.167804 -0.419969 138 138 138
-0.083420 0.166049 -0.419596 138 138 138
-0.086573 0.164424 -0.419163 138 138 138
-0.089978 0.162937 -0.418664 138 138 138
-0.093084 0.161296 -0.418241 138 138 138
-0.096306 0.159721 -0.417788 138 138 138
-0.099524 0.158148 -0.417335 138 138 138
-0.102311 0.156349 -0.416993 138 138 138
-0.104859 0.154424 -0.416711 138 138 138
-0.107386 0.152490 -0.416435 138 138 138
-0.109800 0.150499 -0.416187 138 138 138
-0.111708 0.148235 -0.416069 138 138 138
-0.113598 0.145962 -0.415956 138 138 138
-0.115486 0.143689 -0.415843 138 138 138
-0.117085 0.141259 -0.415805 138 138 138
-0.118590 0.138778 -0.415791 138 138 138
-0.119981 0.136234 -0.415806 138 138 138
-0.121371 0.133691 -0.415821 138 138 138
-0.122762 0.131147 -0.415836 138 138 138
-0.123730 0.128368 -0.415961 138 138 138
-0.124526 0.125493 -0.416131 138 138 138
-0.125322 0.122616 -0.416300 138 138 138
-0.126350 0.119866 -0.416410 138 138 138
-0.127202 0.117017 -0.416565 138 138 138
-0.127855 0.114055 -0.416772 138 138 138
-0.128730 0.111215 -0.416922 138 138 138
-0.129605 0.108374 -0.417072 138 138 138
-0.130503 0.105545 -0.417216 138 138 138
-0.131457 0.102745 -0.417345 138 138 138
-0.132681 0.100097 -0.417405 138 138 138
-0.133968 0.097485 -0.417449 138 138 138
-0.135253 0.094872 -0.417492 138 138 138
-0.136741 0.092373 -0.417484 138 138 138
-0.138292 0.089911 -0.417458 138 138 138
-0.139863 0.087461 -0.417428 138 138 138
-0.141467 0.085030 -0.417388 138 138 138
-0.143084 0.082607 -0.417345 138 138 138
-0.144830 0.080259 -0.417269 138 138 138
-0.146710 0.077989 -0.417157 138 138 138
-0.148544 0.075694 -0.417058 138 138 138
-0.150277 0.073342 -0.416984 138 138 138
-0.151537 0.070713 -0.417035 138 138 138
-0.152858 0.068120 -0.417069 138 138 138
-0.154186 0.065530 -0.417102 138 138 138
-0.155484 0.062923 -0.417143 138 138 138
-0.156514 0.060157 -0.417254 138 138 138
-0.157209 0.057192 -0.417453 138 138 138
-0.157870 0.054205 -0.417661 138 138 138
-0.158488 0.051189 -0.417881 138 138 138
-0.159094 0.048165 -0.418105 138 138 138
-0.159806 0.045201 -0.418301 138 138 138
-0.160445 0.042191 -0.418516 138 138 138
-0.161069 0.039171 -0.418735 138 138 138
-0.161812 0.036219 -0.418924 138 138 138
-0.162594 0.033289 -0.419102 138 138 138
-0.163291 0.030305 -0.419303 138 138 138
-0.164122 0.027401 -0.419469 138 138 138
-0.164979 0.024511 -0.419627 138 138 138
-0.165872 0.021640 -0.419777 138 138 138
-0.166897 0.018849 -0.419892 138 138 138
-0.167901 0.016044 -0.420013 138 138 138
-0.168898 0.013233 -0.420135 138 138 138
-0.169895 0.010420 -0.420258 138 138 138
-0.170871 0.007594 -0.420387 138 138 138
-0.171811 0.004744 -0.420525 138 138 138
-0.172773 0.001906 -0.420657 138 138 138
-0.173635 -0.000995 -0.420817 138 138 138
-0.174487 -0.003905 -0.420979 138 138 138
-0.175342 -0.006814 -0.421141 138 138 138
-0.176201 -0.009722 -0.421301 138 138 138
-0.177061 -0.012632 -0.421462 138 138 138
-0.177727 -0.015664 -0.421674 138 138 138
-0.177938 -0.018985 -0.422008 138 138 138
-0.178015 -0.022394 -0.422379 138 138 138
-0.178001 -0.025864 -0.422774 138 138 138
-0.176906 -0.030022 -0.423459 138 138 138
-0.175616 -0.034310 -0.424197 138 138 138
-0.173447 -0.039165 -0.425171 138 138 138
-0.170082 -0.044792 -0.426467 138 138 138
-0.163153 -0.052707 -0.428720 138 138 138
-0.150999 -0.063987 -0.432377 138 138 138
-0.141676 -0.073492 -0.435279 138 138 138
-0.137162 -0.079939 -0.436892 138 138 138
-0.133630 -0.085772 -0.438244 138 138 138
-0.131537 -0.090691 -0.439211 138 138 138
-0.129067 -0.095865 -0.440280 138 138 138
-0.126379 -0.101191 -0.441409 138 138 138
-0.123265 -0.106805 -0.442654 138 138 138
-0.119144 -0.113090 -0.444172 138 138 138
-0.115841 -0.118857 -0.445472 138 138 138
-0.112646 -0.124567 -0.446744 138 138 138
-0.109913 -0.129989 -0.447892 138 138 138
-0.107042 -0.135513 -0.449080 138 138 138
-0.103075 -0.141773 -0.450565 100 100 100
0.049504 0.211427 -0.443540 138 138 138
0.042322 0.211585 -0.442108 138 138 138
0.038234 0.210245 -0.441456 138 138 138
0.034102 0.208934 -0.440792 138 138 138
0.031148 0.207050 -0.440424 138 138 138
0.028595 0.204973 -0.440158 138 138 138
0.026043 0.202897 -0.439891 138 138 138
0.023590 0.200776 -0.439649 138 138 138
0.021465 0.198494 -0.439491 138 138 138
0.019392 0.196188 -0.439345 138 138 138
0.017261 0.193912 -0.439184 138 138 138
0.015108 0.191649 -0.439017 138 138 138
0.012638 0.189546 -0.438770 138 138 138
0.010185 0.187438 -0.438527 138 138 138
0.007640 0.185378 -0.438260 138 138 138
0.004394 0.183675 -0.437815 138 138 138
-0.000238 0.182680 -0.437016 138 138 138
-0.004671 0.181591 -0.436267 138 138 138
-0.011417 0.181688 -0.434929 138 138 138
-0.019778 0.182623 -0.433177 138 138 138
-0.028229 0.183622 -0.431400 138 138 138
-0.035039 0.183797 -0.430040 138 138 138
-0.041212 0.183658 -0.428840 138 138 138
-0.046224 0.182932 -0.427936 138 138 138
-0.051198 0.182196 -0.427041 138 138 138
-0.055075 0.180901 -0.426425 138 138 138
-0.058667 0.179463 -0.425882 138 138 138
-0.061837 0.177811 -0.425445 138 138 138
-0.064354 0.175823 -0.425176 138 138 138
-0.066883 0.173844 -0.424903 138 138 138
-0.070108 0.172233 -0.424451 138 138 138
-0.072848 0.170371 -0.424123 138 138 138
-0.075648 0.168544 -0.423780 138 138 138
-0.079189 0.167113 -0.423246 138 138 138
-0.082445 0.165536 -0.422784 138 138 138
-0.085634 0.163928 -0.422339 138 138 138
-0.089042 0.162442 -0.421837 138 138 138
-0.092355 0.160910 -0.421359 138 138 138
-0.095476 0.159280 -0.420930 138 138 138
-0.098492 0.157598 -0.420528 138 138 138
-0.101371 0.155846 -0.420160 138 138 138
-0.103823 0.153868 -0.419902 138 138 138
-0.106272 0.151891 -0.419645 138 138 138
-0.108652 0.149879 -0.419405 138 138 138
-0.110866 0.147780 -0.419208 138 138 138
-0.112757 0.145506 -0.419094 138 138 138
-0.114390 0.143093 -0.419047 138 138 138
-0.115913 0.140620 -0.419028 138 138 138
-0.117435 0.138147 -0.419010 138 138 138
-0.118948 0.135668 -0.418994 138 138 138
-0.120339 0.133123 -0.419009 138 138 138
-0.121405 0.130398 -0.419109 138 138 138
-0.122200 0.127522 -0.419279 138 138 138
-0.122997 0.124645 -0.419449 138 138 138
-0.123830 0.121787 -0.419610 138 138 138
-0.124480 0.118824 -0.419819 138 138 138
-0.124856 0.115706 -0.420099 138 138 138
-0.125494 0.112732 -0.420312 138 138 138
-0.126281 0.109840 -0.420485 138 138 138
-0.127194 0.107016 -0.420626 138 138 138
-0.128148 0.104215 -0.420757 138 138 138
-0.129103 0.101413 -0.420887 138 138 138
-0.130059 0.098610 -0.421018 138 138 138
-0.131085 0.095845 -0.421130 138 138 138
-0.132638 0.093380 -0.421105 138 138 138
-0.134191 0.090915 -0.421079 138 138 138
-0.135744 0.088451 -0.421053 138 138 138
-0.137297 0.085987 -0.421028 138 138 138
-0.138849 0.083522 -0.421002 138 138 138
-0.140722 0.081243 -0.420893 138 138 138
-0.142605 0.078971 -0.420780 138 138 138
-0.144487 0.076699 -0.420668 138 138 138
-0.146368 0.074429 -0.420556 138 138 138
-0.148228 0.072147 -0.420449 138 138 138
-0.149620 0.069592 -0.420465 138 138 138
-0.150949 0.067001 -0.420498 138 138 138
-0.152277 0.064409 -0.420531 138 138 138
-0.153606 0.061817 -0.420564 138 138 138
-0.154936 0.059225 -0.420597 138 138 138
-0.155859 0.056393 -0.420737 138 138 138
-0.156464 0.053370 -0.420962 138 138 138
-0.157069 0.050345 -0.421186 138 138 138
-0.157706 0.047337 -0.421403 138 138 138
-0.158367 0.044340 -0.421613 138 138 138
-0.158975 0.041310 -0.421838 138 138 138
-0.159585 0.038279 -0.422062 138 138 138
-0.160195 0.035245 -0.422287 138 138 138
-0.160845 0.032233 -0.422501 138 138 138
-0.161517 0.029232 -0.422710 138 138 138
-0.162282 0.026285 -0.422894 138 138 138
-0.163147 0.023397 -0.423052 138 138 138
-0.164184 0.020612 -0.423165 138 138 138
-0.165271 0.017855 -0.423264 138 138 138
-0.166357 0.015098 -0.423364 138 138 138
-0.167379 0.012300 -0.423480 138 138 138
-0.168360 0.009475 -0.423608 138 138 138
-0.169337 0.006647 -0.423737 138 138 138
-0.170356 0.003843 -0.423855 138 138 138
-0.171332 0.001012 -0.423985 138 138 138
-0.172225 -0.001872 -0.424137 138 138 138
-0.173261 -0.004669 -0.424251 138 138 138
-0.174209 -0.007523 -0.424389 138 138 138
-0.175053 -0.010442 -0.424554 138 138 138
-0.175898 -0.013363 -0.424720 138 138 138
-0.176217 -0.016614 -0.425026 138 138 138
-0.176467 -0.019913 -0.425352 138 138 138
-0.176717 -0.023215 -0.425678 138 138 138
-0.176374 -0.026894 -0.426164 138 138 138
-0.175092 -0.031173 -0.426902 138 138 138
-0.173788 -0.035473 -0.427648 138 138 138
-0.170217 -0.041222 -0.429004 138 138 138
-0.165090 -0.047975 -0.430780 138 138 138
-0.154079 -0.058501 -0.434144 138 138 138
-0.143272 -0.068933 -0.437456 138 138 138
-0.137639 -0.076085 -0.439377 138 138 138
-0.133071 -0.082573 -0.441014 138 138 138
-0.130818 -0.087589 -0.442027 138 138 138
-0.128675 -0.092544 -0.443012 138 138 138
-0.126269 -0.097680 -0.444069 138 138 138
-0.123956 -0.102767 -0.445103 138 138 138
-0.120463 -0.108632 -0.446456 138 138 138
-0.116275 -0.114965 -0.448000 138 138 138
-0.112881 -0.120795 -0.449331 138 138 138
-0.109991 -0.126311 -0.450526 138 138 138
-0.107230 -0.131754 -0.451688 138 138 138
-0.103567 -0.137803 -0.453097 138 138 138
0.054556 0.208978 -0.447852 100 100 100
0.043397 0.211069 -0.445407 138 138 138
0.039200 0.209781 -0.444724 138 138 138
0.035056 0.208474 -0.444054 138 138 138
0.031433 0.206918 -0.443515 138 138 138
0.028879 0.204840 -0.443247 138 138 138
0.026327 0.202764 -0.442980 138 138 138
0.023777 0.200691 -0.442712 138 138 138
0.021442 0.198513 -0.442499 138 138 138
0.019283 0.196249 -0.442331 138 138 138
0.017149 0.193975 -0.442168 138 138 138
0.014984 0.191718 -0.441998 138 138 138
0.012449 0.189648 -0.441733 138 138 138
0.009841 0.187617 -0.441449 138 138 138
0.007235 0.185589 -0.441165 138 138 138
0.004631 0.183562 -0.440882 138 138 138
0.000175 0.182477 -0.440125 138 138 138
-0.004286 0.181401 -0.439365 138 138 138
-0.009974 0.180959 -0.438291 138 138 138
-0.016936 0.181177 -0.436890 138 138 138
-0.025809 0.182388 -0.434997 138 138 138
-0.032731 0.182617 -0.433603 138 138 138
-0.039073 0.182562 -0.432355 138 138 138
-0.044327 0.181959 -0.431385 138 138 138
-0.049221 0.181179 -0.430506 138 138 138
-0.053172 0.179919 -0.429869 138 138 138
-0.056537 0.178361 -0.429381 138 138 138
-0.059804 0.176757 -0.428918 138 138 138
-0.062621 0.174923 -0.428571 138 138 138
-0.065138 0.172935 -0.428300 138 138 138
-0.068257 0.171265 -0.427874 138 138 138
-0.071468 0.169649 -0.427424 138 138 138
-0.074268 0.167821 -0.427079 138 138 138
-0.077812 0.166389 -0.426542 138 138 138
-0.081351 0.164960 -0.426005 138 138 138
-0.084695 0.163433 -0.425518 138 138 138
-0.087935 0.161856 -0.425058 138 138 138
-0.091016 0.160198 -0.424638 138 138 138
-0.094086 0.158539 -0.424220 138 138 138
-0.096950 0.156773 -0.423855 138 138 138
-0.099856 0.155034 -0.423479 138 138 138
-0.102705 0.153268 -0.423118 138 138 138
-0.105156 0.151291 -0.422859 138 138 138
-0.107503 0.149259 -0.422627 138 138 138
-0.109766 0.147185 -0.422416 138 138 138
-0.111723 0.144946 -0.422285 138 138 138
-0.113247 0.142472 -0.422266 138 138 138
-0.114771 0.139997 -0.422247 138 138 138
-0.116296 0.137524 -0.422228 138 138 138
-0.117819 0.135050 -0.422209 138 138 138
-0.119118 0.132452 -0.422249 138 138 138
-0.119954 0.129598 -0.422409 138 138 138
-0.120791 0.126743 -0.422570 138 138 138
-0.121628 0.123886 -0.422730 138 138 138
-0.122367 0.120973 -0.422917 138 138 138
-0.122744 0.117856 -0.423198 138 138 138
-0.123120 0.114736 -0.423480 138 138 138
-0.123501 0.111616 -0.423761 138 138 138
-0.124001 0.108559 -0.424011 138 138 138
-0.124889 0.105719 -0.424159 138 138 138
-0.125861 0.102924 -0.424286 138 138 138
-0.126834 0.100129 -0.424413 138 138 138
-0.127885 0.097376 -0.424519 138 138 138
-0.129097 0.094714 -0.424584 138 138 138
-0.130309 0.092052 -0.424648 138 138 138
-0.131676 0.089478 -0.424671 138 138 138
-0.133231 0.087010 -0.424646 138 138 138
-0.134918 0.084620 -0.424585 138 138 138
-0.136764 0.082321 -0.424482 138 138 138
-0.138609 0.080023 -0.424380 138 138 138
-0.140472 0.077736 -0.424273 138 138 138
-0.142346 0.075457 -0.424162 138 138 138
-0.144219 0.073179 -0.424052 138 138 138
-0.146145 0.070932 -0.423928 138 138 138
-0.148023 0.068659 -0.423816 138 138 138
-0.149386 0.066085 -0.423840 138 138 138
-0.150748 0.063511 -0.423865 138 138 138
-0.152110 0.060936 -0.423889 138 138 138
-0.153457 0.058352 -0.423918 138 138 138
-0.154365 0.055508 -0.424063 138 138 138
-0.155037 0.052523 -0.424271 138 138 138
-0.155648 0.049500 -0.424495 138 138 138
-0.156287 0.046491 -0.424712 138 138 138
-0.156895 0.043461 -0.424938 138 138 138
-0.157431 0.040385 -0.425183 138 138 138
-0.157951 0.037298 -0.425433 138 138 138
-0.158521 0.034237 -0.425670 138 138 138
-0.159137 0.031202 -0.425894 138 138 138
-0.159754 0.028165 -0.426119 138 138 138
-0.160439 0.025167 -0.426326 138 138 138
-0.161452 0.022367 -0.426445 138 138 138
-0.162539 0.019609 -0.426545 138 138 138
-0.163607 0.016839 -0.426650 138 138 138
-0.164649 0.014052 -0.426762 138 138 138
-0.165743 0.011296 -0.426860 138 138 138
-0.166917 0.008587 -0.426937 138 138 138
-0.167936 0.005782 -0.427056 138 138 138
-0.168955 0.002976 -0.427175 138 138 138
-0.169885 0.000115 -0.427318 138 138 138
-0.170915 -0.002687 -0.427434 138 138 138
-0.171960 -0.005481 -0.427546 138 138 138
-0.173005 -0.008275 -0.427659 138 138 138
-0.173931 -0.011146 -0.427803 138 138 138
-0.174401 -0.014303 -0.428071 138 138 138
-0.174756 -0.017534 -0.428369 138 138 138
-0.175234 -0.020692 -0.428635 138 138 138
-0.175610 -0.023916 -0.428929 138 138 138
-0.174437 -0.028121 -0.429641 138 138 138
-0.173260 -0.032336 -0.430355 138 138 138
-0.170466 -0.037583 -0.431506 138 138 138
-0.166723 -0.043446 -0.432916 138 138 138
-0.156460 -0.053474 -0.436090 138 138 138
-0.144877 -0.064377 -0.439624 138 138 138
-0.138787 -0.071807 -0.441677 138 138 138
-0.133665 -0.078637 -0.443469 138 138 138
-0.129829 -0.084661 -0.444915 138 138 138
-0.128006 -0.089405 -0.445817 138 138 138
-0.125807 -0.094401 -0.446822 138 138 138
-0.123935 -0.099195 -0.447740 138 138 138
-0.120996 -0.104692 -0.448948 138 138 138
-0.117750 -0.110401 -0.450242 138 138 138
-0.113480 -0.116791 -0.451815 138 138 138
-0.110098 -0.122618 -0.453149 138 138 138
-0.107175 -0.128160 -0.454360 138 138 138
-0.104243 -0.133720 -0.455574 138 138 138
-0.100854 -0.139593 -0.456915 100 100 100
0.048050 0.208809 -0.449619 138 138 138
0.040167 0.209316 -0.447995 138 138 138
0.036011 0.208014 -0.447319 138 138 138
0.031870 0.206710 -0.446646 138 138 138
0.029143 0.204717 -0.446333 138 138 138
0.026561 0.202656 -0.446056 138 138 138
0.023981 0.200596 -0.445780 138 138 138
0.021371 0.198555 -0.445495 138 138 138
0.019160 0.196317 -0.445313 138 138 138
0.017025 0.194043 -0.445150 138 138 138
0.014733 0.191850 -0.444946 138 138 138
0.012279 0.189739 -0.444701 138 138 138
0.009671 0.187709 -0.444415 138 138 138
0.007064 0.185681 -0.444130 138 138 138
0.004212 0.183780 -0.443782 138 138 138
0.000193 0.182473 -0.443133 138 138 138
-0.004229 0.181378 -0.442381 138 138 138
-0.009084 0.180511 -0.441516 138 138 138
-0.015461 0.180430 -0.440258 138 138 138
-0.023302 0.181111 -0.438623 138 138 138
-0.030294 0.181373 -0.437204 138 138 138
-0.036750 0.181372 -0.435922 138 138 138
-0.042312 0.180925 -0.434868 138 138 138
-0.046453 0.179753 -0.434180 138 138 138
-0.050586 0.178583 -0.433494 138 138 138
-0.054382 0.177246 -0.432893 138 138 138
-0.057695 0.175663 -0.432416 138 138 138
-0.060616 0.173880 -0.432041 138 138 138
-0.063406 0.172032 -0.431699 138 138 138
-0.066404 0.170297 -0.431302 138 138 138
-0.069631 0.168686 -0.430846 138 138 138
-0.072850 0.167077 -0.430391 138 138 138
-0.076132 0.165504 -0.429920 138 138 138
-0.079408 0.163934 -0.429449 138 138 138
-0.082798 0.162429 -0.428948 138 138 138
-0.085840 0.160743 -0.428537 138 138 138
-0.088878 0.159060 -0.428127 138 138 138
-0.092443 0.157663 -0.427579 138 138 138
-0.095406 0.155948 -0.427187 138 138 138
-0.098317 0.154209 -0.426808 138 138 138
-0.101316 0.152522 -0.426406 138 138 138
-0.104039 0.150690 -0.426076 138 138 138
-0.106351 0.148638 -0.425851 138 138 138
-0.108401 0.146445 -0.425696 138 138 138
-0.110396 0.144225 -0.425554 138 138 138
-0.112251 0.141930 -0.425449 138 138 138
-0.113777 0.139455 -0.425430 138 138 138
-0.115301 0.136980 -0.425411 138 138 138
-0.116689 0.134430 -0.425427 138 138 138
-0.117670 0.131656 -0.425551 138 138 138
-0.118586 0.128844 -0.425691 138 138 138
-0.119423 0.125987 -0.425853 138 138 138
-0.120254 0.123125 -0.426016 138 138 138
-0.120629 0.120007 -0.426299 138 138 138
-0.121035 0.116904 -0.426574 138 138 138
-0.121443 0.113799 -0.426849 138 138 138
-0.121880 0.110707 -0.427117 138 138 138
-0.122443 0.107684 -0.427352 138 138 138
-0.123048 0.104682 -0.427576 138 138 138
-0.123654 0.101678 -0.427800 138 138 138
-0.124688 0.098914 -0.427911 138 138 138
-0.125901 0.096251 -0.427976 138 138 138
-0.127145 0.093604 -0.428032 138 138 138
-0.128389 0.090957 -0.428089 138 138 138
-0.129634 0.088310 -0.428145 138 138 138
-0.131043 0.085757 -0.428158 138 138 138
-0.132873 0.083445 -0.428060 138 138 138
-0.134703 0.081134 -0.427961 138 138 138
-0.136532 0.078824 -0.427863 138 138 138
-0.138370 0.076520 -0.427762 138 138 138
-0.140227 0.074228 -0.427656 138 138 138
-0.142208 0.072009 -0.427517 138 138 138
-0.144188 0.069791 -0.427378 138 138 138
-0.146166 0.067573 -0.427239 138 138 138
-0.147938 0.065237 -0.427155 138 138 138
-0.149366 0.062699 -0.427163 138 138 138
-0.150719 0.060116 -0.427190 138 138 138
-0.151805 0.057377 -0.427289 138 138 138
-0.152747 0.054550 -0.427426 138 138 138
-0.153494 0.051607 -0.427615 138 138 138
-0.154149 0.048608 -0.427829 138 138 138
-0.154638 0.045507 -0.428087 138 138 138
-0.155157 0.042422 -0.428338 138 138 138
-0.155677 0.039334 -0.428589 138 138 138
-0.156231 0.036264 -0.428831 138 138 138
-0.156847 0.033229 -0.429056 138 138 138
-0.157449 0.030183 -0.429286 138 138 138
-0.157926 0.027059 -0.429550 138 138 138
-0.158483 0.023981 -0.429792 138 138 138
-0.159567 0.021221 -0.429893 138 138 138
-0.160610 0.018433 -0.430006 138 138 138
-0.161651 0.015644 -0.430119 138 138 138
-0.162759 0.012895 -0.430214 138 138 138
-0.164010 0.010231 -0.430271 138 138 138
-0.165260 0.007567 -0.430328 138 138 138
-0.166511 0.004903 -0.430385 138 138 138
-0.167550 0.002107 -0.430499 138 138 138
-0.168557 -0.000709 -0.430622 138 138 138
-0.169602 -0.003504 -0.430735 138 138 138
-0.170640 -0.006304 -0.430850 138 138 138
-0.171668 -0.009111 -0.430968 138 138 138
-0.172643 -0.011953 -0.431100 138 138 138
-0.173342 -0.014968 -0.431307 138 138 138
-0.173820 -0.018125 -0.431574 138 138 138
-0.174297 -0.021284 -0.431842 138 138 138
-0.173652 -0.025153 -0.432413 138 138 138
-0.172511 -0.029340 -0.433120 138 138 138
-0.170964 -0.033792 -0.433938 138 138 138
-0.167135 -0.039699 -0.435376 138 138 138
-0.158245 -0.048835 -0.438189 138 138 138
-0.146496 -0.059821 -0.441783 138 138 138
-0.139967 -0.067515 -0.443962 138 138 138
-0.134795 -0.074365 -0.445774 138 138 138
-0.130151 -0.080895 -0.447446 138 138 138
-0.127287 -0.086300 -0.448634 138 138 138
-0.125368 -0.091109 -0.449567 138 138 138
-0.123659 -0.095793 -0.450443 138 138 138
-0.121412 -0.100834 -0.451468 138 138 138
-0.119326 -0.105781 -0.452450 138 138 138
-0.115585 -0.111814 -0.453884 138 138 138
-0.111504 -0.118084 -0.455414 138 138 138
-0.107770 -0.124144 -0.456850 138 138 138
-0.105152 -0.129489 -0.457983 138 138 138
-0.101707 -0.135389 -0.459344 138 138 138
0.051962 0.206909 -0.453652 100 100 100
0.041303 0.208768 -0.451311 138 138 138
0.036985 0.207544 -0.450591 138 138 138
0.032921 0.206201 -0.449935 138 138 138
0.029474 0.204562 -0.449436 138 138 138
0.026892 0.202500 -0.449158 138 138 138
0.024180 0.200505 -0.448847 138 138 138
0.021381 0.198557 -0.448513 138 138 138
0.019036 0.196386 -0.448295 138 138 138
0.016890 0.194117 -0.448128 138 138 138
0.014482 0.191982 -0.447894 138 138 138
0.012076 0.189848 -0.447659 138 138 138
0.009501 0.187801 -0.447381 138 138 138
0.006766 0.185838 -0.447062 138 138 138
0.003792 0.183998 -0.446680 138 138 138
0.000212 0.182470 -0.446142 138 138 138
-0.004124 0.181331 -0.445408 138 138 138
-0.008433 0.180186 -0.444680 138 138 138
-0.014577 0.179984 -0.443478 138 138 138
-0.020859 0.179866 -0.442238 138 138 138
-0.028242 0.180325 -0.440712 138 138 138
-0.034423 0.180181 -0.439496 138 138 138
-0.039599 0.179530 -0.438538 138 138 138
-0.044183 0.178584 -0.437732 138 138 138
-0.047881 0.177186 -0.437155 138 138 138
-0.051951 0.175988 -0.436481 138 138 138
-0.055582 0.174567 -0.435921 138 138 138
-0.058507 0.172783 -0.435543 138 138 138
-0.061428 0.171001 -0.435165 138 138 138
-0.064172 0.169130 -0.434833 138 138 138
-0.067185 0.167404 -0.434431 138 138 138
-0.070185 0.165675 -0.434031 138 138 138
-0.073135 0.163923 -0.433645 138 138 138
-0.076649 0.162475 -0.433110 138 138 138
-0.080199 0.161051 -0.432566 138 138 138
-0.083695 0.159604 -0.432035 138 138 138
-0.086737 0.157920 -0.431622 138 138 138
-0.090292 0.156514 -0.431075 138 138 138
-0.093860 0.155122 -0.430523 138 138 138
-0.096776 0.153383 -0.430142 138 138 138
-0.099778 0.151695 -0.429737 138 138 138
-0.102675 0.149955 -0.429360 138 138 138
-0.104924 0.147867 -0.429151 138 138 138
-0.106952 0.145661 -0.429001 138 138 138
-0.108940 0.143435 -0.428861 138 138 138
-0.110928 0.141210 -0.428721 138 138 138
-0.112780 0.138912 -0.428616 138 138 138
-0.114243 0.136402 -0.428613 138 138 138
-0.115225 0.133627 -0.428737 138 138 138
-0.116206 0.130850 -0.428861 138 138 138
-0.117188 0.128073 -0.428985 138 138 138
-0.118053 0.125230 -0.429140 138 138 138
-0.118589 0.122202 -0.429382 138 138 138
-0.118976 0.119088 -0.429663 138 138 138
-0.119384 0.115984 -0.429939 138 138 138
-0.119802 0.112882 -0.430213 138 138 138
-0.120292 0.109818 -0.430468 138 138 138
-0.120883 0.106808 -0.430697 138 138 138
-0.121488 0.103804 -0.430922 138 138 138
-0.122191 0.100852 -0.431122 138 138 138
-0.123176 0.098058 -0.431248 138 138 138
-0.124249 0.095314 -0.431350 138 138 138
-0.125494 0.092665 -0.431406 138 138 138
-0.126739 0.090016 -0.431463 138 138 138
-0.128176 0.087477 -0.431469 138 138 138
-0.129520 0.084884 -0.431499 138 138 138
-0.131029 0.082386 -0.431486 138 138 138
-0.132820 0.080050 -0.431398 138 138 138
-0.134651 0.077738 -0.431299 138 138 138
-0.136499 0.075437 -0.431195 138 138 138
-0.138359 0.073144 -0.431088 138 138 138
-0.140235 0.070861 -0.430977 138 138 138
-0.142221 0.068644 -0.430836 138 138 138
-0.144207 0.066428 -0.430695 138 138 138
-0.146187 0.064211 -0.430555 138 138 138
-0.147842 0.061803 -0.430503 138 138 138
-0.149209 0.059227 -0.430526 138 138 138
-0.150151 0.056400 -0.430664 138 138 138
-0.151092 0.053571 -0.430802 138 138 138
-0.151948 0.050690 -0.430963 138 138 138
-0.152457 0.047601 -0.431218 138 138 138
-0.152952 0.044502 -0.431476 138 138 138
-0.153439 0.041395 -0.431737 138 138 138
-0.153881 0.038258 -0.432010 138 138 138
-0.154347 0.035133 -0.432277 138 138 138
-0.154823 0.032011 -0.432542 138 138 138
-0.155298 0.028886 -0.432807 138 138 138
-0.155816 0.025783 -0.433061 138 138 138
-0.156450 0.022749 -0.433284 138 138 138
-0.157535 0.019985 -0.433386 138 138 138
-0.158620 0.017221 -0.433488 138 138 138
-0.159774 0.014497 -0.433571 138 138 138
-0.161028 0.011834 -0.433628 138 138 138
-0.162282 0.009170 -0.433684 138 138 138
-0.163537 0.006506 -0.433741 138 138 138
-0.164792 0.003842 -0.433797 138 138 138
-0.166041 0.001173 -0.433856 138 138 138
-0.167172 -0.001569 -0.433946 138 138 138
-0.168199 -0.004377 -0.434064 138 138 138
-0.169226 -0.007185 -0.434183 138 138 138
-0.170261 -0.009990 -0.434300 138 138 138
-0.171129 -0.012901 -0.434462 138 138 138
-0.171973 -0.015828 -0.434630 138 138 138
-0.172798 -0.018769 -0.434804 138 138 138
-0.172874 -0.022182 -0.435183 138 138 138
-0.171808 -0.026318 -0.435872 138 138 138
-0.170740 -0.030462 -0.436562 138 138 138
-0.166874 -0.036383 -0.438016 138 138 138
-0.159896 -0.044291 -0.440319 138 138 138
-0.148579 -0.054979 -0.443808 138 138 138
-0.141225 -0.063181 -0.446220 138 138 138
-0.136003 -0.070050 -0.448053 138 138 138
-0.131113 -0.076725 -0.449798 138 138 138
-0.127261 -0.082753 -0.451261 138 138 138
-0.124832 -0.087882 -0.452336 138 138 138
-0.123243 -0.092483 -0.453183 138 138 138
-0.121649 -0.097095 -0.454032 138 138 138
-0.119690 -0.101953 -0.454983 138 138 138
-0.117227 -0.107148 -0.456073 138 138 138
-0.113394 -0.113243 -0.457539 138 138 138
-0.109219 -0.119578 -0.459102 138 138 138
-0.106258 -0.125137 -0.460333 138 138 138
-0.102557 -0.131193 -0.461769 138 138 138
-0.098927 -0.137218 -0.463188 100 100 100
0.043993 0.207461 -0.455030 138 138 138
0.037971 0.207068 -0.453868 138 138 138
0.033972 0.205692 -0.453226 138 138 138
0.030035 0.204293 -0.452599 138 138 138
0.027112 0.202399 -0.452232 138 138 138
0.024310 0.200448 -0.451897 138 138 138
0.021511 0.198499 -0.451561 138 138 138
0.018913 0.196454 -0.451277 138 138 138
0.016639 0.194249 -0.451076 138 138 138
0.014231 0.192114 -0.450841 138 138 138
0.011825 0.189980 -0.450606 138 138 138
0.009322 0.187898 -0.450345 138 138 138
0.006381 0.186038 -0.449971 138 138 138
0.003497 0.184153 -0.449611 138 138 138
0.000283 0.182440 -0.449165 138 138 138
-0.003970 0.181259 -0.448449 138 138 138
-0.008280 0.180113 -0.447718 138 138 138
-0.013786 0.179586 -0.446675 138 138 138
-0.019728 0.179292 -0.445518 138 138 138
-0.026086 0.179224 -0.444252 138 138 138
-0.032188 0.179036 -0.443051 138 138 138
-0.036965 0.178177 -0.442193 138 138 138
-0.041899 0.177408 -0.441293 138 138 138
-0.046075 0.176255 -0.440590 138 138 138
-0.049770 0.174859 -0.440010 138 138 138
-0.053362 0.173415 -0.439458 138 138 138
-0.055947 0.171451 -0.439167 138 138 138
-0.058510 0.169478 -0.438882 138 138 138
-0.060999 0.167469 -0.438615 138 138 138
-0.063478 0.165457 -0.438351 138 138 138
-0.066517 0.163744 -0.437940 138 138 138
-0.069797 0.162162 -0.437466 138 138 138
-0.073072 0.160583 -0.436992 138 138 138
-0.077070 0.159392 -0.436329 138 138 138
-0.081140 0.158246 -0.435646 138 138 138
-0.084592 0.156777 -0.435124 138 138 138
-0.088137 0.155364 -0.434577 138 138 138
-0.091766 0.154001 -0.434007 138 138 138
-0.095055 0.152460 -0.433526 138 138 138
-0.097806 0.150635 -0.433186 138 138 138
-0.100539 0.148803 -0.432850 138 138 138
-0.103269 0.146973 -0.432515 138 138 138
-0.105492 0.144870 -0.432313 138 138 138
-0.107481 0.142643 -0.432172 138 138 138
-0.109464 0.140413 -0.432032 138 138 138
-0.111354 0.138134 -0.431918 138 138 138
-0.112833 0.135631 -0.431911 138 138 138
-0.113822 0.132857 -0.432034 138 138 138
-0.114798 0.130076 -0.432160 138 138 138
-0.115774 0.127293 -0.432286 138 138 138
-0.116530 0.124388 -0.432471 138 138 138
-0.116949 0.121292 -0.432745 138 138 138
-0.117388 0.118205 -0.433014 138 138 138
-0.117798 0.115100 -0.433291 138 138 138
-0.118213 0.111995 -0.433567 138 138 138
-0.118717 0.108936 -0.433820 138 138 138
-0.119312 0.105926 -0.434049 138 138 138
-0.119936 0.102930 -0.434271 138 138 138
-0.120921 0.100136 -0.434397 138 138 138
-0.121905 0.097340 -0.434523 138 138 138
-0.122885 0.094540 -0.434651 138 138 138
-0.123840 0.091725 -0.434785 138 138 138
-0.125293 0.089192 -0.434787 138 138 138
-0.126711 0.086640 -0.434798 138 138 138
-0.128056 0.084045 -0.434829 138 138 138
-0.129401 0.081450 -0.434859 138 138 138
-0.131018 0.079012 -0.434818 138 138 138
-0.132801 0.076670 -0.434731 138 138 138
-0.134667 0.074377 -0.434623 138 138 138
-0.136526 0.072080 -0.434516 138 138 138
-0.138386 0.069786 -0.434408 138 138 138
-0.140304 0.067526 -0.434285 138 138 138
-0.142364 0.065351 -0.434124 138 138 138
-0.144436 0.063184 -0.433960 138 138 138
-0.146063 0.060758 -0.433915 138 138 138
-0.147340 0.058127 -0.433963 138 138 138
-0.148801 0.055603 -0.433962 138 138 138
-0.149723 0.052760 -0.434106 138 138 138
-0.150391 0.049766 -0.434319 138 138 138
-0.150874 0.046660 -0.434582 138 138 138
-0.151332 0.043536 -0.434851 138 138 138
-0.151785 0.040406 -0.435123 138 138 138
-0.152036 0.037152 -0.435449 138 138 138
-0.152323 0.033918 -0.435765 138 138 138
-0.152696 0.030731 -0.436060 138 138 138
-0.153181 0.027608 -0.436324 138 138 138
-0.153732 0.024523 -0.436570 138 138 138
-0.154414 0.021514 -0.436782 138 138 138
-0.155499 0.018748 -0.436884 138 138 138
-0.156628 0.016007 -0.436975 138 138 138
-0.157961 0.013390 -0.437011 138 138 138
-0.159294 0.010772 -0.437047 138 138 138
-0.160579 0.008125 -0.437095 138 138 138
-0.161835 0.005459 -0.437152 138 138 138
-0.163084 0.002789 -0.437211 138 138 138
-0.164332 0.000117 -0.437270 138 138 138
-0.165580 -0.002556 -0.437329 138 138 138
-0.166783 -0.005257 -0.437400 138 138 138
-0.167815 -0.008065 -0.437518 138 138 138
-0.168744 -0.010938 -0.437665 138 138 138
-0.169612 -0.013851 -0.437828 138 138 138
-0.170472 -0.016771 -0.437993 138 138 138
-0.171094 -0.019841 -0.438224 138 138 138
-0.170045 -0.023963 -0.438911 138 138 138
-0.169238 -0.027940 -0.439533 138 138 138
-0.166069 -0.033413 -0.440802 138 138 138
-0.160061 -0.040695 -0.442848 138 138 138
-0.149452 -0.050914 -0.446157 138 138 138
-0.141606 -0.059413 -0.448713 138 138 138
-0.137073 -0.065830 -0.450364 138 138 138
-0.132428 -0.072336 -0.452048 138 138 138
-0.127611 -0.078969 -0.453781 138 138 138
-0.124612 -0.084456 -0.455017 138 138 138
-0.122685 -0.089267 -0.455959 138 138 138
-0.121418 -0.093664 -0.456722 138 138 138
-0.119970 -0.098185 -0.457536 138 138 138
-0.117992 -0.103057 -0.458496 138 138 138
-0.115301 -0.108402 -0.459654 138 138 138
-0.111313 -0.114602 -0.461170 138 138 138
-0.107751 -0.120541 -0.462571 138 138 138
-0.104338 -0.126397 -0.463933 138 138 138
-0.099947 -0.132907 -0.465566 138 138 138
0.048947 0.205048 -0.459339 138 138 138
0.039126 0.206510 -0.457192 138 138 138
0.034980 0.205205 -0.456509 138 138 138
0.030998 0.203826 -0.455868 138 138 138
0.027312 0.202307 -0.455302 138 138 138
0.024489 0.200366 -0.454960 138 138 138
0.021669 0.198428 -0.454617 138 138 138
0.018848 0.196493 -0.454274 138 138 138
0.016423 0.194364 -0.454033 138 138 138
0.014038 0.192217 -0.453803 138 138 138
0.011655 0.190072 -0.453572 138 138 138
0.009135 0.187998 -0.453306 138 138 138
0.006287 0.186092 -0.452954 138 138 138
0.003403 0.184207 -0.452593 138 138 138
0.000104 0.182537 -0.452123 138 138 138
-0.003920 0.181239 -0.451464 138 138 138
-0.008127 0.180041 -0.450756 138 138 138
-0.012995 0.179188 -0.449875 138 138 138
-0.018744 0.178795 -0.448763 138 138 138
-0.023839 0.178076 -0.447821 138 138 138
-0.029215 0.177512 -0.446804 138 138 138
-0.034900 0.177117 -0.445706 138 138 138
-0.039630 0.176240 -0.444855 138 138 138
-0.043741 0.175050 -0.444166 138 138 138
-0.047169 0.173512 -0.443655 138 138 138
-0.050504 0.171930 -0.443167 138 138 138
-0.053001 0.169916 -0.442899 138 138 138
-0.055533 0.167923 -0.442621 138 138 138
-0.058008 0.165903 -0.442357 138 138 138
-0.060342 0.163811 -0.442130 138 138 138
-0.062718 0.161744 -0.441892 138 138 138
-0.065873 0.160091 -0.441449 138 138 138
-0.069337 0.158606 -0.440925 138 138 138
-0.072932 0.157196 -0.440365 138 138 138
-0.077147 0.156122 -0.439641 138 138 138
-0.081261 0.155002 -0.438943 138 138 138
-0.085227 0.153809 -0.438283 138 138 138
-0.088710 0.152364 -0.437750 138 138 138
-0.092181 0.150917 -0.437219 138 138 138
-0.095476 0.149381 -0.436735 138 138 138
-0.098220 0.147552 -0.436395 138 138 138
-0.100915 0.145700 -0.436067 138 138 138
-0.103743 0.143923 -0.435705 138 138 138
-0.105991 0.141833 -0.435495 138 138 138
-0.107786 0.139499 -0.435405 138 138 138
-0.109298 0.137011 -0.435390 138 138 138
-0.110809 0.134522 -0.435375 138 138 138
-0.112320 0.132033 -0.435360 138 138 138
-0.113483 0.129353 -0.435437 138 138 138
-0.114365 0.126517 -0.435589 138 138 138
-0.115127 0.123612 -0.435774 138 138 138
-0.115579 0.120533 -0.436041 138 138 138
-0.115997 0.117433 -0.436317 138 138 138
-0.116399 0.114321 -0.436597 138 138 138
-0.116791 0.111200 -0.436881 138 138 138
-0.117344 0.108167 -0.437122 138 138 138
-0.117802 0.105078 -0.437389 138 138 138
-0.118719 0.102245 -0.437534 138 138 138
-0.119695 0.099444 -0.437663 138 138 138
-0.120673 0.096642 -0.437792 138 138 138
-0.121650 0.093840 -0.437921 138 138 138
-0.122769 0.091116 -0.438012 138 138 138
-0.123987 0.088448 -0.438077 138 138 138
-0.125328 0.085849 -0.438109 138 138 138
-0.126693 0.083264 -0.438135 138 138 138
-0.128058 0.080679 -0.438161 138 138 138
-0.129543 0.078163 -0.438154 138 138 138
-0.131243 0.075770 -0.438090 138 138 138
-0.133058 0.073445 -0.437995 138 138 138
-0.134980 0.071183 -0.437871 138 138 138
-0.136901 0.068922 -0.437747 138 138 138
-0.138814 0.066658 -0.437625 138 138 138
-0.140746 0.064405 -0.437498 138 138 138
-0.142823 0.062239 -0.437331 138 138 138
-0.144664 0.059936 -0.437228 138 138 138
-0.145942 0.057303 -0.437277 138 138 138
-0.147220 0.054669 -0.437326 138 138 138
-0.148195 0.051856 -0.437457 138 138 138
-0.148856 0.048855 -0.437673 138 138 138
-0.149409 0.045788 -0.437918 138 138 138
-0.149866 0.042661 -0.438189 138 138 138
-0.150170 0.039441 -0.438502 138 138 138
-0.150416 0.036182 -0.438831 138 138 138
-0.150651 0.032913 -0.439164 138 138 138
-0.150944 0.029676 -0.439481 138 138 138
-0.151357 0.026507 -0.439766 138 138 138
-0.151770 0.023336 -0.440052 138 138 138
-0.152289 0.020226 -0.440309 138 138 138
-0.153455 0.017506 -0.440390 138 138 138
-0.154791 0.014888 -0.440426 138 138 138
-0.156126 0.012269 -0.440461 138 138 138
-0.157462 0.009650 -0.440497 138 138 138
-0.158797 0.007031 -0.440532 138 138 138
-0.160155 0.004425 -0.440562 138 138 138
-0.161406 0.001753 -0.440621 138 138 138
-0.162658 -0.000919 -0.440679 138 138 138
-0.163909 -0.003592 -0.440738 138 138 138
-0.165154 -0.006270 -0.440799 138 138 138
-0.166255 -0.009037 -0.440899 138 138 138
-0.167192 -0.011907 -0.441044 138 138 138
-0.168069 -0.014817 -0.441205 138 138 138
-0.168946 -0.017728 -0.441367 138 138 138
-0.168352 -0.021562 -0.441932 138 138 138
-0.167632 -0.025482 -0.442533 138 138 138
-0.166082 -0.029930 -0.443362 138 138 138
-0.159864 -0.037332 -0.445474 138 138 138
-0.148785 -0.047829 -0.448924 138 138 138
-0.142246 -0.055485 -0.451131 138 138 138
-0.137992 -0.061713 -0.452711 138 138 138
-0.133704 -0.067979 -0.454303 138 138 138
-0.128844 -0.074628 -0.456054 138 138 138
-0.124991 -0.080650 -0.457529 138 138 138
-0.122565 -0.085774 -0.458613 138 138 138
-0.121335 -0.090140 -0.459368 138 138 138
-0.120117 -0.094507 -0.460121 138 138 138
-0.118333 -0.099247 -0.461031 138 138 138
-0.115999 -0.104353 -0.462095 138 138 138
-0.113008 -0.109895 -0.463341 138 138 138
-0.109240 -0.115955 -0.464804 138 138 138
-0.105525 -0.121996 -0.466254 138 138 138
-0.101927 -0.127977 -0.467674 138 138 138
0.042983 0.204627 -0.461220 138 138 138
0.035928 0.204747 -0.459779 138 138 138
0.031861 0.203408 -0.459113 138 138 138
0.027786 0.202080 -0.458444 138 138 138
0.024691 0.200274 -0.458029 138 138 138
0.021850 0.198345 -0.457680 138 138 138
0.019011 0.196419 -0.457331 138 138 138
0.016382 0.194391 -0.457036 138 138 138
0.013997 0.192244 -0.456804 138 138 138
0.011538 0.190137 -0.456553 138 138 138
0.008942 0.188102 -0.456265 138 138 138
0.006193 0.186146 -0.455938 138 138 138
