ply
format ascii 1.0
element vertex 1154
property float x
property float y
property float z
property uchar red
property uchar green
property uchar blue
end_header
-0.162890 -0.104672 -0.371026 138 138 138
-0.160447 -0.107673 -0.371538 138 138 138
-0.157975 -0.110679 -0.372056 138 138 138
-0.155649 -0.113685 -0.372544 138 138 138
-0.153572 -0.116686 -0.372979 138 138 138
-0.151632 -0.119685 -0.373386 138 138 138
-0.149600 -0.122692 -0.373812 138 138 138
-0.147586 -0.125703 -0.374234 138 138 138
-0.145569 -0.128717 -0.374657 138 138 138
-0.143434 -0.131742 -0.375104 138 138 138
-0.142013 -0.134737 -0.375402 138 138 138
-0.140825 -0.137723 -0.375651 138 138 138
-0.139649 -0.140712 -0.375898 138 138 138
-0.138477 -0.143703 -0.376144 138 138 138
-0.137318 -0.146695 -0.376386 138 138 138
-0.136151 -0.149690 -0.376631 138 138 138
-0.135046 -0.152684 -0.376863 138 138 138
-0.134096 -0.155673 -0.377062 138 138 138
-0.133150 -0.158662 -0.377260 138 138 138
-0.132203 -0.161654 -0.377459 138 138 138
-0.131177 -0.164653 -0.377674 138 138 138
-0.130154 -0.167653 -0.377888 138 138 138
-0.129130 -0.170655 -0.378103 138 138 138
-0.128106 -0.173660 -0.378318 138 138 138
-0.126020 -0.176732 -0.378755 138 138 138
-0.123753 -0.179820 -0.379230 138 138 138
-0.121483 -0.182913 -0.379706 138 138 138
-0.117633 -0.186113 -0.380513 138 138 138
-0.111982 -0.189440 -0.381698 138 138 138
-0.101281 -0.193117 -0.383941 138 138 138
-0.076984 -0.197740 -0.389034 138 138 138
-0.057008 -0.202116 -0.393222 138 138 138
0.043477 0.218421 -0.417427 138 138 138
0.031224 0.214429 -0.414846 138 138 138
0.024231 0.210832 -0.413372 138 138 138
0.018437 0.207331 -0.412152 138 138 138
0.013598 0.203908 -0.411132 138 138 138
0.003042 0.200111 -0.408908 138 138 138
-0.042476 0.194031 -0.399319 138 138 138
-0.051434 0.190417 -0.397432 138 138 138
-0.058284 0.186957 -0.395989 138 138 138
-0.063951 0.183586 -0.394795 138 138 138
-0.068684 0.180283 -0.393798 138 138 138
-0.073948 0.176959 -0.392689 138 138 138
-0.079643 0.173619 -0.391490 138 138 138
-0.087595 0.170158 -0.389814 138 138 138
-0.096154 0.166679 -0.388011 138 138 138
-0.103557 0.163283 -0.386452 138 138 138
-0.109100 0.160006 -0.385284 138 138 138
-0.113498 0.156803 -0.384357 138 138 138
-0.117012 0.153656 -0.383617 138 138 138
-0.120267 0.150530 -0.382931 138 138 138
-0.122261 0.147476 -0.382511 138 138 138
-0.124225 0.144427 -0.382098 138 138 138
-0.126071 0.141388 -0.381709 138 138 138
-0.127584 0.138369 -0.381390 138 138 138
-0.129762 0.135322 -0.380931 138 138 138
-0.132219 0.132266 -0.380414 138 138 138
-0.134672 0.129216 -0.379897 138 138 138
-0.138111 0.126127 -0.379172 138 138 138
-0.142119 0.123020 -0.378328 138 138 138
-0.145848 0.119934 -0.377542 138 138 138
-0.149253 0.116868 -0.376825 138 138 138
-0.152582 0.113813 -0.376124 138 138 138
-0.155298 0.110788 -0.375552 138 138 138
-0.157376 0.107793 -0.375114 138 138 138
-0.159286 0.104809 -0.374711 138 138 138
-0.161104 0.101832 -0.374328 138 138 138
-0.162400 0.098877 -0.374056 138 138 138
-0.163652 0.095927 -0.373792 138 138 138
-0.164800 0.092982 -0.373550 138 138 138
-0.165917 0.090040 -0.373314 138 138 138
-0.167034 0.087101 -0.373079 138 138 138
-0.168076 0.084167 -0.372860 138 138 138
-0.169026 0.081237 -0.372660 138 138 138
-0.169973 0.078309 -0.372460 138 138 138
-0.170919 0.075384 -0.372261 138 138 138
-0.172103 0.072454 -0.372011 138 138 138
-0.173109 0.069531 -0.371799 138 138 138
-0.174101 0.066610 -0.371591 138 138 138
-0.175102 0.063691 -0.371380 138 138 138
-0.176103 0.060775 -0.371169 138 138 138
-0.176984 0.057863 -0.370983 138 138 138
-0.177616 0.054957 -0.370850 138 138 138
-0.178906 0.052041 -0.370578 138 138 138
-0.180143 0.049128 -0.370318 138 138 138
-0.181469 0.046216 -0.370038 138 138 138
-0.182510 0.043311 -0.369819 138 138 138
-0.183534 0.040409 -0.369603 138 138 138
-0.184558 0.037509 -0.369387 138 138 138
-0.185646 0.034610 -0.369158 138 138 138
-0.186862 0.031712 -0.368902 138 138 138
-0.188008 0.028818 -0.368661 138 138 138
-0.189154 0.025925 -0.368419 138 138 138
-0.190299 0.023035 -0.368178 138 138 138
-0.191447 0.020148 -0.367936 138 138 138
-0.192701 0.017262 -0.367672 138 138 138
-0.193733 0.014379 -0.367455 138 138 138
-0.194461 0.011500 -0.367301 138 138 138
-0.195189 0.008623 -0.367148 138 138 138
-0.195839 0.005747 -0.367011 138 138 138
-0.196404 0.002873 -0.366892 138 138 138
-0.196867 0.000000 -0.366794 138 138 138
-0.197157 -0.002872 -0.366733 138 138 138
-0.197551 -0.005744 -0.366650 138 138 138
-0.197916 -0.008615 -0.366573 138 138 138
-0.198247 -0.011485 -0.366504 138 138 138
-0.198607 -0.014354 -0.366428 138 138 138
-0.198937 -0.017223 -0.366358 138 138 138
-0.199214 -0.020092 -0.366300 138 138 138
-0.199504 -0.022959 -0.366239 138 138 138
-0.199793 -0.025827 -0.366178 138 138 138
-0.200073 -0.028693 -0.366119 138 138 138
-0.200214 -0.031561 -0.366089 138 138 138
-0.200361 -0.034428 -0.366058 138 138 138
-0.200534 -0.037295 -0.366022 138 138 138
-0.200645 -0.040162 -0.365998 138 138 138
-0.200276 -0.043037 -0.366076 138 138 138
-0.199842 -0.045913 -0.366168 138 138 138
-0.199350 -0.048791 -0.366271 138 138 138
-0.198685 -0.051674 -0.366411 138 138 138
-0.197425 -0.054569 -0.366677 138 138 138
-0.196178 -0.057467 -0.366940 138 138 138
-0.194931 -0.060367 -0.367202 138 138 138
-0.193046 -0.063285 -0.367599 138 138 138
-0.190903 -0.066212 -0.368051 138 138 138
-0.188756 -0.069144 -0.368503 138 138 138
-0.186533 -0.072082 -0.368971 138 138 138
-0.183781 -0.075039 -0.369551 138 138 138
-0.181244 -0.077996 -0.370086 138 138 138
-0.178704 -0.080958 -0.370621 138 138 138
-0.176403 -0.083918 -0.371105 138 138 138
-0.174098 -0.086883 -0.371591 138 138 138
-0.171795 -0.089853 -0.372076 138 138 138
-0.169767 -0.092818 -0.372503 138 138 138
-0.167951 -0.095780 -0.372886 138 138 138
-0.165997 -0.098751 -0.373298 138 138 138
-0.163753 -0.101737 -0.373770 138 138 138
-0.161296 -0.104735 -0.374288 138 138 138
-0.158791 -0.107739 -0.374816 138 138 138
-0.156220 -0.110752 -0.375357 138 138 138
-0.153741 -0.113766 -0.375880 138 138 138
-0.151413 -0.116779 -0.376370 138 138 138
-0.149372 -0.119785 -0.376800 138 138 138
-0.147319 -0.122795 -0.377233 138 138 138
-0.145183 -0.125814 -0.377683 138 138 138
-0.143199 -0.128829 -0.378100 138 138 138
-0.141523 -0.131835 -0.378453 138 138 138
-0.140032 -0.134835 -0.378768 138 138 138
-0.138329 -0.137849 -0.379126 138 138 138
-0.137007 -0.140847 -0.379405 138 138 138
-0.135915 -0.143837 -0.379635 138 138 138
-0.134956 -0.146822 -0.379837 138 138 138
-0.133997 -0.149809 -0.380039 138 138 138
-0.133166 -0.152790 -0.380214 138 138 138
-0.132060 -0.155789 -0.380447 138 138 138
-0.131112 -0.158781 -0.380647 138 138 138
-0.130164 -0.161775 -0.380847 138 138 138
-0.128960 -0.164786 -0.381100 138 138 138
-0.127734 -0.167801 -0.381358 138 138 138
-0.126628 -0.170811 -0.381591 138 138 138
-0.125045 -0.173852 -0.381925 138 138 138
-0.122620 -0.176949 -0.382436 138 138 138
-0.120245 -0.180047 -0.382936 138 138 138
-0.117376 -0.183182 -0.383540 138 138 138
-0.112180 -0.186474 -0.384635 138 138 138
-0.103495 -0.190007 -0.386465 138 138 138
-0.088028 -0.194011 -0.389723 138 138 138
-0.063007 -0.198698 -0.394994 138 138 138
-0.042813 -0.203103 -0.399248 100 100 100
0.046661 0.218658 -0.421241 138 138 138
0.034090 0.214640 -0.418580 138 138 138
0.027625 0.211077 -0.417212 138 138 138
0.022967 0.207651 -0.416225 138 138 138
0.018430 0.204243 -0.415265 138 138 138
0.013777 0.200837 -0.414280 138 138 138
-0.036264 0.194447 -0.403686 138 138 138
-0.049236 0.190567 -0.400940 138 138 138
-0.056681 0.187066 -0.399364 138 138 138
-0.062894 0.183658 -0.398048 138 138 138
-0.067826 0.180343 -0.397004 138 138 138
-0.072824 0.177033 -0.395946 138 138 138
-0.078656 0.173684 -0.394711 138 138 138
-0.085707 0.170275 -0.393219 138 138 138
-0.092938 0.166871 -0.391688 138 138 138
-0.100640 0.163454 -0.390057 138 138 138
-0.106631 0.160149 -0.388789 138 138 138
-0.111932 0.156894 -0.387667 138 138 138
-0.115621 0.153736 -0.386886 138 138 138
-0.119047 0.150599 -0.386161 138 138 138
-0.121508 0.147520 -0.385639 138 138 138
-0.123452 0.144471 -0.385228 138 138 138
-0.125323 0.141430 -0.384832 138 138 138
-0.126673 0.138418 -0.384546 138 138 138
-0.128770 0.135374 -0.384102 138 138 138
-0.131237 0.132317 -0.383580 138 138 138
-0.133700 0.129264 -0.383058 138 138 138
-0.136743 0.126192 -0.382414 138 138 138
-0.140858 0.123079 -0.381543 138 138 138
-0.144793 0.119982 -0.380710 138 138 138
-0.148209 0.116915 -0.379987 138 138 138
-0.151486 0.113861 -0.379293 138 138 138
-0.154186 0.110835 -0.378722 138 138 138
-0.156069 0.107847 -0.378323 138 138 138
-0.157959 0.104862 -0.377923 138 138 138
-0.159847 0.101881 -0.377523 138 138 138
-0.161612 0.098908 -0.377149 138 138 138
-0.162773 0.095960 -0.376903 138 138 138
-0.163914 0.093014 -0.376662 138 138 138
-0.165073 0.090071 -0.376417 138 138 138
-0.166231 0.087129 -0.376171 138 138 138
-0.167322 0.084192 -0.375940 138 138 138
-0.168314 0.081260 -0.375730 138 138 138
-0.169324 0.078330 -0.375517 138 138 138
-0.170323 0.075402 -0.375305 138 138 138
-0.171315 0.072477 -0.375095 138 138 138
-0.172138 0.069557 -0.374921 138 138 138
-0.172961 0.066640 -0.374747 138 138 138
-0.173896 0.063721 -0.374549 138 138 138
-0.174898 0.060803 -0.374337 138 138 138
-0.175570 0.057894 -0.374194 138 138 138
-0.176183 0.054987 -0.374065 138 138 138
-0.177154 0.052075 -0.373859 138 138 138
-0.178445 0.049159 -0.373586 138 138 138
-0.179598 0.046249 -0.373342 138 138 138
-0.180576 0.043343 -0.373134 138 138 138
-0.181555 0.040439 -0.372927 138 138 138
-0.182532 0.037538 -0.372720 138 138 138
-0.183521 0.034638 -0.372511 138 138 138
-0.184586 0.031739 -0.372286 138 138 138
-0.185704 0.028842 -0.372049 138 138 138
-0.186853 0.025948 -0.371806 138 138 138
-0.188001 0.023055 -0.371563 138 138 138
-0.189177 0.020165 -0.371314 138 138 138
-0.190363 0.017277 -0.371063 138 138 138
-0.191562 0.014391 -0.370809 138 138 138
-0.192547 0.011509 -0.370600 138 138 138
-0.193388 0.008629 -0.370422 138 138 138
-0.194440 0.005750 -0.370200 138 138 138
-0.194929 0.002875 -0.370096 138 138 138
-0.195419 0.000000 -0.369992 138 138 138
-0.195912 -0.002874 -0.369888 138 138 138
-0.196488 -0.005746 -0.369766 138 138 138
-0.196844 -0.008618 -0.369691 138 138 138
-0.197204 -0.011490 -0.369614 138 138 138
-0.197564 -0.014360 -0.369538 138 138 138
-0.197853 -0.017230 -0.369477 138 138 138
-0.198130 -0.020100 -0.369418 138 138 138
-0.198414 -0.022969 -0.369358 138 138 138
-0.198704 -0.025838 -0.369297 138 138 138
-0.198871 -0.028707 -0.369261 138 138 138
-0.198987 -0.031576 -0.369237 138 138 138
-0.199120 -0.034445 -0.369209 138 138 138
-0.199276 -0.037313 -0.369176 138 138 138
-0.199113 -0.040186 -0.369210 138 138 138
-0.198743 -0.043062 -0.369289 138 138 138
-0.198373 -0.045939 -0.369367 138 138 138
-0.197992 -0.048817 -0.369448 138 138 138
-0.197069 -0.051706 -0.369643 138 138 138
-0.195807 -0.054603 -0.369910 138 138 138
-0.194553 -0.057502 -0.370176 138 138 138
-0.193085 -0.060409 -0.370486 138 138 138
-0.190942 -0.063335 -0.370940 138 138 138
-0.188935 -0.066261 -0.371365 138 138 138
-0.187067 -0.069188 -0.371760 138 138 138
-0.184983 -0.072125 -0.372202 138 138 138
-0.182517 -0.075076 -0.372724 138 138 138
-0.179979 -0.078034 -0.373261 138 138 138
-0.177537 -0.080994 -0.373778 138 138 138
-0.175237 -0.083956 -0.374265 138 138 138
-0.172955 -0.086921 -0.374748 138 138 138
-0.170712 -0.089890 -0.375223 138 138 138
-0.168781 -0.092854 -0.375632 138 138 138
-0.166755 -0.095824 -0.376061 138 138 138
-0.164536 -0.098806 -0.376530 138 138 138
-0.162125 -0.101799 -0.377041 138 138 138
-0.159547 -0.104803 -0.377587 138 138 138
-0.156963 -0.107813 -0.378134 138 138 138
-0.154438 -0.110825 -0.378668 138 138 138
-0.151956 -0.113842 -0.379194 138 138 138
-0.149473 -0.116863 -0.379719 138 138 138
-0.147275 -0.119877 -0.380184 138 138 138
-0.145264 -0.122888 -0.380610 138 138 138
-0.143250 -0.125904 -0.381037 138 138 138
-0.141252 -0.128922 -0.381460 138 138 138
-0.139832 -0.131918 -0.381760 138 138 138
-0.138111 -0.134931 -0.382125 138 138 138
-0.136398 -0.137947 -0.382487 138 138 138
-0.135046 -0.140949 -0.382773 138 138 138
-0.133907 -0.143943 -0.383015 138 138 138
-0.132947 -0.146930 -0.383218 138 138 138
-0.132006 -0.149918 -0.383417 138 138 138
-0.131252 -0.152898 -0.383577 138 138 138
-0.130064 -0.155904 -0.383828 138 138 138
-0.129071 -0.158900 -0.384038 138 138 138
-0.127993 -0.161904 -0.384267 138 138 138
-0.126766 -0.164919 -0.384526 138 138 138
-0.125537 -0.167936 -0.384787 138 138 138
-0.123985 -0.170975 -0.385115 138 138 138
-0.121963 -0.174045 -0.385543 138 138 138
-0.119521 -0.177146 -0.386060 138 138 138
-0.116787 -0.180271 -0.386639 138 138 138
-0.111820 -0.183543 -0.387691 138 138 138
-0.104405 -0.186985 -0.389260 138 138 138
-0.092396 -0.190745 -0.391803 138 138 138
-0.068854 -0.195302 -0.396786 138 138 138
-0.051679 -0.199475 -0.400423 138 138 138
0.036781 0.214839 -0.422284 138 138 138
0.029608 0.211223 -0.420758 138 138 138
0.026010 0.207868 -0.419992 138 138 138
0.021848 0.204483 -0.419107 138 138 138
0.017338 0.201082 -0.418147 138 138 138
0.012727 0.197685 -0.417166 138 138 138
-0.046892 0.190725 -0.404483 138 138 138
-0.055900 0.187122 -0.402567 138 138 138
-0.061953 0.183724 -0.401279 138 138 138
-0.067278 0.180383 -0.400146 138 138 138
-0.072178 0.177078 -0.399104 138 138 138
-0.077674 0.173749 -0.397934 138 138 138
-0.083788 0.170394 -0.396634 138 138 138
-0.090787 0.167001 -0.395145 138 138 138
-0.098047 0.163607 -0.393600 138 138 138
-0.105157 0.160237 -0.392088 138 138 138
-0.110897 0.156956 -0.390867 138 138 138
-0.114860 0.153782 -0.390023 138 138 138
-0.117647 0.150678 -0.389431 138 138 138
-0.120985 0.147552 -0.388720 138 138 138
-0.122930 0.144502 -0.388307 138 138 138
-0.124520 0.141475 -0.387968 138 138 138
-0.126279 0.138442 -0.387594 138 138 138
-0.128050 0.135413 -0.387217 138 138 138
-0.130406 0.132360 -0.386716 138 138 138
-0.132916 0.129304 -0.386182 138 138 138
-0.135853 0.126236 -0.385557 138 138 138
-0.139630 0.123136 -0.384754 138 138 138
-0.143659 0.120034 -0.383897 138 138 138
-0.147165 0.116962 -0.383151 138 138 138
-0.150389 0.113909 -0.382465 138 138 138
-0.153048 0.110884 -0.381899 138 138 138
-0.155129 0.107886 -0.381457 138 138 138
-0.156985 0.104902 -0.381062 138 138 138
-0.158839 0.101921 -0.380667 138 138 138
-0.160555 0.098949 -0.380302 138 138 138
-0.161899 0.095993 -0.380016 138 138 138
-0.163015 0.093047 -0.379779 138 138 138
-0.164175 0.090102 -0.379532 138 138 138
-0.165333 0.087160 -0.379286 138 138 138
-0.166357 0.084224 -0.379068 138 138 138
-0.167367 0.081291 -0.378853 138 138 138
-0.168368 0.078360 -0.378640 138 138 138
-0.169379 0.075430 -0.378425 138 138 138
-0.170214 0.072508 -0.378247 138 138 138
-0.171039 0.069587 -0.378072 138 138 138
-0.171907 0.066667 -0.377887 138 138 138
-0.172774 0.063749 -0.377703 138 138 138
-0.173539 0.060834 -0.377540 138 138 138
-0.174154 0.057925 -0.377409 138 138 138
-0.174768 0.055017 -0.377279 138 138 138
-0.175400 0.052109 -0.377144 138 138 138
-0.176663 0.049192 -0.376875 138 138 138
-0.177389 0.046287 -0.376721 138 138 138
-0.178329 0.043379 -0.376521 138 138 138
-0.179339 0.040473 -0.376306 138 138 138
-0.180318 0.037569 -0.376098 138 138 138
-0.181362 0.034666 -0.375876 138 138 138
-0.182429 0.031765 -0.375649 138 138 138
-0.183494 0.028866 -0.375422 138 138 138
-0.184559 0.025970 -0.375196 138 138 138
-0.185713 0.023075 -0.374950 138 138 138
-0.186902 0.020182 -0.374697 138 138 138
-0.188091 0.017291 -0.374444 138 138 138
-0.189313 0.014403 -0.374184 138 138 138
-0.190540 0.011517 -0.373923 138 138 138
-0.191691 0.008635 -0.373678 138 138 138
-0.192797 0.005754 -0.373443 138 138 138
-0.193547 0.002876 -0.373284 138 138 138
-0.194037 0.000000 -0.373179 138 138 138
-0.194594 -0.002875 -0.373061 138 138 138
-0.195133 -0.005749 -0.372946 138 138 138
-0.195657 -0.008622 -0.372835 138 138 138
-0.196131 -0.011494 -0.372734 138 138 138
-0.196490 -0.014366 -0.372657 138 138 138
-0.196768 -0.017238 -0.372598 138 138 138
-0.197045 -0.020109 -0.372539 138 138 138
-0.197323 -0.022979 -0.372480 138 138 138
-0.197578 -0.025849 -0.372426 138 138 138
-0.197695 -0.028720 -0.372401 138 138 138
-0.197811 -0.031590 -0.372376 138 138 138
-0.197921 -0.034461 -0.372353 138 138 138
-0.197935 -0.037333 -0.372350 138 138 138
-0.197532 -0.040210 -0.372436 138 138 138
-0.197131 -0.043088 -0.372521 138 138 138
-0.196739 -0.045967 -0.372604 138 138 138
-0.196198 -0.048850 -0.372720 138 138 138
-0.195150 -0.051743 -0.372942 138 138 138
-0.194102 -0.054638 -0.373165 138 138 138
-0.192882 -0.057539 -0.373425 138 138 138
-0.190926 -0.060458 -0.373841 138 138 138
-0.188896 -0.063383 -0.374273 138 138 138
-0.187096 -0.066307 -0.374656 138 138 138
-0.185393 -0.069232 -0.375018 138 138 138
-0.183307 -0.072170 -0.375462 138 138 138
-0.180970 -0.075120 -0.375959 138 138 138
-0.178629 -0.078074 -0.376457 138 138 138
-0.176382 -0.081030 -0.376935 138 138 138
-0.174098 -0.083993 -0.377421 138 138 138
-0.171810 -0.086960 -0.377908 138 138 138
-0.169794 -0.089923 -0.378337 138 138 138
-0.167760 -0.092891 -0.378770 138 138 138
-0.165474 -0.095871 -0.379256 138 138 138
-0.163209 -0.098856 -0.379738 138 138 138
-0.160355 -0.101866 -0.380345 138 138 138
-0.157719 -0.104874 -0.380906 138 138 138
-0.155134 -0.107886 -0.381455 138 138 138
-0.152658 -0.110899 -0.381982 138 138 138
-0.150247 -0.113914 -0.382495 138 138 138
-0.147841 -0.116934 -0.383007 138 138 138
-0.145514 -0.119956 -0.383502 138 138 138
-0.143300 -0.122978 -0.383973 138 138 138
-0.141283 -0.125995 -0.384402 138 138 138
-0.139510 -0.129005 -0.384779 138 138 138
-0.137934 -0.132011 -0.385115 138 138 138
-0.136186 -0.135027 -0.385487 138 138 138
-0.134535 -0.138042 -0.385838 138 138 138
-0.133379 -0.141037 -0.386084 138 138 138
-0.132222 -0.144033 -0.386330 138 138 138
-0.131065 -0.147032 -0.386576 138 138 138
-0.130170 -0.150020 -0.386766 138 138 138
-0.129336 -0.153006 -0.386944 138 138 138
-0.128146 -0.156014 -0.387197 138 138 138
-0.127026 -0.159020 -0.387435 138 138 138
-0.125630 -0.162044 -0.387732 138 138 138
-0.124049 -0.165081 -0.388069 138 138 138
-0.122566 -0.168116 -0.388384 138 138 138
-0.120340 -0.171198 -0.388858 138 138 138
-0.118165 -0.174282 -0.389320 138 138 138
-0.115685 -0.177390 -0.389848 138 138 138
-0.111459 -0.180612 -0.390747 138 138 138
-0.104897 -0.183992 -0.392143 138 138 138
-0.096853 -0.187482 -0.393854 138 138 138
-0.077998 -0.191701 -0.397865 138 138 138
-0.057272 -0.196085 -0.402275 138 138 138
-0.040216 -0.200262 -0.405903 100 100 100
0.038807 0.214991 -0.425851 138 138 138
0.031523 0.211364 -0.424294 138 138 138
0.027161 0.207955 -0.423361 138 138 138
0.023569 0.204607 -0.422593 138 138 138
0.020147 0.201277 -0.421862 138 138 138
0.015912 0.197902 -0.420956 138 138 138
-0.044071 0.190915 -0.408133 138 138 138
-0.055371 0.187163 -0.405718 138 138 138
-0.061245 0.183775 -0.404462 138 138 138
-0.066721 0.180423 -0.403291 138 138 138
-0.071620 0.177118 -0.402244 138 138 138
-0.076863 0.173803 -0.401123 138 138 138
-0.082509 0.170475 -0.399916 138 138 138
-0.089319 0.167091 -0.398460 138 138 138
-0.096879 0.163679 -0.396844 138 138 138
-0.104260 0.160292 -0.395266 138 138 138
-0.109879 0.157017 -0.394065 138 138 138
-0.113869 0.153840 -0.393212 138 138 138
-0.117078 0.150713 -0.392526 138 138 138
-0.119829 0.147616 -0.391938 138 138 138
-0.122364 0.144536 -0.391396 138 138 138
-0.124118 0.141499 -0.391021 138 138 138
-0.125892 0.138466 -0.390642 138 138 138
-0.127664 0.135436 -0.390263 138 138 138
-0.129573 0.132403 -0.389855 138 138 138
-0.132328 0.129336 -0.389266 138 138 138
-0.135267 0.126266 -0.388638 138 138 138
-0.138457 0.123191 -0.387956 138 138 138
-0.142515 0.120087 -0.387088 138 138 138
-0.146097 0.117010 -0.386323 138 138 138
-0.149286 0.113957 -0.385641 138 138 138
-0.151824 0.110935 -0.385098 138 138 138
-0.154044 0.107931 -0.384623 138 138 138
-0.156071 0.104939 -0.384190 138 138 138
-0.157926 0.101957 -0.383794 138 138 138
-0.159367 0.098994 -0.383486 138 138 138
-0.160710 0.096036 -0.383198 138 138 138
-0.162139 0.093079 -0.382893 138 138 138
-0.163277 0.090134 -0.382650 138 138 138
-0.164378 0.087192 -0.382414 138 138 138
-0.165391 0.084256 -0.382198 138 138 138
-0.166403 0.081321 -0.381982 138 138 138
-0.167413 0.078389 -0.381765 138 138 138
-0.168403 0.075459 -0.381554 138 138 138
-0.169109 0.072538 -0.381403 138 138 138
-0.169849 0.069619 -0.381245 138 138 138
-0.170718 0.066697 -0.381059 138 138 138
-0.171586 0.063778 -0.380873 138 138 138
-0.172133 0.060867 -0.380757 138 138 138
-0.172629 0.057958 -0.380650 138 138 138
-0.173201 0.055049 -0.380528 138 138 138
-0.173898 0.052139 -0.380379 138 138 138
-0.174581 0.049230 -0.380233 138 138 138
-0.175308 0.046322 -0.380078 138 138 138
-0.176035 0.043416 -0.379922 138 138 138
-0.177004 0.040508 -0.379715 138 138 138
-0.178061 0.037600 -0.379489 138 138 138
-0.179091 0.034695 -0.379269 138 138 138
-0.180123 0.031792 -0.379048 138 138 138
-0.181153 0.028891 -0.378828 138 138 138
-0.182183 0.025993 -0.378608 138 138 138
-0.183683 0.023092 -0.378287 138 138 138
-0.185052 0.020196 -0.377995 138 138 138
-0.186283 0.017303 -0.377732 138 138 138
-0.187513 0.014413 -0.377469 138 138 138
-0.188840 0.011525 -0.377185 138 138 138
-0.190108 0.008640 -0.376914 138 138 138
-0.191099 0.005758 -0.376702 138 138 138
-0.192163 0.002878 -0.376474 138 138 138
-0.192663 0.000000 -0.376368 138 138 138
-0.193212 -0.002877 -0.376250 138 138 138
-0.193737 -0.005752 -0.376138 138 138 138
-0.194314 -0.008627 -0.376015 138 138 138
-0.194963 -0.011500 -0.375876 138 138 138
-0.195352 -0.014372 -0.375793 138 138 138
-0.195649 -0.017245 -0.375729 138 138 138
-0.195945 -0.020117 -0.375666 138 138 138
-0.196231 -0.022989 -0.375605 138 138 138
-0.196360 -0.025861 -0.375577 138 138 138
-0.196434 -0.028734 -0.375561 138 138 138
-0.196508 -0.031606 -0.375546 138 138 138
-0.196582 -0.034479 -0.375530 138 138 138
-0.196353 -0.037355 -0.375579 138 138 138
-0.195950 -0.040234 -0.375665 138 138 138
-0.195546 -0.043114 -0.375751 138 138 138
-0.195142 -0.045995 -0.375838 138 138 138
-0.194249 -0.048886 -0.376029 138 138 138
-0.193202 -0.051781 -0.376252 138 138 138
-0.192155 -0.054678 -0.376476 138 138 138
-0.190570 -0.057588 -0.376815 138 138 138
-0.188925 -0.060504 -0.377167 138 138 138
-0.187125 -0.063425 -0.377551 138 138 138
-0.185323 -0.066351 -0.377937 138 138 138
-0.183910 -0.069271 -0.378239 138 138 138
-0.181628 -0.072216 -0.378727 138 138 138
-0.179329 -0.075166 -0.379218 138 138 138
-0.177531 -0.078107 -0.379603 138 138 138
-0.175209 -0.081067 -0.380099 138 138 138
-0.173001 -0.084028 -0.380571 138 138 138
-0.170847 -0.086992 -0.381032 138 138 138
-0.168764 -0.089959 -0.381477 138 138 138
-0.166601 -0.092932 -0.381939 138 138 138
-0.164450 -0.095909 -0.382399 138 138 138
-0.161935 -0.098904 -0.382937 138 138 138
-0.159038 -0.101917 -0.383556 138 138 138
-0.156143 -0.104936 -0.384175 138 138 138
-0.153431 -0.107955 -0.384755 138 138 138
-0.151021 -0.110967 -0.385270 138 138 138
-0.148608 -0.113984 -0.385786 138 138 138
-0.146232 -0.117005 -0.386294 138 138 138
-0.143905 -0.120028 -0.386791 138 138 138
-0.141573 -0.123057 -0.387290 138 138 138
-0.139337 -0.126086 -0.387768 138 138 138
-0.137757 -0.129089 -0.388105 138 138 138
-0.136009 -0.132104 -0.388479 138 138 138
-0.134400 -0.135116 -0.388823 138 138 138
-0.133095 -0.138117 -0.389102 138 138 138
-0.131983 -0.141110 -0.389340 138 138 138
-0.130859 -0.144107 -0.389580 138 138 138
-0.129527 -0.147117 -0.389865 138 138 138
-0.128689 -0.150103 -0.390044 138 138 138
-0.127362 -0.153117 -0.390328 138 138 138
-0.126096 -0.156131 -0.390598 138 138 138
-0.124741 -0.159152 -0.390888 138 138 138
-0.123243 -0.162184 -0.391208 138 138 138
-0.121729 -0.165221 -0.391532 138 138 138
-0.120053 -0.168269 -0.391890 138 138 138
-0.117327 -0.171384 -0.392473 138 138 138
-0.114596 -0.174505 -0.393057 138 138 138
-0.111698 -0.177642 -0.393676 138 138 138
-0.106412 -0.180935 -0.394806 138 138 138
-0.101019 -0.184246 -0.395959 138 138 138
-0.085733 -0.188210 -0.399227 138 138 138
-0.065445 -0.192536 -0.403564 138 138 138
-0.048146 -0.196703 -0.407262 138 138 138
0.042652 0.215271 -0.429813 138 138 138
0.034127 0.211554 -0.427982 138 138 138
0.028310 0.208041 -0.426732 138 138 138
0.024718 0.204692 -0.425961 138 138 138
0.021384 0.201367 -0.425244 138 138 138
0.018335 0.198068 -0.424589 138 138 138
0.014430 0.194720 -0.423751 138 138 138
-0.053217 0.187307 -0.409219 138 138 138
-0.060721 0.183814 -0.407607 138 138 138
-0.066493 0.180444 -0.406367 138 138 138
-0.071229 0.177148 -0.405350 138 138 138
-0.076160 0.173851 -0.404291 138 138 138
-0.082148 0.170502 -0.403004 138 138 138
-0.088862 0.167123 -0.401562 138 138 138
-0.096271 0.163719 -0.399970 138 138 138
-0.103030 0.160366 -0.398518 138 138 138
-0.108860 0.157078 -0.397266 138 138 138
-0.112786 0.153904 -0.396423 138 138 138
-0.116430 0.150752 -0.395640 138 138 138
-0.119261 0.147651 -0.395032 138 138 138
-0.121734 0.144573 -0.394501 138 138 138
-0.123715 0.141524 -0.394075 138 138 138
-0.125496 0.138490 -0.393692 138 138 138
-0.127269 0.135459 -0.393311 138 138 138
-0.129073 0.132431 -0.392924 138 138 138
-0.131733 0.129367 -0.392353 138 138 138
-0.134680 0.126296 -0.391720 138 138 138
-0.137614 0.123232 -0.391089 138 138 138
-0.141288 0.120143 -0.390300 138 138 138
-0.144945 0.117062 -0.389515 138 138 138
-0.148180 0.114005 -0.388819 138 138 138
-0.150598 0.110987 -0.388300 138 138 138
-0.152820 0.107982 -0.387823 138 138 138
-0.155061 0.104980 -0.387341 138 138 138
-0.156841 0.102000 -0.386959 138 138 138
-0.158177 0.099039 -0.386672 138 138 138
-0.159522 0.096080 -0.386383 138 138 138
-0.160902 0.093123 -0.386087 138 138 138
-0.162379 0.090166 -0.385769 138 138 138
-0.163392 0.087226 -0.385552 138 138 138
-0.164357 0.084290 -0.385344 138 138 138
-0.165321 0.081355 -0.385137 138 138 138
-0.166284 0.078423 -0.384931 138 138 138
-0.167150 0.075495 -0.384744 138 138 138
-0.167995 0.072570 -0.384563 138 138 138
-0.168711 0.069649 -0.384409 138 138 138
-0.169528 0.066728 -0.384234 138 138 138
-0.170266 0.063810 -0.384075 138 138 138
-0.170763 0.060899 -0.383968 138 138 138
-0.171261 0.057988 -0.383861 138 138 138
-0.171758 0.055079 -0.383755 138 138 138
-0.172269 0.052171 -0.383645 138 138 138
-0.172720 0.049265 -0.383548 138 138 138
-0.173335 0.046357 -0.383416 138 138 138
-0.174021 0.043449 -0.383268 138 138 138
-0.174706 0.040542 -0.383121 138 138 138
-0.175613 0.037634 -0.382927 138 138 138
-0.176626 0.034727 -0.382709 138 138 138
-0.177648 0.031821 -0.382489 138 138 138
-0.178682 0.028918 -0.382267 138 138 138
-0.179864 0.026015 -0.382013 138 138 138
-0.181468 0.023111 -0.381669 138 138 138
-0.183070 0.020211 -0.381325 138 138 138
-0.184466 0.017315 -0.381025 138 138 138
-0.185724 0.014423 -0.380754 138 138 138
-0.187163 0.011532 -0.380445 138 138 138
-0.188456 0.008645 -0.380168 138 138 138
-0.189574 0.005761 -0.379927 138 138 138
-0.190563 0.002880 -0.379715 138 138 138
-0.191377 0.000000 -0.379540 138 138 138
-0.192027 -0.002878 -0.379400 138 138 138
-0.192677 -0.005755 -0.379261 138 138 138
-0.193327 -0.008630 -0.379121 138 138 138
-0.193938 -0.011504 -0.378990 138 138 138
-0.194264 -0.014379 -0.378920 138 138 138
-0.194547 -0.017253 -0.378859 138 138 138
-0.194829 -0.020126 -0.378799 138 138 138
-0.195063 -0.022999 -0.378748 138 138 138
-0.195080 -0.025874 -0.378745 138 138 138
-0.195113 -0.028748 -0.378738 138 138 138
-0.195174 -0.031623 -0.378725 138 138 138
-0.195173 -0.034497 -0.378725 138 138 138
-0.194769 -0.037378 -0.378811 138 138 138
-0.194366 -0.040259 -0.378898 138 138 138
-0.193962 -0.043140 -0.378985 138 138 138
-0.193495 -0.046024 -0.379085 138 138 138
-0.192457 -0.048919 -0.379308 138 138 138
-0.191267 -0.051818 -0.379564 138 138 138
-0.190218 -0.054718 -0.379789 138 138 138
-0.188527 -0.057633 -0.380152 138 138 138
-0.186919 -0.060549 -0.380498 138 138 138
-0.185309 -0.063469 -0.380844 138 138 138
-0.183611 -0.066394 -0.381208 138 138 138
-0.182287 -0.069313 -0.381493 138 138 138
-0.180100 -0.072258 -0.381963 138 138 138
-0.178457 -0.075192 -0.382316 138 138 138
-0.176152 -0.078148 -0.382811 138 138 138
-0.173856 -0.081109 -0.383304 138 138 138
-0.171855 -0.084066 -0.383734 138 138 138
-0.169848 -0.087026 -0.384165 138 138 138
-0.167728 -0.089995 -0.384620 138 138 138
-0.165579 -0.092969 -0.385082 138 138 138
-0.163426 -0.095947 -0.385544 138 138 138
-0.160659 -0.098952 -0.386139 138 138 138
-0.157729 -0.101968 -0.386768 138 138 138
-0.154765 -0.104991 -0.387405 138 138 138
-0.152024 -0.108012 -0.387994 138 138 138
-0.149383 -0.111035 -0.388561 138 138 138
-0.146966 -0.114054 -0.389080 138 138 138
-0.144624 -0.117075 -0.389583 138 138 138
-0.142293 -0.120100 -0.390084 138 138 138
-0.139970 -0.123130 -0.390583 138 138 138
-0.137993 -0.126149 -0.391008 138 138 138
-0.136330 -0.129159 -0.391365 138 138 138
-0.134679 -0.132171 -0.391720 138 138 138
-0.133102 -0.135182 -0.392059 138 138 138
-0.131967 -0.138176 -0.392302 138 138 138
-0.130634 -0.141182 -0.392589 138 138 138
-0.129299 -0.144191 -0.392875 138 138 138
-0.128118 -0.147194 -0.393129 138 138 138
-0.126967 -0.150199 -0.393376 138 138 138
-0.125456 -0.153225 -0.393701 138 138 138
-0.124091 -0.156246 -0.393994 138 138 138
-0.122407 -0.159288 -0.394356 138 138 138
-0.120891 -0.162323 -0.394682 138 138 138
-0.119375 -0.165362 -0.395007 138 138 138
-0.117039 -0.168452 -0.395509 138 138 138
-0.114281 -0.171572 -0.396102 138 138 138
-0.111694 -0.174688 -0.396657 138 138 138
-0.107593 -0.177902 -0.397538 138 138 138
-0.102538 -0.181185 -0.398624 138 138 138
-0.093056 -0.184761 -0.400661 138 138 138
-0.075389 -0.188888 -0.404456 138 138 138
-0.054535 -0.193262 -0.408936 138 138 138
-0.031184 -0.197846 -0.413952 100 100 100
0.045808 0.215503 -0.433635 100 100 100
0.035016 0.211624 -0.431306 138 138 138
0.029446 0.208127 -0.430103 138 138 138
0.025635 0.204761 -0.429281 138 138 138
0.022622 0.201457 -0.428630 138 138 138
0.019669 0.198163 -0.427993 138 138 138
0.016499 0.194861 -0.427309 138 138 138
-0.050952 0.187458 -0.412749 138 138 138
-0.060231 0.183851 -0.410746 138 138 138
-0.065683 0.180500 -0.409569 138 138 138
-0.071024 0.177167 -0.408416 138 138 138
-0.075741 0.173882 -0.407398 138 138 138
-0.082018 0.170515 -0.406043 138 138 138
-0.088511 0.167149 -0.404642 138 138 138
-0.095518 0.163767 -0.403129 138 138 138
-0.101703 0.160445 -0.401794 138 138 138
-0.107840 0.157139 -0.400470 138 138 138
-0.111769 0.153963 -0.399622 138 138 138
-0.115593 0.150802 -0.398796 138 138 138
-0.118650 0.147687 -0.398136 138 138 138
-0.120923 0.144619 -0.397646 138 138 138
-0.123182 0.141556 -0.397158 138 138 138
-0.125036 0.138517 -0.396758 138 138 138
-0.126869 0.135483 -0.396362 138 138 138
-0.128847 0.132446 -0.395935 138 138 138
-0.131087 0.129401 -0.395452 138 138 138
-0.134053 0.126328 -0.394812 138 138 138
-0.137013 0.123262 -0.394173 138 138 138
-0.140168 0.120194 -0.393492 138 138 138
-0.143452 0.117127 -0.392783 138 138 138
-0.146559 0.114074 -0.392112 138 138 138
-0.149201 0.111046 -0.391542 138 138 138
-0.151427 0.108039 -0.391061 138 138 138
-0.153648 0.105036 -0.390582 138 138 138
-0.155451 0.102054 -0.390193 138 138 138
-0.156924 0.099086 -0.389875 138 138 138
-0.158327 0.096124 -0.389572 138 138 138
-0.159677 0.093167 -0.389281 138 138 138
-0.160974 0.090214 -0.389000 138 138 138
-0.162121 0.087268 -0.388753 138 138 138
-0.163138 0.084329 -0.388533 138 138 138
-0.164098 0.081393 -0.388326 138 138 138
-0.165027 0.078461 -0.388126 138 138 138
-0.165842 0.075533 -0.387950 138 138 138
-0.166656 0.072607 -0.387774 138 138 138
-0.167518 0.069681 -0.387588 138 138 138
-0.168337 0.066758 -0.387411 138 138 138
-0.168895 0.063843 -0.387291 138 138 138
-0.169408 0.060930 -0.387180 138 138 138
-0.169922 0.058018 -0.387069 138 138 138
-0.170434 0.055107 -0.386958 138 138 138
-0.170950 0.052197 -0.386847 138 138 138
-0.171321 0.049291 -0.386767 138 138 138
-0.171662 0.046386 -0.386693 138 138 138
-0.172098 0.043480 -0.386599 138 138 138
-0.172945 0.040569 -0.386416 138 138 138
-0.173918 0.037658 -0.386206 138 138 138
-0.174751 0.034751 -0.386027 138 138 138
-0.175584 0.031846 -0.385847 138 138 138
-0.176483 0.028941 -0.385653 138 138 138
-0.177702 0.026036 -0.385390 138 138 138
-0.179256 0.023130 -0.385054 138 138 138
-0.180854 0.020227 -0.384709 138 138 138
-0.182455 0.017328 -0.384364 138 138 138
-0.183977 0.014432 -0.384035 138 138 138
-0.185479 0.011539 -0.383711 138 138 138
-0.186766 0.008651 -0.383433 138 138 138
-0.188049 0.005764 -0.383156 138 138 138
-0.189047 0.002881 -0.382941 138 138 138
-0.190087 0.000000 -0.382716 138 138 138
-0.191039 -0.002879 -0.382511 138 138 138
-0.191690 -0.005757 -0.382370 138 138 138
-0.192340 -0.008633 -0.382230 138 138 138
-0.192893 -0.011509 -0.382111 138 138 138
-0.193176 -0.014385 -0.382050 138 138 138
-0.193458 -0.017260 -0.381989 138 138 138
-0.193777 -0.020134 -0.381920 138 138 138
-0.193878 -0.023010 -0.381898 138 138 138
-0.193866 -0.025886 -0.381901 138 138 138
-0.193854 -0.028762 -0.381903 138 138 138
-0.193871 -0.031638 -0.381900 138 138 138
-0.193621 -0.034518 -0.381954 138 138 138
-0.193200 -0.037400 -0.382044 138 138 138
-0.192781 -0.040283 -0.382135 138 138 138
-0.192377 -0.043166 -0.382222 138 138 138
-0.191779 -0.046054 -0.382351 138 138 138
-0.190668 -0.048952 -0.382591 138 138 138
-0.189355 -0.051856 -0.382874 138 138 138
-0.188091 -0.054761 -0.383147 138 138 138
-0.186481 -0.057677 -0.383495 138 138 138
-0.184898 -0.060595 -0.383836 138 138 138
-0.183417 -0.063514 -0.384156 138 138 138
-0.182114 -0.066432 -0.384437 138 138 138
-0.180761 -0.069354 -0.384729 138 138 138
-0.178921 -0.072291 -0.385127 138 138 138
-0.177006 -0.075234 -0.385540 138 138 138
-0.174674 -0.078192 -0.386043 138 138 138
-0.172574 -0.081149 -0.386497 138 138 138
-0.170405 -0.084112 -0.386965 138 138 138
-0.168583 -0.087068 -0.387358 138 138 138
-0.166688 -0.090031 -0.387767 138 138 138
-0.164555 -0.093006 -0.388228 138 138 138
-0.162277 -0.095990 -0.388719 138 138 138
-0.159308 -0.099003 -0.389360 138 138 138
-0.156279 -0.102024 -0.390014 138 138 138
-0.153300 -0.105049 -0.390657 138 138 138
-0.150613 -0.108070 -0.391237 138 138 138
-0.147922 -0.111096 -0.391818 138 138 138
-0.145341 -0.114123 -0.392375 138 138 138
-0.143034 -0.117145 -0.392873 138 138 138
-0.140775 -0.120169 -0.393361 138 138 138
-0.138512 -0.123197 -0.393849 138 138 138
-0.136792 -0.126207 -0.394220 138 138 138
-0.135120 -0.129218 -0.394581 138 138 138
-0.133440 -0.132233 -0.394944 138 138 138
-0.131777 -0.135250 -0.395303 138 138 138
-0.130409 -0.138256 -0.395598 138 138 138
-0.129074 -0.141264 -0.395886 138 138 138
-0.127739 -0.144274 -0.396174 138 138 138
-0.126657 -0.147275 -0.396408 138 138 138
-0.125085 -0.150303 -0.396747 138 138 138
-0.123548 -0.153332 -0.397079 138 138 138
-0.121999 -0.156365 -0.397413 138 138 138
-0.120298 -0.159410 -0.397781 138 138 138
-0.118595 -0.162459 -0.398148 138 138 138
-0.116743 -0.165520 -0.398548 138 138 138
-0.114378 -0.168614 -0.399058 138 138 138
-0.112043 -0.171712 -0.399562 138 138 138
-0.109516 -0.174826 -0.400108 138 138 138
-0.104153 -0.178121 -0.401266 138 138 138
-0.098318 -0.181457 -0.402525 138 138 138
-0.087006 -0.185154 -0.404967 138 138 138
-0.061338 -0.189807 -0.410507 138 138 138
-0.044019 -0.193962 -0.414246 138 138 138
0.036813 0.211757 -0.434828 138 138 138
0.030516 0.208208 -0.433462 138 138 138
0.026291 0.204813 -0.432546 138 138 138
0.023284 0.201508 -0.431894 138 138 138
0.020325 0.198213 -0.431252 138 138 138
0.017276 0.194918 -0.430591 138 138 138
-0.047596 0.187679 -0.416521 138 138 138
-0.058883 0.183942 -0.414073 138 138 138
-0.064339 0.180589 -0.412889 138 138 138
-0.070209 0.177222 -0.411616 138 138 138
-0.075535 0.173900 -0.410461 138 138 138
-0.081311 0.170563 -0.409208 138 138 138
-0.087860 0.167192 -0.407788 138 138 138
-0.094840 0.163811 -0.406274 138 138 138
-0.101170 0.160480 -0.404901 138 138 138
-0.106876 0.157197 -0.403663 138 138 138
-0.110697 0.154026 -0.402835 138 138 138
-0.114509 0.150864 -0.402008 138 138 138
-0.117717 0.147740 -0.401312 138 138 138
-0.120100 0.144665 -0.400795 138 138 138
-0.122373 0.141600 -0.400302 138 138 138
-0.124495 0.138548 -0.399842 138 138 138
-0.126354 0.135512 -0.399439 138 138 138
-0.128397 0.132471 -0.398996 138 138 138
-0.130524 0.129431 -0.398534 138 138 138
-0.133087 0.126376 -0.397978 138 138 138
-0.136008 0.123310 -0.397345 138 138 138
-0.138888 0.120252 -0.396720 138 138 138
-0.141228 0.117223 -0.396213 138 138 138
-0.144105 0.114177 -0.395589 138 138 138
-0.147092 0.111132 -0.394941 138 138 138
-0.149705 0.108108 -0.394374 138 138 138
-0.151711 0.105112 -0.393939 138 138 138
-0.153432 0.102130 -0.393566 138 138 138
-0.155150 0.099152 -0.393193 138 138 138
-0.156707 0.096183 -0.392856 138 138 138
-0.158110 0.093222 -0.392551 138 138 138
-0.159350 0.090269 -0.392282 138 138 138
-0.160534 0.087320 -0.392026 138 138 138
-0.161717 0.084374 -0.391769 138 138 138
-0.162764 0.081435 -0.391542 138 138 138
-0.163717 0.078500 -0.391335 138 138 138
-0.164532 0.075570 -0.391158 138 138 138
-0.165348 0.072643 -0.390981 138 138 138
-0.166174 0.069717 -0.390802 138 138 138
-0.166957 0.066793 -0.390632 138 138 138
-0.167570 0.063875 -0.390500 138 138 138
-0.168084 0.060961 -0.390388 138 138 138
-0.168597 0.058047 -0.390277 138 138 138
-0.169112 0.055135 -0.390165 138 138 138
-0.169629 0.052223 -0.390053 138 138 138
-0.170025 0.049315 -0.389967 138 138 138
-0.170367 0.046409 -0.389893 138 138 138
-0.170768 0.043502 -0.389806 138 138 138
-0.171371 0.040593 -0.389675 138 138 138
-0.172182 0.037683 -0.389499 138 138 138
-0.173108 0.034773 -0.389298 138 138 138
-0.173942 0.031865 -0.389117 138 138 138
-0.175049 0.028957 -0.388877 138 138 138
-0.176309 0.026050 -0.388604 138 138 138
-0.177569 0.023145 -0.388331 138 138 138
-0.179091 0.020241 -0.388001 138 138 138
-0.180651 0.017340 -0.387662 138 138 138
-0.182216 0.014442 -0.387323 138 138 138
-0.183726 0.011547 -0.386995 138 138 138
-0.185166 0.008656 -0.386683 138 138 138
-0.186422 0.005768 -0.386411 138 138 138
-0.187600 0.002883 -0.386155 138 138 138
-0.188591 0.000000 -0.385940 138 138 138
-0.189632 -0.002881 -0.385714 138 138 138
-0.190634 -0.005759 -0.385497 138 138 138
-0.191313 -0.008637 -0.385350 138 138 138
-0.191804 -0.011514 -0.385243 138 138 138
-0.192094 -0.014391 -0.385181 138 138 138
-0.192435 -0.017267 -0.385106 138 138 138
-0.192718 -0.020143 -0.385045 138 138 138
-0.192706 -0.023020 -0.385048 138 138 138
-0.192693 -0.025898 -0.385050 138 138 138
-0.192671 -0.028776 -0.385055 138 138 138
-0.192584 -0.031654 -0.385074 138 138 138
-0.192167 -0.034537 -0.385165 138 138 138
-0.191729 -0.037421 -0.385260 138 138 138
-0.191290 -0.040306 -0.385355 138 138 138
-0.190779 -0.043193 -0.385466 138 138 138
-0.190065 -0.046084 -0.385620 138 138 138
-0.188882 -0.048985 -0.385877 138 138 138
-0.187582 -0.051890 -0.386159 138 138 138
-0.186164 -0.054801 -0.386467 138 138 138
-0.184663 -0.057716 -0.386792 138 138 138
-0.183223 -0.060633 -0.387104 138 138 138
-0.181808 -0.063553 -0.387411 138 138 138
-0.180609 -0.066470 -0.387671 138 138 138
-0.179021 -0.069399 -0.388016 138 138 138
-0.177370 -0.072333 -0.388374 138 138 138
-0.175418 -0.075279 -0.388797 138 138 138
-0.173253 -0.078234 -0.389267 138 138 138
-0.171085 -0.081194 -0.389737 138 138 138
-0.169212 -0.084150 -0.390143 138 138 138
-0.167318 -0.087111 -0.390554 138 138 138
-0.165420 -0.090075 -0.390966 138 138 138
-0.163472 -0.093045 -0.391388 138 138 138
-0.160867 -0.096041 -0.391953 138 138 138
-0.157860 -0.099057 -0.392605 138 138 138
-0.154828 -0.102080 -0.393263 138 138 138
-0.151889 -0.105105 -0.393900 138 138 138
-0.149200 -0.108127 -0.394484 138 138 138
-0.146503 -0.111155 -0.395069 138 138 138
-0.143966 -0.114182 -0.395619 138 138 138
-0.141579 -0.117209 -0.396137 138 138 138
-0.139317 -0.120234 -0.396627 138 138 138
-0.137253 -0.123256 -0.397075 138 138 138
-0.135582 -0.126265 -0.397437 138 138 138
-0.133790 -0.129283 -0.397826 138 138 138
-0.131999 -0.132304 -0.398215 138 138 138
-0.130459 -0.135317 -0.398548 138 138 138
-0.128930 -0.138333 -0.398880 138 138 138
-0.127512 -0.141346 -0.399188 138 138 138
-0.126193 -0.144357 -0.399474 138 138 138
-0.124775 -0.147377 -0.399781 138 138 138
-0.123201 -0.150407 -0.400123 138 138 138
-0.121632 -0.153440 -0.400463 138 138 138
-0.120006 -0.156480 -0.400816 138 138 138
-0.118378 -0.159523 -0.401169 138 138 138
-0.116834 -0.162564 -0.401504 138 138 138
-0.114802 -0.165637 -0.401944 138 138 138
-0.112391 -0.168737 -0.402467 138 138 138
-0.110053 -0.171837 -0.402974 138 138 138
-0.106081 -0.175041 -0.403836 138 138 138
-0.100688 -0.178341 -0.405006 138 138 138
-0.094304 -0.181715 -0.406390 138 138 138
-0.075455 -0.185899 -0.410478 138 138 138
-0.051888 -0.190427 -0.415590 138 138 138
-0.023150 -0.195345 -0.421823 100 100 100
0.039393 0.211945 -0.438525 138 138 138
0.031088 0.208255 -0.436715 138 138 138
0.026718 0.204849 -0.435763 138 138 138
0.023205 0.201510 -0.434998 138 138 138
0.020340 0.198221 -0.434373 138 138 138
0.017480 0.194938 -0.433750 138 138 138
0.013647 0.191599 -0.432915 138 138 138
-0.055644 0.184152 -0.417814 138 138 138
-0.062995 0.180679 -0.416212 138 138 138
-0.068949 0.177305 -0.414915 138 138 138
-0.074686 0.173957 -0.413664 138 138 138
-0.080600 0.170610 -0.412376 138 138 138
-0.087098 0.167242 -0.410960 138 138 138
-0.093822 0.163874 -0.409494 138 138 138
-0.099985 0.160552 -0.408151 138 138 138
-0.105526 0.157276 -0.406943 138 138 138
-0.110016 0.154068 -0.405965 138 138 138
-0.113719 0.150910 -0.405158 138 138 138
-0.116615 0.147802 -0.404527 138 138 138
-0.119261 0.144712 -0.403950 138 138 138
-0.121542 0.141646 -0.403453 138 138 138
-0.123819 0.138585 -0.402957 138 138 138
-0.125904 0.135538 -0.402503 138 138 138
-0.127948 0.132496 -0.402057 138 138 138
-0.129989 0.129459 -0.401612 138 138 138
-0.132081 0.126424 -0.401156 138 138 138
-0.134936 0.123361 -0.400534 138 138 138
-0.137310 0.120323 -0.400017 138 138 138
-0.139501 0.117298 -0.399539 138 138 138
-0.141955 0.114267 -0.399005 138 138 138
-0.144866 0.111223 -0.398370 138 138 138
-0.147720 0.108187 -0.397748 138 138 138
-0.149605 0.105193 -0.397337 138 138 138
-0.151338 0.102209 -0.396960 138 138 138
-0.153069 0.099228 -0.396582 138 138 138
-0.154798 0.096251 -0.396206 138 138 138
-0.156403 0.093281 -0.395856 138 138 138
-0.157639 0.090327 -0.395587 138 138 138
-0.158850 0.087375 -0.395323 138 138 138
-0.160030 0.084428 -0.395066 138 138 138
-0.161073 0.081486 -0.394838 138 138 138
-0.162138 0.078546 -0.394606 138 138 138
-0.163140 0.075610 -0.394388 138 138 138
-0.163979 0.072681 -0.394205 138 138 138
-0.164817 0.069753 -0.394022 138 138 138
-0.165514 0.066830 -0.393870 138 138 138
-0.166113 0.063911 -0.393740 138 138 138
-0.166739 0.060992 -0.393603 138 138 138
-0.167272 0.058077 -0.393487 138 138 138
-0.167789 0.055163 -0.393375 138 138 138
-0.168307 0.052250 -0.393262 138 138 138
-0.168729 0.049340 -0.393170 138 138 138
-0.169101 0.046431 -0.393089 138 138 138
-0.169681 0.043520 -0.392962 138 138 138
-0.170314 0.040610 -0.392824 138 138 138
-0.170877 0.037702 -0.392702 138 138 138
-0.171426 0.034795 -0.392582 138 138 138
-0.172427 0.031884 -0.392364 138 138 138
-0.173690 0.028972 -0.392089 138 138 138
-0.174952 0.026063 -0.391814 138 138 138
-0.176217 0.023157 -0.391538 138 138 138
-0.177501 0.020253 -0.391258 138 138 138
-0.178984 0.017351 -0.390935 138 138 138
-0.180506 0.014451 -0.390603 138 138 138
-0.182026 0.011555 -0.390272 138 138 138
-0.183544 0.008661 -0.389941 138 138 138
-0.184973 0.005771 -0.389630 138 138 138
-0.186370 0.002884 -0.389325 138 138 138
-0.187446 0.000000 -0.389091 138 138 138
-0.188421 -0.002882 -0.388878 138 138 138
-0.189394 -0.005762 -0.388666 138 138 138
-0.190116 -0.008641 -0.388509 138 138 138
-0.190745 -0.011519 -0.388372 138 138 138
-0.191092 -0.014396 -0.388296 138 138 138
-0.191435 -0.017274 -0.388222 138 138 138
-0.191545 -0.020152 -0.388198 138 138 138
-0.191511 -0.023031 -0.388205 138 138 138
-0.191471 -0.025910 -0.388214 138 138 138
-0.191432 -0.028789 -0.388222 138 138 138
-0.191181 -0.031671 -0.388277 138 138 138
-0.190777 -0.034555 -0.388365 138 138 138
-0.190339 -0.037441 -0.388460 138 138 138
-0.189900 -0.040327 -0.388556 138 138 138
-0.189265 -0.043217 -0.388694 138 138 138
-0.188494 -0.046111 -0.388862 138 138 138
-0.187272 -0.049015 -0.389129 138 138 138
-0.185894 -0.051923 -0.389429 138 138 138
-0.184475 -0.054836 -0.389738 138 138 138
-0.183057 -0.057751 -0.390047 138 138 138
-0.181638 -0.060670 -0.390357 138 138 138
-0.180277 -0.063589 -0.390653 138 138 138
-0.178900 -0.066512 -0.390953 138 138 138
-0.177253 -0.069445 -0.391312 138 138 138
-0.175598 -0.072381 -0.391673 138 138 138
-0.173718 -0.075327 -0.392082 138 138 138
-0.171764 -0.078278 -0.392508 138 138 138
-0.169718 -0.081237 -0.392954 138 138 138
-0.167947 -0.084191 -0.393340 138 138 138
-0.165844 -0.087159 -0.393798 138 138 138
-0.163682 -0.090134 -0.394270 138 138 138
-0.161448 -0.093115 -0.394756 138 138 138
-0.159035 -0.096107 -0.395282 138 138 138
-0.156356 -0.099113 -0.395866 138 138 138
-0.153367 -0.102136 -0.396518 138 138 138
-0.150478 -0.105161 -0.397147 138 138 138
-0.147755 -0.108186 -0.397741 138 138 138
-0.145009 -0.111218 -0.398339 138 138 138
-0.142629 -0.114240 -0.398858 138 138 138
-0.140254 -0.117267 -0.399375 138 138 138
-0.137874 -0.120299 -0.399894 138 138 138
-0.135952 -0.123317 -0.400313 138 138 138
-0.134140 -0.126333 -0.400708 138 138 138
-0.132346 -0.129353 -0.401099 138 138 138
-0.130669 -0.132370 -0.401464 138 138 138
-0.129140 -0.135384 -0.401797 138 138 138
-0.127579 -0.138403 -0.402137 138 138 138
-0.126002 -0.141426 -0.402481 138 138 138
-0.124611 -0.144442 -0.402784 138 138 138
-0.123015 -0.147472 -0.403132 138 138 138
-0.121474 -0.150503 -0.403468 138 138 138
-0.119883 -0.153539 -0.403815 138 138 138
-0.118309 -0.156578 -0.404158 138 138 138
-0.116777 -0.159617 -0.404492 138 138 138
-0.115111 -0.162668 -0.404855 138 138 138
-0.112873 -0.165754 -0.405342 138 138 138
-0.110608 -0.168847 -0.405836 138 138 138
-0.108006 -0.171965 -0.406403 138 138 138
-0.103250 -0.175219 -0.407439 138 138 138
-0.097871 -0.178522 -0.408612 138 138 138
-0.088220 -0.182104 -0.410715 138 138 138
-0.059461 -0.186927 -0.416982 138 138 138
-0.035300 -0.191511 -0.422248 138 138 138
0.042604 0.212177 -0.442366 100 100 100
0.031659 0.208301 -0.439970 138 138 138
0.027218 0.204890 -0.438997 138 138 138
0.023204 0.201517 -0.438118 138 138 138
0.020261 0.198222 -0.437474 138 138 138
0.017313 0.194934 -0.436828 138 138 138
0.013814 0.191616 -0.436062 138 138 138
-0.051841 0.184397 -0.421686 138 138 138
-0.061649 0.180768 -0.419538 138 138 138
-0.067573 0.177395 -0.418241 138 138 138
-0.073432 0.174038 -0.416958 138 138 138
-0.079644 0.170672 -0.415598 138 138 138
-0.085494 0.167340 -0.414317 138 138 138
-0.092089 0.163978 -0.412873 138 138 138
-0.098836 0.160621 -0.411396 138 138 138
-0.104220 0.157353 -0.410217 138 138 138
-0.109334 0.154110 -0.409097 138 138 138
-0.112746 0.150967 -0.408350 138 138 138
-0.115601 0.147859 -0.407725 138 138 138
-0.118397 0.144761 -0.407113 138 138 138
-0.120705 0.141693 -0.406607 138 138 138
-0.122973 0.138631 -0.406111 138 138 138
-0.124784 0.135595 -0.405714 138 138 138
-0.126931 0.132548 -0.405244 138 138 138
-0.129142 0.129502 -0.404760 138 138 138
-0.131350 0.126461 -0.404276 138 138 138
-0.133452 0.123429 -0.403816 138 138 138
-0.135730 0.120394 -0.403317 138 138 138
-0.137924 0.117367 -0.402837 138 138 138
-0.140114 0.114345 -0.402357 138 138 138
-0.142717 0.111311 -0.401787 138 138 138
-0.144979 0.108296 -0.401292 138 138 138
-0.147002 0.105294 -0.400849 138 138 138
-0.148996 0.102297 -0.400413 138 138 138
-0.150730 0.099313 -0.400033 138 138 138
-0.152456 0.096334 -0.399655 138 138 138
-0.154149 0.093359 -0.399284 138 138 138
-0.155840 0.090387 -0.398914 138 138 138
-0.157160 0.087431 -0.398625 138 138 138
-0.158326 0.084481 -0.398370 138 138 138
-0.159386 0.081538 -0.398137 138 138 138
-0.160454 0.078596 -0.397904 138 138 138
