ply
format ascii 1.0
element vertex 1146
property float x
property float y
property float z
property uchar red
property uchar green
property uchar blue
end_header
-0.110286 -0.222276 -0.335934 138 138 138
-0.106730 -0.223666 -0.336411 138 138 138
-0.103106 -0.225027 -0.336904 138 138 138
-0.098665 -0.225977 -0.337579 138 138 138
-0.094194 -0.226920 -0.338260 138 138 138
-0.088861 -0.227434 -0.339134 138 138 138
-0.083251 -0.227818 -0.340068 138 138 138
-0.077891 -0.228339 -0.340946 138 138 138
-0.073450 -0.229332 -0.341617 138 138 138
-0.069286 -0.230472 -0.342225 138 138 138
-0.064765 -0.231440 -0.342912 138 138 138
-0.060691 -0.232639 -0.343499 138 138 138
-0.056628 -0.233851 -0.344082 138 138 138
-0.052209 -0.234892 -0.344744 138 138 138
-0.047418 -0.235756 -0.345489 138 138 138
-0.042630 -0.236631 -0.346232 138 138 138
-0.035965 -0.236590 -0.347392 138 138 138
-0.030840 -0.237318 -0.348208 138 138 138
-0.025427 -0.237915 -0.349087 138 138 138
-0.019598 -0.238318 -0.350058 138 138 138
-0.014110 -0.238898 -0.350952 138 138 138
-0.007966 -0.239170 -0.351991 138 138 138
-0.001521 -0.239307 -0.353095 138 138 138
0.004436 -0.239694 -0.354090 138 138 138
0.010693 -0.239947 -0.355149 138 138 138
0.017215 -0.240084 -0.356267 138 138 138
0.066501 -0.219707 -0.366857 100 100 100
-0.120106 0.155887 -0.375170 100 100 100
-0.124496 0.149302 -0.373741 138 138 138
-0.129306 0.142454 -0.372213 138 138 138
-0.133346 0.136137 -0.370873 138 138 138
-0.145841 0.124232 -0.367496 138 138 138
-0.156468 0.113603 -0.364573 138 138 138
-0.161640 0.106611 -0.362967 138 138 138
-0.164245 0.101328 -0.361981 138 138 138
-0.166507 0.096282 -0.361079 138 138 138
-0.168313 0.091546 -0.360287 138 138 138
-0.170150 0.086800 -0.359489 138 138 138
-0.172040 0.082028 -0.358679 138 138 138
-0.173680 0.077430 -0.357930 138 138 138
-0.175798 0.072530 -0.357068 138 138 138
-0.178279 0.067405 -0.356119 138 138 138
-0.183271 0.060668 -0.354570 138 138 138
-0.188578 0.053746 -0.352948 138 138 138
-0.194796 0.046258 -0.351110 138 138 138
-0.198059 0.040690 -0.349981 138 138 138
-0.201233 0.035193 -0.348874 138 138 138
-0.202311 0.031050 -0.348269 138 138 138
-0.203433 0.026885 -0.347654 138 138 138
-0.204553 0.022730 -0.347040 138 138 138
-0.205391 0.018760 -0.346495 138 138 138
-0.205990 0.014950 -0.346007 138 138 138
-0.206399 0.011265 -0.345565 138 138 138
-0.206599 0.007717 -0.345173 138 138 138
-0.206888 0.004118 -0.344760 138 138 138
-0.207163 0.000533 -0.344351 138 138 138
-0.207437 -0.003046 -0.343943 138 138 138
-0.207923 -0.006754 -0.343485 138 138 138
-0.208570 -0.010556 -0.342989 138 138 138
-0.209307 -0.014408 -0.342473 138 138 138
-0.210115 -0.018298 -0.341941 138 138 138
-0.210698 -0.022043 -0.341462 138 138 138
-0.211390 -0.025848 -0.340958 138 138 138
-0.212311 -0.029790 -0.340401 138 138 138
-0.213691 -0.034006 -0.339736 138 138 138
-0.215067 -0.038212 -0.339072 138 138 138
-0.216248 -0.042291 -0.338456 138 138 138
-0.216398 -0.045733 -0.338083 138 138 138
-0.216426 -0.049096 -0.337740 138 138 138
-0.216580 -0.052531 -0.337367 138 138 138
-0.215920 -0.055468 -0.337187 138 138 138
-0.215240 -0.058391 -0.337011 138 138 138
-0.214552 -0.061307 -0.336837 138 138 138
-0.213681 -0.064111 -0.336707 138 138 138
-0.212791 -0.066902 -0.336581 138 138 138
-0.211834 -0.069651 -0.336471 138 138 138
-0.210877 -0.072399 -0.336361 138 138 138
-0.209935 -0.075154 -0.336248 138 138 138
-0.208800 -0.077793 -0.336181 138 138 138
-0.207607 -0.080397 -0.336127 138 138 138
-0.206413 -0.083000 -0.336073 138 138 138
-0.205240 -0.085614 -0.336014 138 138 138
-0.204010 -0.088194 -0.335969 138 138 138
-0.202709 -0.090732 -0.335940 138 138 138
-0.201409 -0.093270 -0.335911 138 138 138
-0.200109 -0.095808 -0.335882 138 138 138
-0.198835 -0.098360 -0.335848 138 138 138
-0.197354 -0.100792 -0.335861 138 138 138
-0.195822 -0.103193 -0.335887 138 138 138
-0.194122 -0.105499 -0.335951 138 138 138
-0.192286 -0.107725 -0.336047 138 138 138
-0.190745 -0.110124 -0.336074 138 138 138
-0.189168 -0.112502 -0.336110 138 138 138
-0.187577 -0.114872 -0.336148 138 138 138
-0.185986 -0.117243 -0.336187 138 138 138
-0.184628 -0.119747 -0.336172 138 138 138
-0.183725 -0.122511 -0.336051 138 138 138
-0.182863 -0.125297 -0.335921 138 138 138
-0.181927 -0.128039 -0.335808 138 138 138
-0.180767 -0.130653 -0.335747 138 138 138
-0.179336 -0.133113 -0.335749 138 138 138
-0.177864 -0.135550 -0.335760 138 138 138
-0.176211 -0.137886 -0.335814 138 138 138
-0.174543 -0.140214 -0.335870 138 138 138
-0.172715 -0.142452 -0.335963 138 138 138
-0.170886 -0.144691 -0.336057 138 138 138
-0.168860 -0.146822 -0.336196 138 138 138
-0.167073 -0.149087 -0.336279 138 138 138
-0.165487 -0.151465 -0.336316 138 138 138
-0.163909 -0.153847 -0.336352 138 138 138
-0.162330 -0.156230 -0.336387 138 138 138
-0.160752 -0.158612 -0.336423 138 138 138
-0.159144 -0.160980 -0.336464 138 138 138
-0.157449 -0.163299 -0.336527 138 138 138
-0.155377 -0.165414 -0.336675 138 138 138
-0.153243 -0.167497 -0.336837 138 138 138
-0.151108 -0.169581 -0.337000 138 138 138
-0.148863 -0.171607 -0.337187 138 138 138
-0.146618 -0.173636 -0.337375 138 138 138
-0.144704 -0.175845 -0.337486 138 138 138
-0.142800 -0.178061 -0.337595 138 138 138
-0.140861 -0.180259 -0.337711 138 138 138
-0.139191 -0.182603 -0.337767 138 138 138
-0.137503 -0.184938 -0.337826 138 138 138
-0.135815 -0.187274 -0.337885 138 138 138
-0.134127 -0.189610 -0.337944 138 138 138
-0.132486 -0.191972 -0.337993 138 138 138
-0.131012 -0.194423 -0.338003 138 138 138
-0.129693 -0.196955 -0.337978 138 138 138
-0.128683 -0.199650 -0.337883 138 138 138
-0.127682 -0.202349 -0.337786 138 138 138
-0.126325 -0.204859 -0.337770 138 138 138
-0.124905 -0.207338 -0.337768 138 138 138
-0.123127 -0.209629 -0.337847 138 138 138
-0.121284 -0.211887 -0.337941 138 138 138
-0.118818 -0.213824 -0.338176 138 138 138
-0.116323 -0.215748 -0.338417 138 138 138
-0.113567 -0.217540 -0.338718 138 138 138
-0.110732 -0.219296 -0.339035 138 138 138
-0.107898 -0.221055 -0.339352 138 138 138
-0.104434 -0.222496 -0.339811 138 138 138
-0.100005 -0.223449 -0.340488 138 138 138
-0.095494 -0.224368 -0.341181 138 138 138
-0.090699 -0.225150 -0.341939 138 138 138
-0.085361 -0.225667 -0.342818 138 138 138
-0.080163 -0.226264 -0.343664 138 138 138
-0.075640 -0.227210 -0.344357 138 138 138
-0.071112 -0.228163 -0.345051 138 138 138
-0.066749 -0.229206 -0.345707 138 138 138
-0.062676 -0.230401 -0.346296 138 138 138
-0.058594 -0.231599 -0.346887 138 138 138
-0.054284 -0.232690 -0.347529 138 138 138
-0.049436 -0.233522 -0.348291 138 138 138
-0.044574 -0.234355 -0.349055 138 138 138
-0.037934 -0.234319 -0.350216 138 138 138
-0.031916 -0.234602 -0.351237 138 138 138
-0.026157 -0.235024 -0.352199 138 138 138
-0.020181 -0.235351 -0.353208 138 138 138
-0.014118 -0.235646 -0.354235 138 138 138
-0.008053 -0.235953 -0.355262 138 138 138
-0.002227 -0.236387 -0.356234 138 138 138
0.003703 -0.236782 -0.357228 138 138 138
0.009859 -0.237078 -0.358271 138 138 138
0.015936 -0.237425 -0.359296 138 138 138
0.060544 -0.219240 -0.368905 138 138 138
-0.122213 0.150833 -0.377355 138 138 138
-0.126982 0.144009 -0.375829 138 138 138
-0.131305 0.137500 -0.374413 138 138 138
-0.141800 0.126918 -0.371503 138 138 138
-0.153674 0.115459 -0.368262 138 138 138
-0.160744 0.107209 -0.366188 138 138 138
-0.163339 0.101931 -0.365199 138 138 138
-0.165765 0.096776 -0.364253 138 138 138
-0.167767 0.091911 -0.363410 138 138 138
-0.169591 0.087172 -0.362610 138 138 138
-0.171357 0.082480 -0.361826 138 138 138
-0.172986 0.077888 -0.361076 138 138 138
-0.175178 0.072939 -0.360191 138 138 138
-0.177305 0.068042 -0.359323 138 138 138
-0.181061 0.062103 -0.358064 138 138 138
-0.184196 0.056579 -0.356955 138 138 138
-0.190382 0.049105 -0.355115 138 138 138
-0.193908 0.043362 -0.353915 138 138 138
-0.197113 0.037838 -0.352795 138 138 138
-0.199530 0.032833 -0.351865 138 138 138
-0.201146 0.028349 -0.351128 138 138 138
-0.202270 0.024188 -0.350510 138 138 138
-0.203088 0.020228 -0.349966 138 138 138
-0.203842 0.016316 -0.349438 138 138 138
-0.204594 0.012410 -0.348911 138 138 138
-0.205025 0.008715 -0.348461 138 138 138
-0.205293 0.005127 -0.348051 138 138 138
-0.205565 0.001541 -0.347641 138 138 138
-0.205876 -0.002065 -0.347222 138 138 138
-0.206384 -0.005788 -0.346756 138 138 138
-0.206854 -0.009482 -0.346300 138 138 138
-0.207317 -0.013166 -0.345846 138 138 138
-0.208111 -0.017051 -0.345313 138 138 138
-0.208911 -0.020932 -0.344781 138 138 138
-0.209454 -0.024649 -0.344309 138 138 138
-0.210166 -0.028464 -0.343798 138 138 138
-0.211015 -0.032357 -0.343256 138 138 138
-0.212262 -0.036488 -0.342619 138 138 138
-0.213432 -0.040564 -0.342002 138 138 138
-0.214139 -0.044350 -0.341495 138 138 138
-0.214176 -0.047722 -0.341147 138 138 138
-0.214158 -0.051056 -0.340813 138 138 138
-0.213760 -0.054156 -0.340569 138 138 138
-0.213042 -0.057059 -0.340401 138 138 138
-0.212325 -0.059961 -0.340233 138 138 138
-0.211609 -0.062861 -0.340065 138 138 138
-0.210726 -0.065659 -0.339937 138 138 138
-0.209771 -0.068412 -0.339825 138 138 138
-0.208816 -0.071164 -0.339715 138 138 138
-0.207861 -0.073914 -0.339603 138 138 138
-0.206638 -0.076504 -0.339556 138 138 138
-0.205402 -0.079086 -0.339511 138 138 138
-0.204167 -0.081667 -0.339466 138 138 138
-0.202932 -0.084248 -0.339422 138 138 138
-0.201523 -0.086726 -0.339418 138 138 138
-0.200111 -0.089202 -0.339415 138 138 138
-0.198737 -0.091701 -0.339403 138 138 138
-0.197364 -0.094199 -0.339391 138 138 138
-0.195711 -0.096535 -0.339444 138 138 138
-0.193900 -0.098778 -0.339534 138 138 138
-0.192088 -0.101022 -0.339625 138 138 138
-0.190276 -0.103267 -0.339715 138 138 138
-0.188463 -0.105513 -0.339806 138 138 138
-0.186919 -0.107915 -0.339833 138 138 138
-0.185409 -0.110337 -0.339853 138 138 138
-0.183899 -0.112759 -0.339873 138 138 138
-0.182389 -0.115181 -0.339892 138 138 138
-0.181147 -0.117757 -0.339849 138 138 138
-0.180284 -0.120548 -0.339718 138 138 138
-0.179421 -0.123339 -0.339587 138 138 138
-0.178553 -0.126124 -0.339457 138 138 138
-0.177442 -0.128771 -0.339384 138 138 138
-0.176012 -0.131236 -0.339385 138 138 138
-0.174581 -0.133701 -0.339387 138 138 138
-0.173222 -0.136206 -0.339371 138 138 138
-0.171860 -0.138710 -0.339357 138 138 138
-0.170135 -0.141010 -0.339426 138 138 138
-0.168404 -0.143308 -0.339497 138 138 138
-0.166685 -0.145612 -0.339565 138 138 138
-0.164931 -0.147899 -0.339641 138 138 138
-0.163527 -0.150381 -0.339636 138 138 138
-0.162194 -0.152901 -0.339615 138 138 138
-0.160664 -0.155313 -0.339639 138 138 138
-0.159084 -0.157697 -0.339675 138 138 138
-0.157453 -0.160054 -0.339722 138 138 138
-0.155756 -0.162375 -0.339784 138 138 138
-0.154059 -0.164697 -0.339847 138 138 138
-0.152224 -0.166944 -0.339941 138 138 138
-0.150072 -0.169021 -0.340108 138 138 138
-0.148121 -0.171208 -0.340229 138 138 138
-0.146208 -0.173417 -0.340340 138 138 138
-0.144294 -0.175627 -0.340452 138 138 138
-0.142388 -0.177843 -0.340562 138 138 138
-0.140685 -0.180168 -0.340625 138 138 138
-0.138995 -0.182502 -0.340685 138 138 138
-0.137258 -0.184811 -0.340756 138 138 138
-0.135570 -0.187147 -0.340816 138 138 138
-0.133881 -0.189483 -0.340875 138 138 138
-0.132277 -0.191865 -0.340915 138 138 138
-0.130803 -0.194316 -0.340926 138 138 138
-0.129329 -0.196767 -0.340936 138 138 138
-0.127949 -0.199268 -0.340925 138 138 138
-0.126665 -0.201819 -0.340892 138 138 138
-0.125134 -0.204240 -0.340915 138 138 138
-0.123350 -0.206530 -0.340996 138 138 138
-0.121565 -0.208819 -0.341077 138 138 138
-0.119564 -0.210998 -0.341207 138 138 138
-0.116923 -0.212847 -0.341483 138 138 138
-0.114280 -0.214697 -0.341759 138 138 138
-0.111634 -0.216549 -0.342036 138 138 138
-0.108963 -0.218391 -0.342317 138 138 138
-0.105763 -0.219965 -0.342719 138 138 138
-0.101386 -0.220941 -0.343387 138 138 138
-0.097317 -0.222082 -0.343985 138 138 138
-0.093123 -0.223166 -0.344610 138 138 138
-0.088146 -0.223859 -0.345412 138 138 138
-0.082912 -0.224431 -0.346272 138 138 138
-0.078317 -0.225337 -0.346985 138 138 138
-0.073796 -0.226287 -0.347682 138 138 138
-0.069345 -0.227281 -0.348361 138 138 138
-0.065162 -0.228416 -0.348979 138 138 138
-0.061084 -0.229612 -0.349573 138 138 138
-0.056852 -0.230737 -0.350201 138 138 138
-0.051923 -0.231522 -0.350985 138 138 138
-0.046808 -0.232224 -0.351811 138 138 138
-0.039756 -0.231976 -0.353072 138 138 138
-0.032807 -0.231793 -0.354308 138 138 138
-0.026886 -0.232131 -0.355312 138 138 138
-0.020947 -0.232471 -0.356318 138 138 138
-0.015003 -0.232820 -0.357325 138 138 138
-0.008992 -0.233148 -0.358345 138 138 138
-0.002930 -0.233462 -0.359376 138 138 138
0.003073 -0.233817 -0.360392 138 138 138
0.009362 -0.234044 -0.361471 138 138 138
0.023212 -0.230626 -0.364244 138 138 138
0.054622 -0.218766 -0.370949 138 138 138
-0.119973 0.152335 -0.380965 138 138 138
-0.125477 0.145019 -0.379251 138 138 138
-0.129260 0.138866 -0.377959 138 138 138
-0.134754 0.131595 -0.376252 138 138 138
-0.151600 0.116838 -0.371784 138 138 138
-0.159303 0.108167 -0.369545 138 138 138
-0.162482 0.102503 -0.368409 138 138 138
-0.164916 0.097341 -0.367455 138 138 138
-0.167173 0.092307 -0.366545 138 138 138
-0.168905 0.087627 -0.365764 138 138 138
-0.170632 0.082960 -0.364985 138 138 138
-0.172288 0.078348 -0.364225 138 138 138
-0.174283 0.073526 -0.363383 138 138 138
-0.176527 0.068552 -0.362482 138 138 138
-0.178971 0.063460 -0.361533 138 138 138
-0.181989 0.058009 -0.360447 138 138 138
-0.185652 0.052156 -0.359207 138 138 138
-0.189628 0.046117 -0.357892 138 138 138
-0.192976 0.040495 -0.356730 138 138 138
-0.195550 0.035383 -0.355757 138 138 138
-0.197755 0.030518 -0.354874 138 138 138
-0.199954 0.025667 -0.353993 138 138 138
-0.200917 0.021612 -0.353411 138 138 138
-0.201862 0.017575 -0.352834 138 138 138
-0.202806 0.013546 -0.352258 138 138 138
-0.203336 0.009784 -0.351782 138 138 138
-0.203707 0.006129 -0.351345 138 138 138
-0.203972 0.002545 -0.350934 138 138 138
-0.204313 -0.001081 -0.350505 138 138 138
-0.204823 -0.004808 -0.350036 138 138 138
-0.205320 -0.008522 -0.349571 138 138 138
-0.205785 -0.012210 -0.349114 138 138 138
-0.206406 -0.015989 -0.348620 138 138 138
-0.206945 -0.019712 -0.348146 138 138 138
-0.207667 -0.023542 -0.347630 138 138 138
-0.208450 -0.027403 -0.347099 138 138 138
-0.209289 -0.031293 -0.346556 138 138 138
-0.210054 -0.035130 -0.346030 138 138 138
-0.210648 -0.038857 -0.345547 138 138 138
-0.211320 -0.042626 -0.345045 138 138 138
-0.211970 -0.046375 -0.344549 138 138 138
-0.211953 -0.049713 -0.344213 138 138 138
-0.211591 -0.052837 -0.343959 138 138 138
-0.211118 -0.055892 -0.343731 138 138 138
-0.210401 -0.058797 -0.343562 138 138 138
-0.209686 -0.061700 -0.343393 138 138 138
-0.208685 -0.064430 -0.343292 138 138 138
-0.207634 -0.067129 -0.343202 138 138 138
-0.206650 -0.069867 -0.343097 138 138 138
-0.205695 -0.072620 -0.342986 138 138 138
-0.204283 -0.075101 -0.342982 138 138 138
-0.202869 -0.077580 -0.342979 138 138 138
-0.201633 -0.080165 -0.342934 138 138 138
-0.200396 -0.082748 -0.342889 138 138 138
-0.198906 -0.085182 -0.342904 138 138 138
-0.197252 -0.087519 -0.342958 138 138 138
-0.195710 -0.089923 -0.342985 138 138 138
-0.194292 -0.092400 -0.342983 138 138 138
-0.192501 -0.094658 -0.343068 138 138 138
-0.190687 -0.096905 -0.343159 138 138 138
-0.188606 -0.098997 -0.343313 138 138 138
-0.186635 -0.101155 -0.343441 138 138 138
-0.184771 -0.103376 -0.343544 138 138 138
-0.183169 -0.105750 -0.343584 138 138 138
-0.181748 -0.108228 -0.343582 138 138 138
-0.180371 -0.110732 -0.343570 138 138 138
-0.178994 -0.113235 -0.343558 138 138 138
-0.178018 -0.115968 -0.343452 138 138 138
-0.177253 -0.118820 -0.343297 138 138 138
-0.176335 -0.121583 -0.343178 138 138 138
-0.175417 -0.124344 -0.343059 138 138 138
-0.174493 -0.127102 -0.342941 138 138 138
-0.173470 -0.129801 -0.342847 138 138 138
-0.172146 -0.132330 -0.342823 138 138 138
-0.170797 -0.134844 -0.342805 138 138 138
-0.169422 -0.137343 -0.342793 138 138 138
-0.167988 -0.139810 -0.342794 138 138 138
-0.166544 -0.142271 -0.342799 138 138 138
-0.164762 -0.144543 -0.342881 138 138 138
-0.162980 -0.146817 -0.342964 138 138 138
-0.161519 -0.149270 -0.342972 138 138 138
-0.160228 -0.151816 -0.342940 138 138 138
-0.158859 -0.154319 -0.342927 138 138 138
-0.157415 -0.156781 -0.342931 138 138 138
-0.155759 -0.159126 -0.342984 138 138 138
-0.154060 -0.161449 -0.343047 138 138 138
-0.152297 -0.163737 -0.343125 138 138 138
-0.150552 -0.166036 -0.343199 138 138 138
-0.149028 -0.168456 -0.343221 138 138 138
-0.147594 -0.170925 -0.343222 138 138 138
-0.145798 -0.173198 -0.343308 138 138 138
-0.143883 -0.175409 -0.343420 138 138 138
-0.141977 -0.177624 -0.343531 138 138 138
-0.140486 -0.180065 -0.343545 138 138 138
-0.138891 -0.182449 -0.343583 138 138 138
-0.137151 -0.184757 -0.343655 138 138 138
-0.135339 -0.187027 -0.343743 138 138 138
-0.133643 -0.189360 -0.343805 138 138 138
-0.132067 -0.191758 -0.343839 138 138 138
-0.130593 -0.194209 -0.343849 138 138 138
-0.129057 -0.196628 -0.343874 138 138 138
-0.127462 -0.199016 -0.343912 138 138 138
-0.126048 -0.201499 -0.343908 138 138 138
-0.123894 -0.203596 -0.344075 138 138 138
-0.121861 -0.205756 -0.344213 138 138 138
-0.120069 -0.208045 -0.344296 138 138 138
-0.117836 -0.210105 -0.344480 138 138 138
-0.115193 -0.211954 -0.344757 138 138 138
-0.112630 -0.213848 -0.345016 138 138 138
-0.109968 -0.215694 -0.345297 138 138 138
-0.106992 -0.217382 -0.345650 138 138 138
-0.103391 -0.218753 -0.346145 138 138 138
-0.099325 -0.219891 -0.346745 138 138 138
-0.095126 -0.220968 -0.347375 138 138 138
-0.090743 -0.221959 -0.348047 138 138 138
-0.085540 -0.222541 -0.348904 138 138 138
-0.080970 -0.223453 -0.349616 138 138 138
-0.076480 -0.224414 -0.350310 138 138 138
-0.071993 -0.225384 -0.351001 138 138 138
-0.067728 -0.226473 -0.351642 138 138 138
-0.063573 -0.227625 -0.352257 138 138 138
-0.059446 -0.228798 -0.352864 138 138 138
-0.054451 -0.229545 -0.353668 138 138 138
-0.048900 -0.230024 -0.354598 138 138 138
-0.041596 -0.229643 -0.355923 138 138 138
-0.034399 -0.229330 -0.357223 138 138 138
-0.027874 -0.229363 -0.358369 138 138 138
-0.021952 -0.229707 -0.359377 138 138 138
-0.016248 -0.230169 -0.360334 138 138 138
-0.010164 -0.230456 -0.361377 138 138 138
-0.003667 -0.230552 -0.362512 138 138 138
0.002495 -0.230825 -0.363570 138 138 138
0.008826 -0.231027 -0.364664 138 138 138
0.035007 -0.221613 -0.370234 138 138 138
0.049706 -0.217817 -0.373209 138 138 138
0.064839 -0.213845 -0.376279 100 100 100
-0.114997 0.155663 -0.385252 100 100 100
-0.123613 0.146267 -0.382765 138 138 138
-0.127435 0.140086 -0.381457 138 138 138
-0.132413 0.133154 -0.379867 138 138 138
-0.147312 0.119681 -0.375852 138 138 138
-0.158194 0.108906 -0.372824 138 138 138
-0.161924 0.102877 -0.371547 138 138 138
-0.164245 0.097788 -0.370616 138 138 138
-0.166340 0.092860 -0.369741 138 138 138
-0.168176 0.088110 -0.368930 138 138 138
-0.169905 0.083441 -0.368147 138 138 138
-0.171516 0.078857 -0.367393 138 138 138
-0.173385 0.074116 -0.366578 138 138 138
-0.175577 0.069174 -0.365684 138 138 138
-0.177762 0.064248 -0.364794 138 138 138
-0.179701 0.059491 -0.363964 138 138 138
-0.182757 0.054025 -0.362864 138 138 138
-0.185721 0.048631 -0.361788 138 138 138
-0.188627 0.043288 -0.360728 138 138 138
-0.191747 0.037820 -0.359616 138 138 138
-0.194344 0.032699 -0.358633 138 138 138
-0.196568 0.027827 -0.357741 138 138 138
-0.198894 0.022901 -0.356826 138 138 138
-0.200159 0.018659 -0.356168 138 138 138
-0.201104 0.014626 -0.355589 138 138 138
-0.201563 0.010907 -0.355127 138 138 138
-0.201936 0.007247 -0.354687 138 138 138
-0.202365 0.003558 -0.354234 138 138 138
-0.202841 -0.000155 -0.353770 138 138 138
-0.203269 -0.003833 -0.353318 138 138 138
-0.203770 -0.007551 -0.352850 138 138 138
-0.204276 -0.011267 -0.352380 138 138 138
-0.204947 -0.015080 -0.351872 138 138 138
-0.205501 -0.018814 -0.351392 138 138 138
-0.205950 -0.022477 -0.350938 138 138 138
-0.206713 -0.026329 -0.350409 138 138 138
-0.207635 -0.030272 -0.349843 138 138 138
-0.208413 -0.034120 -0.349312 138 138 138
-0.208897 -0.037782 -0.348851 138 138 138
-0.209099 -0.041267 -0.348460 138 138 138
-0.209322 -0.044759 -0.348063 138 138 138
-0.209741 -0.048366 -0.347620 138 138 138
-0.209345 -0.051473 -0.347373 138 138 138
-0.208949 -0.054578 -0.347125 138 138 138
-0.208474 -0.057631 -0.346897 138 138 138
-0.207725 -0.060517 -0.346735 138 138 138
-0.206674 -0.063220 -0.346645 138 138 138
-0.205622 -0.065921 -0.346555 138 138 138
-0.204571 -0.068622 -0.346465 138 138 138
-0.203477 -0.071295 -0.346385 138 138 138
-0.202055 -0.073773 -0.346384 138 138 138
-0.200635 -0.076252 -0.346382 138 138 138
-0.199214 -0.078730 -0.346380 138 138 138
-0.197855 -0.081245 -0.346364 138 138 138
-0.196284 -0.083634 -0.346398 138 138 138
-0.194595 -0.085955 -0.346459 138 138 138
-0.192795 -0.088211 -0.346547 138 138 138
-0.190994 -0.090468 -0.346636 138 138 138
-0.189121 -0.092683 -0.346741 138 138 138
-0.187175 -0.094857 -0.346863 138 138 138
-0.185321 -0.097086 -0.346964 138 138 138
-0.183466 -0.099316 -0.347064 138 138 138
-0.181610 -0.101547 -0.347165 138 138 138
-0.180044 -0.103946 -0.347197 138 138 138
-0.178571 -0.106399 -0.347207 138 138 138
-0.177109 -0.108858 -0.347214 138 138 138
-0.175803 -0.111406 -0.347185 138 138 138
-0.174860 -0.114162 -0.347070 138 138 138
-0.174114 -0.117030 -0.346909 138 138 138
-0.173369 -0.119895 -0.346748 138 138 138
-0.172529 -0.122706 -0.346609 138 138 138
-0.171570 -0.125446 -0.346499 138 138 138
-0.170546 -0.128150 -0.346404 138 138 138
-0.169522 -0.130852 -0.346309 138 138 138
-0.168368 -0.133479 -0.346245 138 138 138
-0.166978 -0.135974 -0.346236 138 138 138
-0.165544 -0.138443 -0.346238 138 138 138
-0.164109 -0.140913 -0.346239 138 138 138
-0.162674 -0.143382 -0.346241 138 138 138
-0.161204 -0.145832 -0.346251 138 138 138
-0.159777 -0.148306 -0.346250 138 138 138
-0.158351 -0.150780 -0.346250 138 138 138
-0.157015 -0.153304 -0.346229 138 138 138
-0.155683 -0.155830 -0.346206 138 138 138
-0.154010 -0.158169 -0.346263 138 138 138
-0.152305 -0.160490 -0.346328 138 138 138
-0.150731 -0.162885 -0.346362 138 138 138
-0.149158 -0.165279 -0.346395 138 138 138
-0.147876 -0.167833 -0.346362 138 138 138
-0.146727 -0.170458 -0.346296 138 138 138
-0.145186 -0.172871 -0.346323 138 138 138
-0.143473 -0.175190 -0.346389 138 138 138
-0.141635 -0.177444 -0.346484 138 138 138
-0.140286 -0.179961 -0.346465 138 138 138
-0.138724 -0.182364 -0.346496 138 138 138
-0.137080 -0.184723 -0.346546 138 138 138
-0.135307 -0.187014 -0.346626 138 138 138
-0.133512 -0.189294 -0.346711 138 138 138
-0.131703 -0.191568 -0.346799 138 138 138
-0.130107 -0.193956 -0.346837 138 138 138
-0.128511 -0.196344 -0.346876 138 138 138
-0.127006 -0.198780 -0.346893 138 138 138
-0.124987 -0.200947 -0.347029 138 138 138
-0.122832 -0.203044 -0.347196 138 138 138
-0.120696 -0.205152 -0.347359 138 138 138
-0.118693 -0.207332 -0.347491 138 138 138
-0.116355 -0.209340 -0.347699 138 138 138
-0.113901 -0.211289 -0.347935 138 138 138
-0.111017 -0.213019 -0.348268 138 138 138
-0.108159 -0.214766 -0.348596 138 138 138
-0.105299 -0.216516 -0.348923 138 138 138
-0.101349 -0.217710 -0.349501 138 138 138
-0.097129 -0.218772 -0.350139 138 138 138
-0.092821 -0.219797 -0.350797 138 138 138
-0.088142 -0.220640 -0.351540 138 138 138
-0.083511 -0.221516 -0.352270 138 138 138
-0.079057 -0.222490 -0.352959 138 138 138
-0.074600 -0.223470 -0.353648 138 138 138
-0.070378 -0.224575 -0.354283 138 138 138
-0.066107 -0.225664 -0.354927 138 138 138
-0.061982 -0.226833 -0.355538 138 138 138
-0.056946 -0.227554 -0.356356 138 138 138
-0.051359 -0.228008 -0.357299 138 138 138
-0.043668 -0.227426 -0.358720 138 138 138
-0.036131 -0.226937 -0.360105 138 138 138
-0.029118 -0.226722 -0.361368 138 138 138
-0.023756 -0.227337 -0.362255 138 138 138
-0.017884 -0.227710 -0.363256 138 138 138
-0.011533 -0.227860 -0.364366 138 138 138
-0.004912 -0.227889 -0.365535 138 138 138
0.001419 -0.228073 -0.366637 138 138 138
0.007670 -0.228309 -0.367719 138 138 138
0.029436 -0.221012 -0.372319 138 138 138
0.043557 -0.217474 -0.375181 138 138 138
0.058248 -0.213693 -0.378169 138 138 138
-0.122418 0.147071 -0.386120 138 138 138
-0.126317 0.140837 -0.384786 138 138 138
-0.130167 0.134651 -0.383465 138 138 138
-0.140185 0.124402 -0.380629 138 138 138
-0.156159 0.110256 -0.376333 138 138 138
-0.160476 0.103837 -0.374905 138 138 138
-0.163397 0.098352 -0.373822 138 138 138
-0.165490 0.093423 -0.372943 138 138 138
-0.167406 0.088620 -0.372109 138 138 138
-0.169180 0.083920 -0.371310 138 138 138
-0.170743 0.079367 -0.370564 138 138 138
-0.172394 0.074766 -0.369798 138 138 138
-0.174626 0.069796 -0.368890 138 138 138
-0.176550 0.065037 -0.368059 138 138 138
-0.178370 0.060356 -0.367254 138 138 138
-0.180416 0.055538 -0.366395 138 138 138
-0.182896 0.050451 -0.365431 138 138 138
-0.185554 0.045262 -0.364425 138 138 138
-0.187947 0.040255 -0.363484 138 138 138
-0.190450 0.035189 -0.362518 138 138 138
-0.193206 0.029973 -0.361492 138 138 138
-0.195607 0.024994 -0.360553 138 138 138
-0.197842 0.020131 -0.359656 138 138 138
-0.199400 0.015708 -0.358924 138 138 138
-0.199893 0.011965 -0.358452 138 138 138
-0.200407 0.008214 -0.357975 138 138 138
-0.200920 0.004470 -0.357499 138 138 138
-0.201386 0.000760 -0.357035 138 138 138
-0.201827 -0.002928 -0.356578 138 138 138
-0.202266 -0.006610 -0.356121 138 138 138
-0.202803 -0.010347 -0.355642 138 138 138
-0.203446 -0.014144 -0.355137 138 138 138
-0.204117 -0.017953 -0.354626 138 138 138
-0.204597 -0.021638 -0.354163 138 138 138
-0.205176 -0.025378 -0.353675 138 138 138
-0.205897 -0.029200 -0.353154 138 138 138
-0.206768 -0.033108 -0.352598 138 138 138
-0.207173 -0.036724 -0.352154 138 138 138
-0.207375 -0.040211 -0.351760 138 138 138
-0.207612 -0.043714 -0.351358 138 138 138
-0.207796 -0.047180 -0.350969 138 138 138
-0.207272 -0.050213 -0.350751 138 138 138
-0.206823 -0.053289 -0.350514 138 138 138
-0.206375 -0.056362 -0.350279 138 138 138
-0.205705 -0.059298 -0.350096 138 138 138
-0.204603 -0.061973 -0.350017 138 138 138
-0.203501 -0.064648 -0.349939 138 138 138
-0.202400 -0.067321 -0.349860 138 138 138
-0.201336 -0.070016 -0.349772 138 138 138
-0.199999 -0.072548 -0.349750 138 138 138
-0.198359 -0.074898 -0.349801 138 138 138
-0.196906 -0.077361 -0.349806 138 138 138
-0.195454 -0.079824 -0.349811 138 138 138
-0.193522 -0.082004 -0.349931 138 138 138
-0.191552 -0.084164 -0.350060 138 138 138
-0.189682 -0.086383 -0.350165 138 138 138
-0.187854 -0.088628 -0.350259 138 138 138
-0.185950 -0.090830 -0.350372 138 138 138
-0.184030 -0.093024 -0.350488 138 138 138
-0.182171 -0.095255 -0.350590 138 138 138
-0.180311 -0.097486 -0.350692 138 138 138
-0.178686 -0.099855 -0.350737 138 138 138
-0.177245 -0.102329 -0.350740 138 138 138
-0.175855 -0.104834 -0.350729 138 138 138
-0.174465 -0.107339 -0.350720 138 138 138
-0.173076 -0.109843 -0.350709 138 138 138
-0.172055 -0.112559 -0.350612 138 138 138
-0.171264 -0.115405 -0.350460 138 138 138
-0.170473 -0.118248 -0.350309 138 138 138
-0.169683 -0.121091 -0.350158 138 138 138
-0.168808 -0.123883 -0.350026 138 138 138
-0.167786 -0.126591 -0.349930 138 138 138
-0.166763 -0.129297 -0.349834 138 138 138
-0.165741 -0.132003 -0.349738 138 138 138
-0.164633 -0.134659 -0.349662 138 138 138
-0.163258 -0.137166 -0.349649 138 138 138
-0.161854 -0.139656 -0.349643 138 138 138
-0.160450 -0.142145 -0.349638 138 138 138
-0.159139 -0.144686 -0.349610 138 138 138
-0.158017 -0.147332 -0.349538 138 138 138
-0.156620 -0.149825 -0.349530 138 138 138
-0.155229 -0.152321 -0.349521 138 138 138
-0.153984 -0.154898 -0.349478 138 138 138
-0.152536 -0.157362 -0.349483 138 138 138
-0.150961 -0.159757 -0.349517 138 138 138
-0.149387 -0.162153 -0.349550 138 138 138
-0.147897 -0.164595 -0.349565 138 138 138
-0.146722 -0.167208 -0.349505 138 138 138
-0.145573 -0.169835 -0.349440 138 138 138
-0.144414 -0.172456 -0.349377 138 138 138
-0.142854 -0.174859 -0.349408 138 138 138
-0.141436 -0.177340 -0.349405 138 138 138
-0.140087 -0.179857 -0.349387 138 138 138
-0.138559 -0.182278 -0.349410 138 138 138
-0.136914 -0.184637 -0.349460 138 138 138
-0.135185 -0.186953 -0.349530 138 138 138
-0.133388 -0.189232 -0.349616 138 138 138
-0.131557 -0.191495 -0.349709 138 138 138
-0.129706 -0.193748 -0.349807 138 138 138
-0.127965 -0.196060 -0.349879 138 138 138
-0.126079 -0.198296 -0.349985 138 138 138
-0.123925 -0.200393 -0.350153 138 138 138
-0.121769 -0.202491 -0.350321 138 138 138
-0.119612 -0.204591 -0.350489 138 138 138
-0.117485 -0.206708 -0.350650 138 138 138
-0.115103 -0.208694 -0.350870 138 138 138
-0.112302 -0.210465 -0.351186 138 138 138
-0.109327 -0.212150 -0.351543 138 138 138
-0.106467 -0.213899 -0.351872 138 138 138
-0.103388 -0.215538 -0.352251 138 138 138
-0.099166 -0.216595 -0.352894 138 138 138
-0.094845 -0.217608 -0.353559 138 138 138
-0.090513 -0.218624 -0.354225 138 138 138
-0.086064 -0.219587 -0.354918 138 138 138
-0.081614 -0.220558 -0.355610 138 138 138
-0.077157 -0.221533 -0.356303 138 138 138
-0.072409 -0.222368 -0.357063 138 138 138
-0.068471 -0.223620 -0.357635 138 138 138
-0.064484 -0.224854 -0.358217 138 138 138
-0.059328 -0.225509 -0.359068 138 138 138
-0.053890 -0.226031 -0.359982 138 138 138
-0.046597 -0.225639 -0.361320 138 138 138
-0.038257 -0.224740 -0.362896 138 138 138
-0.030363 -0.224080 -0.364369 138 138 138
-0.025225 -0.224801 -0.365209 138 138 138
-0.019835 -0.225407 -0.366106 138 138 138
-0.013989 -0.225798 -0.367106 138 138 138
-0.006564 -0.225425 -0.368466 138 138 138
-0.000107 -0.225542 -0.369603 138 138 138
0.006374 -0.225659 -0.370744 138 138 138
0.021528 -0.221560 -0.373862 138 138 138
0.036430 -0.217619 -0.376919 138 138 138
0.050106 -0.214306 -0.379693 138 138 138
0.067839 -0.209061 -0.383387 100 100 100
-0.120279 0.148503 -0.389711 138 138 138
-0.125150 0.141619 -0.388129 138 138 138
-0.128675 0.135647 -0.386882 138 138 138
-0.135449 0.127541 -0.384833 138 138 138
-0.153828 0.111802 -0.379921 138 138 138
-0.158136 0.105385 -0.378488 138 138 138
-0.162268 0.099101 -0.377100 138 138 138
-0.164324 0.094194 -0.376225 138 138 138
-0.166389 0.089292 -0.375350 138 138 138
-0.168400 0.084435 -0.374489 138 138 138
-0.169969 0.079877 -0.373738 138 138 138
-0.171517 0.075342 -0.372992 138 138 138
-0.173461 0.070557 -0.372151 138 138 138
-0.175097 0.065983 -0.371386 138 138 138
-0.176864 0.061333 -0.370590 138 138 138
-0.178412 0.056833 -0.369848 138 138 138
-0.180407 0.052056 -0.368998 138 138 138
-0.183050 0.046872 -0.367990 138 138 138
-0.185130 0.042061 -0.367121 138 138 138
-0.187276 0.037219 -0.366237 138 138 138
-0.189789 0.032152 -0.365265 138 138 138
-0.192240 0.027137 -0.364309 138 138 138
-0.194676 0.022143 -0.363357 138 138 138
-0.196788 0.017364 -0.362486 138 138 138
-0.198287 0.012982 -0.361765 138 138 138
-0.198959 0.009130 -0.361248 138 138 138
-0.199473 0.005382 -0.360768 138 138 138
-0.199929 0.001677 -0.360304 138 138 138
-0.200371 -0.002014 -0.359844 138 138 138
-0.200881 -0.005742 -0.359368 138 138 138
-0.201455 -0.009504 -0.358877 138 138 138
-0.202090 -0.013299 -0.358372 138 138 138
-0.202683 -0.017061 -0.357877 138 138 138
-0.203259 -0.020808 -0.357387 138 138 138
-0.203847 -0.024556 -0.356895 138 138 138
-0.204454 -0.028310 -0.356399 138 138 138
-0.205154 -0.032115 -0.355880 138 138 138
-0.205544 -0.035723 -0.355438 138 138 138
-0.205850 -0.039276 -0.355017 138 138 138
-0.206157 -0.042825 -0.354595 138 138 138
-0.206193 -0.046203 -0.354240 138 138 138
-0.205654 -0.049229 -0.354024 138 138 138
-0.205116 -0.052253 -0.353808 138 138 138
-0.204608 -0.055293 -0.353585 138 138 138
-0.203836 -0.058171 -0.353426 138 138 138
-0.202797 -0.060886 -0.353331 138 138 138
-0.201845 -0.063653 -0.353216 138 138 138
-0.200894 -0.066418 -0.353100 138 138 138
-0.199805 -0.069101 -0.353018 138 138 138
-0.198176 -0.071461 -0.353066 138 138 138
-0.196354 -0.073706 -0.353160 138 138 138
-0.194531 -0.075952 -0.353254 138 138 138
-0.193043 -0.078398 -0.353267 138 138 138
-0.191071 -0.080558 -0.353397 138 138 138
-0.189099 -0.082719 -0.353527 138 138 138
-0.187126 -0.084882 -0.353656 138 138 138
-0.185236 -0.087094 -0.353766 138 138 138
-0.183478 -0.089385 -0.353844 138 138 138
-0.181766 -0.091704 -0.353910 138 138 138
-0.179974 -0.093977 -0.353996 138 138 138
-0.178349 -0.096347 -0.354042 138 138 138
-0.176758 -0.098738 -0.354080 138 138 138
-0.175485 -0.101314 -0.354041 138 138 138
-0.173839 -0.103673 -0.354092 138 138 138
-0.172448 -0.106180 -0.354082 138 138 138
-0.171057 -0.108687 -0.354072 138 138 138
-0.169817 -0.111280 -0.354026 138 138 138
-0.168620 -0.113897 -0.353970 138 138 138
-0.167828 -0.116743 -0.353818 138 138 138
-0.167038 -0.119589 -0.353665 138 138 138
-0.166182 -0.122397 -0.353528 138 138 138
-0.165239 -0.125153 -0.353412 138 138 138
-0.164250 -0.127882 -0.353307 138 138 138
-0.163227 -0.130591 -0.353211 138 138 138
-0.162101 -0.133241 -0.353138 138 138 138
-0.160921 -0.135859 -0.353079 138 138 138
-0.159669 -0.138437 -0.353037 138 138 138
-0.158263 -0.140929 -0.353031 138 138 138
-0.157011 -0.143506 -0.352989 138 138 138
-0.155888 -0.146154 -0.352916 138 138 138
-0.154766 -0.148802 -0.352843 138 138 138
-0.153460 -0.151348 -0.352814 138 138 138
-0.152169 -0.153901 -0.352781 138 138 138
-0.150886 -0.156459 -0.352747 138 138 138
-0.149604 -0.159016 -0.352712 138 138 138
-0.148042 -0.161421 -0.352743 138 138 138
-0.146717 -0.163955 -0.352718 138 138 138
-0.145567 -0.166584 -0.352652 138 138 138
-0.144418 -0.169212 -0.352587 138 138 138
-0.143269 -0.171840 -0.352521 138 138 138
-0.142087 -0.174449 -0.352463 138 138 138
-0.140898 -0.177054 -0.352406 138 138 138
-0.139780 -0.179696 -0.352334 138 138 138
-0.138306 -0.182147 -0.352344 138 138 138
-0.136466 -0.184402 -0.352440 138 138 138
-0.134650 -0.186671 -0.352531 138 138 138
-0.132853 -0.188951 -0.352617 138 138 138
-0.131054 -0.191232 -0.352703 138 138 138
-0.129236 -0.193503 -0.352794 138 138 138
-0.127402 -0.195767 -0.352888 138 138 138
-0.125392 -0.197939 -0.353023 138 138 138
-0.123263 -0.200050 -0.353186 138 138 138
-0.121103 -0.202147 -0.353356 138 138 138
-0.118925 -0.204236 -0.353529 138 138 138
-0.116203 -0.206044 -0.353830 138 138 138
-0.113819 -0.208031 -0.354051 138 138 138
-0.110942 -0.209765 -0.354386 138 138 138
-0.108040 -0.211490 -0.354727 138 138 138
-0.105023 -0.213159 -0.355095 138 138 138
-0.101245 -0.214441 -0.355638 138 138 138
-0.096955 -0.215465 -0.356299 138 138 138
-0.092623 -0.216476 -0.356970 138 138 138
-0.087868 -0.217279 -0.357737 138 138 138
-0.083563 -0.218319 -0.358400 138 138 138
-0.079319 -0.219397 -0.359047 138 138 138
-0.074353 -0.220117 -0.359861 138 138 138
-0.070418 -0.221367 -0.360436 138 138 138
-0.066210 -0.222487 -0.361073 138 138 138
-0.061332 -0.223275 -0.361864 138 138 138
-0.056284 -0.223988 -0.362693 138 138 138
-0.049311 -0.223747 -0.363965 138 138 138
-0.041145 -0.222924 -0.365511 138 138 138
-0.032767 -0.222013 -0.367103 138 138 138
-0.026818 -0.222326 -0.368135 138 138 138
-0.021729 -0.223076 -0.368968 138 138 138
-0.015954 -0.223497 -0.369957 138 138 138
-0.009367 -0.223529 -0.371132 138 138 138
-0.002836 -0.223601 -0.372292 138 138 138
0.003939 -0.223566 -0.373508 138 138 138
0.013737 -0.222067 -0.375415 138 138 138
0.028021 -0.218402 -0.378348 138 138 138
0.043302 -0.214285 -0.381506 138 138 138
0.060891 -0.209083 -0.385189 138 138 138
-0.118523 0.149680 -0.393212 138 138 138
-0.124463 0.142083 -0.391356 138 138 138
-0.128036 0.136078 -0.390091 138 138 138
-0.133839 0.128613 -0.388273 138 138 138
-0.150590 0.113945 -0.383740 138 138 138
-0.156552 0.106434 -0.381889 138 138 138
-0.160577 0.100219 -0.380520 138 138 138
-0.163120 0.094990 -0.379521 138 138 138
-0.165146 0.090112 -0.378650 138 138 138
-0.167142 0.085263 -0.377788 138 138 138
-0.168874 0.080597 -0.376993 138 138 138
-0.170614 0.075934 -0.376196 138 138 138
-0.172232 0.071360 -0.375430 138 138 138
-0.173614 0.066948 -0.374724 138 138 138
-0.175264 0.062371 -0.373952 138 138 138
-0.176720 0.057928 -0.373230 138 138 138
-0.177916 0.053661 -0.372572 138 138 138
-0.180398 0.048578 -0.371598 138 138 138
-0.182615 0.043675 -0.370691 138 138 138
-0.184552 0.038962 -0.369854 138 138 138
-0.186616 0.034177 -0.368986 138 138 138
-0.189002 0.029198 -0.368041 138 138 138
-0.191296 0.024289 -0.367119 138 138 138
-0.193681 0.019333 -0.366176 138 138 138
-0.195609 0.014676 -0.365346 138 138 138
-0.197080 0.010317 -0.364629 138 138 138
-0.197982 0.006323 -0.364052 138 138 138
-0.198564 0.002536 -0.363555 138 138 138
-0.199091 -0.001210 -0.363071 138 138 138
-0.199618 -0.004950 -0.362589 138 138 138
-0.200244 -0.008748 -0.362082 138 138 138
-0.200815 -0.012504 -0.361589 138 138 138
-0.201384 -0.016254 -0.361098 138 138 138
-0.201980 -0.020014 -0.360601 138 138 138
-0.202545 -0.023749 -0.360111 138 138 138
-0.203105 -0.027477 -0.359624 138 138 138
-0.203742 -0.031245 -0.359118 138 138 138
-0.204184 -0.034888 -0.358661 138 138 138
-0.204425 -0.038403 -0.358253 138 138 138
-0.204699 -0.041933 -0.357837 138 138 138
-0.204588 -0.045225 -0.357516 138 138 138
-0.204049 -0.048254 -0.357298 138 138 138
-0.203568 -0.051314 -0.357067 138 138 138
-0.203130 -0.054398 -0.356826 138 138 138
-0.202305 -0.057246 -0.356678 138 138 138
-0.201330 -0.060003 -0.356568 138 138 138
-0.200378 -0.062771 -0.356451 138 138 138
-0.199426 -0.065539 -0.356335 138 138 138
-0.198174 -0.068126 -0.356292 138 138 138
-0.196351 -0.070372 -0.356386 138 138 138
-0.194527 -0.072620 -0.356481 138 138 138
-0.192687 -0.074859 -0.356579 138 138 138
-0.190793 -0.077066 -0.356691 138 138 138
-0.188965 -0.079315 -0.356786 138 138 138
-0.187151 -0.081572 -0.356878 138 138 138
-0.185335 -0.083830 -0.356970 138 138 138
-0.183520 -0.086088 -0.357062 138 138 138
-0.181802 -0.088406 -0.357130 138 138 138
-0.180099 -0.090732 -0.357195 138 138 138
-0.178391 -0.093056 -0.357261 138 138 138
-0.176516 -0.095284 -0.357366 138 138 138
-0.174915 -0.097672 -0.357406 138 138 138
-0.173847 -0.100368 -0.357319 138 138 138
-0.172198 -0.102728 -0.357370 138 138 138
-0.170548 -0.105089 -0.357422 138 138 138
-0.169035 -0.107528 -0.357440 138 138 138
-0.167826 -0.110142 -0.357386 138 138 138
-0.166629 -0.112761 -0.357330 138 138 138
-0.165431 -0.115380 -0.357273 138 138 138
-0.164421 -0.118105 -0.357172 138 138 138
-0.163548 -0.120906 -0.357038 138 138 138
-0.162605 -0.123665 -0.356921 138 138 138
-0.161662 -0.126424 -0.356805 138 138 138
-0.160708 -0.129176 -0.356691 138 138 138
-0.159564 -0.131819 -0.356622 138 138 138
-0.158383 -0.134441 -0.356562 138 138 138
-0.157202 -0.137062 -0.356502 138 138 138
-0.156022 -0.139682 -0.356443 138 138 138
-0.154879 -0.142324 -0.356374 138 138 138
-0.153740 -0.144966 -0.356304 138 138 138
-0.152617 -0.147616 -0.356231 138 138 138
-0.151509 -0.150274 -0.356155 138 138 138
-0.150376 -0.152917 -0.356084 138 138 138
-0.149108 -0.155485 -0.356045 138 138 138
-0.147840 -0.158053 -0.356007 138 138 138
-0.146573 -0.160621 -0.355968 138 138 138
-0.145340 -0.163207 -0.355921 138 138 138
-0.144239 -0.165864 -0.355844 138 138 138
-0.143137 -0.168520 -0.355766 138 138 138
-0.142035 -0.171175 -0.355688 138 138 138
-0.140927 -0.173826 -0.355612 138 138 138
-0.139769 -0.176449 -0.355548 138 138 138
-0.138691 -0.179114 -0.355466 138 138 138
-0.137374 -0.181651 -0.355439 138 138 138
-0.135874 -0.184089 -0.355456 138 138 138
-0.134092 -0.186378 -0.355538 138 138 138
-0.132271 -0.188646 -0.355630 138 138 138
-0.130450 -0.190915 -0.355722 138 138 138
-0.128628 -0.193185 -0.355814 138 138 138
-0.126729 -0.195416 -0.355924 138 138 138
-0.124718 -0.197589 -0.356060 138 138 138
-0.122706 -0.199762 -0.356196 138 138 138
-0.120555 -0.201864 -0.356365 138 138 138
-0.118109 -0.203815 -0.356602 138 138 138
-0.115030 -0.205438 -0.356987 138 138 138
-0.112471 -0.207336 -0.357250 138 138 138
-0.109571 -0.209059 -0.357592 138 138 138
-0.106667 -0.210785 -0.357935 138 138 138
-0.103154 -0.212200 -0.358420 138 138 138
-0.099068 -0.213326 -0.359037 138 138 138
-0.094735 -0.214331 -0.359712 138 138 138
-0.089863 -0.215068 -0.360511 138 138 138
-0.085197 -0.215920 -0.361261 138 138 138
-0.080883 -0.216959 -0.361929 138 138 138
-0.076481 -0.217961 -0.362616 138 138 138
-0.072116 -0.218989 -0.363294 138 138 138
-0.067686 -0.219992 -0.363986 138 138 138
-0.062817 -0.220782 -0.364780 138 138 138
-0.057871 -0.221541 -0.365590 138 138 138
-0.051740 -0.221715 -0.366674 138 138 138
-0.043853 -0.221023 -0.368163 138 138 138
-0.035790 -0.220259 -0.369692 138 138 138
-0.029497 -0.220393 -0.370809 138 138 138
-0.023935 -0.220902 -0.371756 138 138 138
-0.017984 -0.221229 -0.372792 138 138 138
-0.012165 -0.221633 -0.373796 138 138 138
-0.005680 -0.221720 -0.374953 138 138 138
0.000851 -0.221796 -0.376119 138 138 138
0.008773 -0.221204 -0.377604 138 138 138
0.022126 -0.217974 -0.380340 138 138 138
0.033052 -0.215957 -0.382513 138 138 138
0.053442 -0.209361 -0.386862 138 138 138
0.069743 -0.204797 -0.390266 100 100 100
-0.116592 0.150973 -0.396762 138 138 138
-0.123719 0.142585 -0.394600 138 138 138
-0.127386 0.136517 -0.393304 138 138 138
-0.132228 0.129686 -0.391717 138 138 138
-0.147161 0.116215 -0.387615 138 138 138
-0.154569 0.107747 -0.385393 138 138 138
-0.158997 0.101263 -0.383917 138 138 138
-0.161527 0.096041 -0.382915 138 138 138
-0.163902 0.090932 -0.381954 138 138 138
-0.165859 0.086107 -0.381097 138 138 138
-0.167614 0.081423 -0.380291 138 138 138
-0.169353 0.076760 -0.379491 138 138 138
-0.170819 0.072282 -0.378759 138 138 138
-0.172256 0.067832 -0.378035 138 138 138
-0.173755 0.063351 -0.377297 138 138 138
-0.175026 0.059025 -0.376616 138 138 138
-0.176104 0.054831 -0.375984 138 138 138
-0.177905 0.050181 -0.375174 138 138 138
-0.179924 0.045401 -0.374310 138 138 138
-0.181831 0.040703 -0.373476 138 138 138
-0.183732 0.036018 -0.372644 138 138 138
-0.185767 0.031258 -0.371780 138 138 138
-0.188069 0.026338 -0.370851 138 138 138
-0.190364 0.021434 -0.369925 138 138 138
-0.192780 0.016465 -0.368970 138 138 138
-0.194592 0.011887 -0.368165 138 138 138
-0.195992 0.007577 -0.367463 138 138 138
-0.197040 0.003495 -0.366848 138 138 138
-0.197824 -0.000414 -0.366299 138 138 138
-0.198353 -0.004158 -0.365813 138 138 138
-0.199033 -0.007990 -0.365290 138 138 138
-0.199605 -0.011749 -0.364795 138 138 138
-0.200185 -0.015507 -0.364298 138 138 138
-0.200737 -0.019243 -0.363809 138 138 138
-0.201279 -0.022966 -0.363322 138 138 138
-0.201841 -0.026696 -0.362832 138 138 138
-0.202365 -0.030397 -0.362351 138 138 138
-0.202725 -0.033992 -0.361911 138 138 138
-0.203158 -0.037627 -0.361454 138 138 138
-0.203385 -0.041131 -0.361047 138 138 138
-0.203160 -0.044354 -0.360752 138 138 138
-0.202744 -0.047459 -0.360503 138 138 138
-0.202308 -0.050549 -0.360260 138 138 138
-0.201870 -0.053635 -0.360017 138 138 138
-0.200923 -0.056412 -0.359899 138 138 138
-0.199920 -0.059153 -0.359794 138 138 138
-0.198918 -0.061895 -0.359689 138 138 138
-0.197956 -0.064658 -0.359574 138 138 138
-0.196347 -0.067034 -0.359617 138 138 138
-0.194525 -0.069284 -0.359712 138 138 138
-0.192845 -0.071620 -0.359772 138 138 138
-0.191165 -0.073955 -0.359832 138 138 138
-0.189490 -0.076295 -0.359890 138 138 138
-0.187526 -0.078465 -0.360019 138 138 138
-0.185474 -0.080584 -0.360168 138 138 138
-0.183618 -0.082821 -0.360270 138 138 138
-0.181800 -0.085081 -0.360363 138 138 138
-0.180123 -0.087424 -0.360421 138 138 138
-0.178419 -0.089752 -0.360487 138 138 138
-0.176713 -0.092080 -0.360552 138 138 138
-0.175008 -0.094409 -0.360617 138 138 138
-0.173432 -0.096813 -0.360651 138 138 138
-0.172157 -0.099392 -0.360612 138 138 138
-0.170636 -0.101829 -0.360633 138 138 138
-0.169090 -0.104251 -0.360660 138 138 138
-0.167531 -0.106666 -0.360689 138 138 138
-0.166058 -0.109131 -0.360698 138 138 138
-0.164879 -0.111763 -0.360637 138 138 138
-0.163700 -0.114395 -0.360575 138 138 138
-0.162522 -0.117027 -0.360514 138 138 138
-0.161120 -0.119531 -0.360506 138 138 138
-0.160067 -0.122232 -0.360414 138 138 138
-0.159132 -0.124999 -0.360295 138 138 138
-0.158197 -0.127765 -0.360175 138 138 138
-0.157077 -0.130425 -0.360100 138 138 138
-0.155908 -0.133057 -0.360037 138 138 138
-0.154730 -0.135683 -0.359975 138 138 138
-0.153553 -0.138309 -0.359914 138 138 138
-0.152578 -0.141047 -0.359805 138 138 138
-0.151653 -0.143811 -0.359683 138 138 138
-0.150544 -0.146472 -0.359606 138 138 138
-0.149434 -0.149132 -0.359529 138 138 138
-0.148495 -0.151884 -0.359412 138 138 138
-0.147449 -0.154577 -0.359320 138 138 138
-0.146180 -0.157147 -0.359281 138 138 138
-0.144912 -0.159716 -0.359242 138 138 138
-0.143838 -0.162391 -0.359158 138 138 138
-0.142959 -0.165172 -0.359026 138 138 138
-0.141950 -0.167879 -0.358926 138 138 138
-0.140848 -0.170536 -0.358848 138 138 138
-0.139724 -0.173180 -0.358775 138 138 138
-0.138652 -0.175851 -0.358690 138 138 138
-0.137649 -0.178559 -0.358589 138 138 138
-0.136260 -0.181058 -0.358579 138 138 138
-0.134856 -0.183549 -0.358573 138 138 138
-0.133288 -0.185953 -0.358606 138 138 138
-0.131664 -0.188327 -0.358652 138 138 138
-0.129842 -0.190597 -0.358744 138 138 138
-0.128019 -0.192867 -0.358837 138 138 138
-0.126056 -0.195065 -0.358962 138 138 138
-0.123988 -0.197208 -0.359112 138 138 138
-0.121671 -0.199223 -0.359320 138 138 138
-0.119387 -0.201257 -0.359521 138 138 138
-0.117083 -0.203283 -0.359726 138 138 138
-0.113929 -0.204869 -0.360130 138 138 138
-0.111102 -0.206628 -0.360457 138 138 138
-0.108074 -0.208288 -0.360831 138 138 138
-0.104538 -0.209688 -0.361324 138 138 138
-0.101016 -0.211102 -0.361813 138 138 138
-0.096790 -0.212159 -0.362466 138 138 138
-0.091974 -0.212920 -0.363256 138 138 138
-0.086855 -0.213534 -0.364117 138 138 138
-0.082507 -0.214552 -0.364797 138 138 138
-0.077956 -0.215474 -0.365522 138 138 138
-0.073318 -0.216360 -0.366268 138 138 138
-0.069066 -0.217450 -0.366922 138 138 138
-0.064275 -0.218274 -0.367702 138 138 138
-0.059364 -0.219047 -0.368508 138 138 138
-0.053485 -0.219342 -0.369540 138 138 138
-0.046265 -0.218975 -0.370882 138 138 138
-0.039283 -0.218742 -0.372168 138 138 138
-0.032398 -0.218572 -0.373429 138 138 138
-0.026728 -0.219021 -0.374407 138 138 138
-0.021418 -0.219659 -0.375299 138 138 138
-0.015024 -0.219770 -0.376443 138 138 138
-0.008356 -0.219758 -0.377649 138 138 138
-0.002183 -0.220004 -0.378738 138 138 138
0.003995 -0.220259 -0.379828 138 138 138
0.013164 -0.219060 -0.381609 138 138 138
0.026301 -0.215941 -0.384307 138 138 138
0.038036 -0.213535 -0.386678 138 138 138
0.059569 -0.206390 -0.391313 138 138 138
-0.111431 0.154417 -0.401129 100 100 100
-0.122271 0.143554 -0.398022 138 138 138
-0.126687 0.136987 -0.396532 138 138 138
-0.130906 0.130568 -0.395093 138 138 138
-0.141610 0.119885 -0.392030 138 138 138
-0.152116 0.109369 -0.389021 138 138 138
-0.157247 0.102420 -0.387361 138 138 138
-0.159780 0.097193 -0.386353 138 138 138
-0.162502 0.091854 -0.385299 138 138 138
-0.164573 0.086952 -0.384410 138 138 138
-0.166332 0.082264 -0.383599 138 138 138
-0.168070 0.077599 -0.382795 138 138 138
-0.169473 0.073161 -0.382075 138 138 138
-0.170740 0.068818 -0.381389 138 138 138
-0.172242 0.064333 -0.380646 138 138 138
-0.173298 0.060143 -0.380016 138 138 138
-0.174334 0.055973 -0.379391 138 138 138
-0.175488 0.051735 -0.378737 138 138 138
-0.177157 0.047175 -0.377956 138 138 138
-0.178813 0.042633 -0.377179 138 138 138
-0.180784 0.037899 -0.376325 138 138 138
-0.182826 0.033130 -0.375455 138 138 138
-0.184909 0.028345 -0.374575 138 138 138
-0.187145 0.023474 -0.373658 138 138 138
-0.189520 0.018525 -0.372708 138 138 138
-0.191893 0.013590 -0.371761 138 138 138
-0.193671 0.009038 -0.370961 138 138 138
-0.195361 0.004551 -0.370184 138 138 138
-0.196217 0.000594 -0.369613 138 138 138
-0.197063 -0.003350 -0.369046 138 138 138
-0.197820 -0.007231 -0.368502 138 138 138
-0.198419 -0.011009 -0.367997 138 138 138
-0.199029 -0.014788 -0.367491 138 138 138
-0.199559 -0.018511 -0.367004 138 138 138
-0.200064 -0.022214 -0.366524 138 138 138
-0.200579 -0.025916 -0.366043 138 138 138
-0.201065 -0.029596 -0.365569 138 138 138
-0.201396 -0.033176 -0.365133 138 138 138
-0.201766 -0.036774 -0.364689 138 138 138
-0.202138 -0.040368 -0.364245 138 138 138
-0.201835 -0.043546 -0.363967 138 138 138
-0.201447 -0.046671 -0.363710 138 138 138
