ply
format ascii 1.0
element vertex 1145
property float x
property float y
property float z
property uchar red
property uchar green
property uchar blue
end_header
-0.152387 -0.344446 -0.159203 138 138 138
-0.149965 -0.345627 -0.159230 138 138 138
-0.147546 -0.346810 -0.159257 138 138 138
-0.145128 -0.347997 -0.159283 138 138 138
-0.142710 -0.349185 -0.159310 138 138 138
-0.140175 -0.350180 -0.159369 138 138 138
-0.137631 -0.351162 -0.159430 138 138 138
-0.135083 -0.352139 -0.159492 138 138 138
-0.132273 -0.352687 -0.159627 138 138 138
-0.129365 -0.353080 -0.159790 138 138 138
-0.126455 -0.353472 -0.159952 138 138 138
-0.123348 -0.353548 -0.160168 138 138 138
-0.120216 -0.353589 -0.160391 138 138 138
-0.117139 -0.353727 -0.160597 138 138 138
-0.114201 -0.354095 -0.160765 138 138 138
-0.111277 -0.354488 -0.160928 138 138 138
-0.108376 -0.354924 -0.161084 138 138 138
-0.105521 -0.355437 -0.161227 138 138 138
-0.102677 -0.355972 -0.161366 138 138 138
-0.099830 -0.356508 -0.161506 138 138 138
-0.096982 -0.357043 -0.161646 138 138 138
-0.093948 -0.357288 -0.161835 138 138 138
-0.090852 -0.357438 -0.162042 138 138 138
-0.087615 -0.357370 -0.162286 138 138 138
-0.084323 -0.357221 -0.162544 138 138 138
-0.081077 -0.357153 -0.162789 138 138 138
-0.077867 -0.357146 -0.163023 138 138 138
-0.074947 -0.357603 -0.163178 138 138 138
-0.072042 -0.358086 -0.163328 138 138 138
-0.069199 -0.358670 -0.163461 138 138 138
-0.066607 -0.359651 -0.163526 138 138 138
-0.063999 -0.360607 -0.163596 138 138 138
-0.061390 -0.361564 -0.163665 138 138 138
-0.058748 -0.362472 -0.163743 138 138 138
-0.056008 -0.363230 -0.163846 138 138 138
-0.053117 -0.363757 -0.163990 138 138 138
-0.050146 -0.364164 -0.164155 138 138 138
-0.047142 -0.364527 -0.164328 138 138 138
-0.044123 -0.364869 -0.164504 138 138 138
-0.040931 -0.364952 -0.164726 138 138 138
-0.037700 -0.364982 -0.164957 138 138 138
-0.034733 -0.365420 -0.165118 138 138 138
-0.031820 -0.365942 -0.165264 138 138 138
-0.028510 -0.365867 -0.165514 138 138 138
-0.025173 -0.365758 -0.165771 138 138 138
-0.021713 -0.365470 -0.166059 138 138 138
-0.018053 -0.364889 -0.166398 138 138 138
-0.013982 -0.363697 -0.166844 138 138 138
-0.009862 -0.362444 -0.167302 138 138 138
-0.005545 -0.360909 -0.167809 138 138 138
-0.001157 -0.359279 -0.168334 138 138 138
0.003143 -0.357795 -0.168833 138 138 138
0.007260 -0.356594 -0.169284 138 138 138
0.011278 -0.355552 -0.169708 138 138 138
0.015083 -0.354835 -0.170075 138 138 138
0.018704 -0.354400 -0.170393 138 138 138
0.022298 -0.354013 -0.170703 138 138 138
0.025747 -0.353845 -0.170975 138 138 138
0.028941 -0.354059 -0.171180 138 138 138
0.032125 -0.354293 -0.171383 138 138 138
0.035293 -0.354555 -0.171580 138 138 138
0.038624 -0.354584 -0.171819 138 138 138
0.042179 -0.354294 -0.172114 138 138 138
0.045823 -0.353882 -0.172431 138 138 138
0.049600 -0.353285 -0.172781 138 138 138
0.053969 -0.351843 -0.173280 138 138 138
0.059399 -0.348883 -0.174048 138 138 138
0.065626 -0.344797 -0.175016 138 138 138
0.071351 -0.341455 -0.175853 138 138 138
0.076385 -0.339122 -0.176513 138 138 138
0.081590 -0.336562 -0.177214 138 138 138
0.086645 -0.334232 -0.177876 138 138 138
0.092008 -0.331480 -0.178612 138 138 138
0.097808 -0.328127 -0.179457 138 138 138
0.103126 -0.325477 -0.180177 138 138 138
0.108634 -0.322576 -0.180943 138 138 138
0.113479 -0.320628 -0.181541 138 138 138
0.117915 -0.319270 -0.182035 138 138 138
0.122974 -0.317049 -0.182683 138 138 138
0.128718 -0.313885 -0.183499 138 138 138
0.134917 -0.310105 -0.184426 138 138 138
0.141047 -0.306442 -0.185334 138 138 138
0.146569 -0.303649 -0.186087 138 138 138
0.153084 -0.299493 -0.187084 138 138 138
0.160868 -0.293603 -0.188393 138 138 138
0.168992 -0.287274 -0.189781 138 138 138
0.176703 -0.281549 -0.191063 138 138 138
0.183853 -0.276626 -0.192203 138 138 138
0.206217 -0.250827 -0.197080 138 138 138
0.215672 -0.242843 -0.198774 138 138 138
0.224446 -0.235831 -0.200295 138 138 138
0.232533 -0.229793 -0.201644 138 138 138
0.247910 -0.213856 -0.204770 100 100 100
-0.266717 0.121777 -0.212676 138 138 138
-0.272989 0.100646 -0.209535 138 138 138
-0.277352 0.083813 -0.207080 138 138 138
-0.289827 0.049294 -0.201786 138 138 138
-0.298404 0.023466 -0.197881 138 138 138
-0.299504 0.014061 -0.196607 138 138 138
-0.299979 0.006056 -0.195557 138 138 138
-0.300492 -0.001996 -0.194498 138 138 138
-0.301273 -0.010592 -0.193350 138 138 138
-0.330989 -0.081520 -0.182174 138 138 138
-0.332154 -0.090699 -0.180924 138 138 138
-0.332106 -0.097235 -0.180099 138 138 138
-0.330741 -0.100929 -0.179730 138 138 138
-0.329098 -0.104018 -0.179458 138 138 138
-0.327613 -0.107434 -0.179134 138 138 138
-0.325485 -0.109476 -0.179030 138 138 138
-0.323290 -0.111373 -0.178951 138 138 138
-0.321091 -0.113257 -0.178873 138 138 138
-0.318866 -0.115085 -0.178804 138 138 138
-0.316642 -0.116911 -0.178735 138 138 138
-0.314364 -0.118624 -0.178684 138 138 138
-0.312004 -0.120163 -0.178662 138 138 138
-0.309759 -0.121942 -0.178601 138 138 138
-0.307516 -0.123721 -0.178539 138 138 138
-0.305273 -0.125500 -0.178478 138 138 138
-0.303002 -0.127219 -0.178426 138 138 138
-0.300823 -0.129126 -0.178344 138 138 138
-0.298828 -0.131407 -0.178201 138 138 138
-0.296863 -0.133748 -0.178048 138 138 138
-0.294912 -0.136110 -0.177891 138 138 138
-0.293013 -0.138573 -0.177717 138 138 138
-0.291434 -0.141682 -0.177439 138 138 138
-0.289786 -0.144644 -0.177184 138 138 138
-0.288295 -0.147914 -0.176878 138 138 138
-0.287620 -0.152821 -0.176305 138 138 138
-0.287219 -0.158262 -0.175644 138 138 138
-0.286491 -0.163027 -0.175093 138 138 138
-0.285350 -0.166947 -0.174679 138 138 138
-0.284237 -0.170909 -0.174258 138 138 138
-0.283031 -0.174672 -0.173869 138 138 138
-0.281603 -0.177983 -0.173553 138 138 138
-0.279688 -0.180317 -0.173397 138 138 138
-0.277844 -0.182789 -0.173219 138 138 138
-0.275903 -0.185063 -0.173072 138 138 138
-0.273903 -0.187216 -0.172946 138 138 138
-0.271899 -0.189357 -0.172821 138 138 138
-0.269912 -0.191527 -0.172691 138 138 138
-0.267912 -0.193669 -0.172566 138 138 138
-0.265983 -0.195945 -0.172418 138 138 138
-0.263981 -0.198074 -0.172295 138 138 138
-0.261981 -0.200203 -0.172171 138 138 138
-0.259981 -0.202329 -0.172048 138 138 138
-0.257983 -0.204455 -0.171925 138 138 138
-0.256036 -0.206675 -0.171786 138 138 138
-0.254043 -0.208803 -0.171661 138 138 138
-0.252095 -0.211012 -0.171524 138 138 138
-0.250181 -0.213284 -0.171376 138 138 138
-0.248287 -0.215588 -0.171222 138 138 138
-0.246541 -0.218169 -0.171023 138 138 138
-0.244803 -0.220760 -0.170821 138 138 138
-0.243055 -0.223324 -0.170624 138 138 138
-0.241309 -0.225886 -0.170427 138 138 138
-0.239503 -0.228332 -0.170249 138 138 138
-0.237695 -0.230766 -0.170072 138 138 138
-0.235887 -0.233197 -0.169896 138 138 138
-0.234092 -0.235646 -0.169717 138 138 138
-0.232310 -0.238114 -0.169535 138 138 138
-0.230435 -0.240403 -0.169382 138 138 138
-0.228562 -0.242692 -0.169228 138 138 138
-0.226692 -0.244982 -0.169075 138 138 138
-0.224799 -0.247225 -0.168929 138 138 138
-0.223395 -0.250364 -0.168633 138 138 138
-0.221780 -0.253106 -0.168404 138 138 138
-0.220267 -0.256029 -0.168144 138 138 138
-0.218784 -0.258999 -0.167876 138 138 138
-0.217455 -0.262241 -0.167562 138 138 138
-0.216099 -0.265424 -0.167257 138 138 138
-0.214744 -0.268601 -0.166953 138 138 138
-0.213627 -0.272201 -0.166578 138 138 138
-0.212402 -0.275594 -0.166238 138 138 138
-0.211165 -0.278955 -0.165902 138 138 138
-0.209813 -0.282101 -0.165602 138 138 138
-0.208194 -0.284759 -0.165383 138 138 138
-0.206535 -0.287341 -0.165177 138 138 138
-0.204848 -0.289866 -0.164980 138 138 138
-0.203088 -0.292255 -0.164806 138 138 138
-0.201307 -0.294602 -0.164639 138 138 138
-0.199540 -0.296970 -0.164468 138 138 138
-0.197775 -0.299336 -0.164297 138 138 138
-0.196012 -0.301699 -0.164126 138 138 138
-0.194268 -0.304094 -0.163950 138 138 138
-0.192535 -0.306501 -0.163772 138 138 138
-0.190704 -0.308732 -0.163623 138 138 138
-0.188784 -0.310803 -0.163500 138 138 138
-0.186859 -0.312863 -0.163380 138 138 138
-0.184975 -0.314990 -0.163248 138 138 138
-0.183105 -0.317139 -0.163113 138 138 138
-0.181268 -0.319339 -0.162968 138 138 138
-0.179381 -0.321450 -0.162838 138 138 138
-0.177497 -0.323562 -0.162709 138 138 138
-0.175708 -0.325834 -0.162551 138 138 138
-0.173825 -0.327940 -0.162422 138 138 138
-0.171885 -0.329946 -0.162310 138 138 138
-0.169946 -0.331950 -0.162197 138 138 138
-0.167993 -0.333926 -0.162090 138 138 138
-0.165831 -0.335546 -0.162043 138 138 138
-0.163577 -0.337010 -0.162022 138 138 138
-0.161324 -0.338474 -0.162001 138 138 138
-0.159070 -0.339936 -0.161981 138 138 138
-0.156714 -0.341225 -0.161990 138 138 138
-0.154258 -0.342348 -0.162027 138 138 138
-0.151654 -0.343225 -0.162107 138 138 138
-0.149124 -0.344227 -0.162165 138 138 138
-0.146675 -0.345363 -0.162200 138 138 138
-0.144255 -0.346551 -0.162227 138 138 138
-0.141835 -0.347740 -0.162253 138 138 138
-0.139296 -0.348731 -0.162313 138 138 138
-0.136749 -0.349712 -0.162375 138 138 138
-0.134156 -0.350617 -0.162451 138 138 138
-0.131405 -0.351268 -0.162570 138 138 138
-0.128510 -0.351684 -0.162729 138 138 138
-0.125598 -0.352077 -0.162892 138 138 138
-0.122478 -0.352135 -0.163113 138 138 138
-0.119321 -0.352139 -0.163344 138 138 138
-0.116247 -0.352285 -0.163551 138 138 138
-0.113307 -0.352652 -0.163720 138 138 138
-0.110351 -0.352999 -0.163892 138 138 138
-0.107532 -0.353570 -0.164026 138 138 138
-0.104721 -0.354157 -0.164158 138 138 138
-0.101879 -0.354700 -0.164297 138 138 138
-0.099036 -0.355243 -0.164436 138 138 138
-0.096095 -0.355634 -0.164602 138 138 138
-0.093026 -0.355825 -0.164803 138 138 138
-0.089938 -0.355991 -0.165008 138 138 138
-0.086846 -0.356157 -0.165213 138 138 138
-0.083729 -0.356288 -0.165425 138 138 138
-0.080521 -0.356282 -0.165661 138 138 138
-0.077310 -0.356276 -0.165897 138 138 138
-0.074362 -0.356691 -0.166060 138 138 138
-0.071469 -0.357195 -0.166208 138 138 138
-0.068610 -0.357757 -0.166346 138 138 138
-0.066030 -0.358758 -0.166408 138 138 138
-0.063450 -0.359760 -0.166470 138 138 138
-0.060844 -0.360724 -0.166539 138 138 138
-0.058141 -0.361538 -0.166633 138 138 138
-0.055257 -0.362076 -0.166776 138 138 138
-0.052367 -0.362607 -0.166921 138 138 138
-0.049393 -0.363014 -0.167087 138 138 138
-0.046417 -0.363421 -0.167253 138 138 138
-0.043239 -0.363523 -0.167473 138 138 138
-0.040078 -0.363657 -0.167688 138 138 138
-0.036845 -0.363686 -0.167921 138 138 138
-0.033879 -0.364128 -0.168082 138 138 138
-0.030557 -0.364033 -0.168337 138 138 138
-0.027163 -0.363835 -0.168611 138 138 138
-0.023822 -0.363725 -0.168870 138 138 138
-0.020322 -0.363381 -0.169170 138 138 138
-0.016409 -0.362423 -0.169578 138 138 138
-0.012331 -0.361227 -0.170028 138 138 138
-0.008061 -0.359756 -0.170528 138 138 138
-0.003710 -0.358174 -0.171047 138 138 138
0.000619 -0.356640 -0.171559 138 138 138
0.004740 -0.355428 -0.172015 138 138 138
0.008860 -0.354228 -0.172469 138 138 138
0.012707 -0.353445 -0.172850 138 138 138
0.016376 -0.352935 -0.173183 138 138 138
0.019968 -0.352547 -0.173496 138 138 138
0.023459 -0.352315 -0.173781 138 138 138
0.026662 -0.352514 -0.173990 138 138 138
0.029857 -0.352728 -0.174197 138 138 138
0.033043 -0.352962 -0.174401 138 138 138
0.036396 -0.352957 -0.174647 138 138 138
0.039952 -0.352663 -0.174945 138 138 138
0.043510 -0.352372 -0.175242 138 138 138
0.047161 -0.351954 -0.175563 138 138 138
0.051871 -0.350012 -0.176154 138 138 138
0.056930 -0.347581 -0.176833 138 138 138
0.063122 -0.343532 -0.177800 138 138 138
0.069102 -0.339813 -0.178710 138 138 138
0.073739 -0.338042 -0.179275 138 138 138
0.078664 -0.335874 -0.179910 138 138 138
0.083960 -0.333191 -0.180639 138 138 138
0.089252 -0.330530 -0.181364 138 138 138
0.094938 -0.327328 -0.182187 138 138 138
0.100352 -0.324532 -0.182938 138 138 138
0.105518 -0.322105 -0.183625 138 138 138
0.110148 -0.320451 -0.184173 138 138 138
0.114529 -0.319162 -0.184658 138 138 138
0.119382 -0.317221 -0.185260 138 138 138
0.125638 -0.313325 -0.186212 138 138 138
0.132201 -0.309021 -0.187239 138 138 138
0.138654 -0.304896 -0.188235 138 138 138
0.144071 -0.302240 -0.188969 138 138 138
0.150318 -0.298446 -0.189908 138 138 138
0.158041 -0.292625 -0.191212 138 138 138
0.166405 -0.285946 -0.192672 138 138 138
0.174106 -0.280218 -0.193963 138 138 138
0.181283 -0.275246 -0.195120 138 138 138
0.205207 -0.247239 -0.200426 138 138 138
0.214154 -0.239938 -0.202007 138 138 138
0.222780 -0.233114 -0.203505 138 138 138
0.230020 -0.228222 -0.204656 138 138 138
0.239355 -0.220498 -0.206320 138 138 138
-0.266546 0.114860 -0.214858 138 138 138
-0.272581 0.094315 -0.211788 138 138 138
-0.279941 0.070971 -0.208262 138 138 138
-0.295367 0.030123 -0.201905 138 138 138
-0.298112 0.017115 -0.200041 138 138 138
-0.298739 0.008771 -0.198928 138 138 138
-0.299173 0.000884 -0.197889 138 138 138
-0.299434 -0.006598 -0.196913 138 138 138
-0.299919 -0.014527 -0.195864 138 138 138
-0.330349 -0.086798 -0.184386 138 138 138
-0.330319 -0.093386 -0.183546 138 138 138
-0.329533 -0.098328 -0.182973 138 138 138
-0.328172 -0.102025 -0.182601 138 138 138
-0.326530 -0.105113 -0.182327 138 138 138
-0.324774 -0.107949 -0.182094 138 138 138
-0.322649 -0.109997 -0.181990 138 138 138
-0.320451 -0.111888 -0.181910 138 138 138
-0.318225 -0.113718 -0.181840 138 138 138
-0.315926 -0.115392 -0.181796 138 138 138
-0.313603 -0.117013 -0.181760 138 138 138
-0.311189 -0.118446 -0.181755 138 138 138
-0.308764 -0.119852 -0.181755 138 138 138
-0.306464 -0.121520 -0.181711 138 138 138
-0.304219 -0.123301 -0.181649 138 138 138
-0.301926 -0.124980 -0.181604 138 138 138
-0.299646 -0.126685 -0.181554 138 138 138
-0.297755 -0.129187 -0.181374 138 138 138
-0.295860 -0.131677 -0.181196 138 138 138
-0.293833 -0.133889 -0.181063 138 138 138
-0.291937 -0.136365 -0.180886 138 138 138
-0.290450 -0.139668 -0.180574 138 138 138
-0.288974 -0.142982 -0.180259 138 138 138
-0.287328 -0.145944 -0.180002 138 138 138
-0.286370 -0.150284 -0.179518 138 138 138
-0.285703 -0.155196 -0.178940 138 138 138
-0.285207 -0.160436 -0.178307 138 138 138
-0.284188 -0.164606 -0.177849 138 138 138
-0.283166 -0.168756 -0.177394 138 138 138
-0.282036 -0.172678 -0.176977 138 138 138
-0.280582 -0.175941 -0.176667 138 138 138
-0.278944 -0.178830 -0.176419 138 138 138
-0.277080 -0.181266 -0.176245 138 138 138
-0.275163 -0.183591 -0.176089 138 138 138
-0.273129 -0.185681 -0.175972 138 138 138
-0.271154 -0.187884 -0.175836 138 138 138
-0.269181 -0.190085 -0.175701 138 138 138
-0.267209 -0.192285 -0.175565 138 138 138
-0.265224 -0.194457 -0.175434 138 138 138
-0.263202 -0.196550 -0.175316 138 138 138
-0.261133 -0.198550 -0.175213 138 138 138
-0.259046 -0.200512 -0.175116 138 138 138
-0.256930 -0.202415 -0.175029 138 138 138
-0.254904 -0.204489 -0.174914 138 138 138
-0.252912 -0.206624 -0.174788 138 138 138
-0.250996 -0.208901 -0.174638 138 138 138
-0.249081 -0.211176 -0.174489 138 138 138
-0.247169 -0.213450 -0.174339 138 138 138
-0.245393 -0.215981 -0.174147 138 138 138
-0.243661 -0.218588 -0.173942 138 138 138
-0.241931 -0.221191 -0.173737 138 138 138
-0.240186 -0.223763 -0.173537 138 138 138
-0.238399 -0.226247 -0.173351 138 138 138
-0.236589 -0.228684 -0.173173 138 138 138
-0.234776 -0.231111 -0.172997 138 138 138
-0.232956 -0.233518 -0.172824 138 138 138
-0.231056 -0.235772 -0.172676 138 138 138
-0.229003 -0.237737 -0.172576 138 138 138
-0.227133 -0.240039 -0.172420 138 138 138
-0.225265 -0.242338 -0.172264 138 138 138
-0.223364 -0.244574 -0.172119 138 138 138
-0.221599 -0.247055 -0.171932 138 138 138
-0.219922 -0.249691 -0.171719 138 138 138
-0.218146 -0.252141 -0.171537 138 138 138
-0.216544 -0.254902 -0.171302 138 138 138
-0.215059 -0.257871 -0.171032 138 138 138
-0.213766 -0.261181 -0.170705 138 138 138
-0.212463 -0.264463 -0.170382 138 138 138
-0.211109 -0.267644 -0.170075 138 138 138
-0.210118 -0.271470 -0.169659 138 138 138
-0.209052 -0.275149 -0.169268 138 138 138
-0.207830 -0.278537 -0.168925 138 138 138
-0.206373 -0.281496 -0.168654 138 138 138
-0.204835 -0.284300 -0.168410 138 138 138
-0.203270 -0.287051 -0.168174 138 138 138
-0.201614 -0.289632 -0.167966 138 138 138
-0.199923 -0.292144 -0.167770 138 138 138
-0.198318 -0.294805 -0.167548 138 138 138
-0.196725 -0.297480 -0.167324 138 138 138
-0.195044 -0.299994 -0.167127 138 138 138
-0.193296 -0.302384 -0.166950 138 138 138
-0.191558 -0.304788 -0.166771 138 138 138
-0.189821 -0.307186 -0.166593 138 138 138
-0.188043 -0.309511 -0.166427 138 138 138
-0.186132 -0.311598 -0.166301 138 138 138
-0.184198 -0.313641 -0.166183 138 138 138
-0.182328 -0.315792 -0.166046 138 138 138
-0.180488 -0.317992 -0.165901 138 138 138
-0.178655 -0.320198 -0.165754 138 138 138
-0.176770 -0.322313 -0.165623 138 138 138
-0.174984 -0.324592 -0.165464 138 138 138
-0.173144 -0.326775 -0.165320 138 138 138
-0.171203 -0.328782 -0.165207 138 138 138
-0.169257 -0.330778 -0.165096 138 138 138
-0.167236 -0.332641 -0.165007 138 138 138
-0.164951 -0.334057 -0.164994 138 138 138
-0.162711 -0.335547 -0.164969 138 138 138
-0.160470 -0.337035 -0.164944 138 138 138
-0.158215 -0.338499 -0.164924 138 138 138
-0.155853 -0.339782 -0.164934 138 138 138
-0.153396 -0.340906 -0.164972 138 138 138
-0.150900 -0.341966 -0.165020 138 138 138
-0.148430 -0.343071 -0.165061 138 138 138
-0.145899 -0.344076 -0.165120 138 138 138
-0.143381 -0.345104 -0.165174 138 138 138
-0.140960 -0.346292 -0.165201 138 138 138
-0.138408 -0.347268 -0.165264 138 138 138
-0.135808 -0.348164 -0.165342 138 138 138
-0.133207 -0.349061 -0.165419 138 138 138
-0.130511 -0.349805 -0.165523 138 138 138
-0.127624 -0.350237 -0.165681 138 138 138
-0.124712 -0.350633 -0.165845 138 138 138
-0.121585 -0.350684 -0.166069 138 138 138
-0.118425 -0.350687 -0.166302 138 138 138
-0.115354 -0.350841 -0.166509 138 138 138
-0.112399 -0.351187 -0.166682 138 138 138
-0.109341 -0.351372 -0.166884 138 138 138
-0.106542 -0.351980 -0.167013 138 138 138
-0.103846 -0.352757 -0.167113 138 138 138
-0.101123 -0.353492 -0.167220 138 138 138
-0.098188 -0.353891 -0.167385 138 138 138
-0.095140 -0.354115 -0.167581 138 138 138
-0.092078 -0.354322 -0.167781 138 138 138
-0.088988 -0.354488 -0.167988 138 138 138
-0.085826 -0.354546 -0.168213 138 138 138
-0.082837 -0.354885 -0.168390 138 138 138
-0.079879 -0.355276 -0.168559 138 138 138
-0.076751 -0.355404 -0.168773 138 138 138
-0.073785 -0.355791 -0.168943 138 138 138
-0.070909 -0.356325 -0.169086 138 138 138
-0.068031 -0.356859 -0.169230 138 138 138
-0.065440 -0.357845 -0.169296 138 138 138
-0.062858 -0.358847 -0.169358 138 138 138
-0.060250 -0.359809 -0.169428 138 138 138
-0.057391 -0.360384 -0.169565 138 138 138
-0.054505 -0.360922 -0.169709 138 138 138
-0.051615 -0.361456 -0.169854 138 138 138
-0.048639 -0.361862 -0.170022 138 138 138
-0.045380 -0.361837 -0.170265 138 138 138
-0.042137 -0.361843 -0.170504 138 138 138
-0.039057 -0.362105 -0.170697 138 138 138
-0.035975 -0.362368 -0.170891 138 138 138
-0.032619 -0.362219 -0.171158 138 138 138
-0.029198 -0.361979 -0.171441 138 138 138
-0.025813 -0.361800 -0.171714 138 138 138
-0.022296 -0.361427 -0.172021 138 138 138
-0.018393 -0.360480 -0.172430 138 138 138
-0.014472 -0.359517 -0.172842 138 138 138
-0.010440 -0.358396 -0.173282 138 138 138
-0.006268 -0.357079 -0.173758 138 138 138
-0.001914 -0.355499 -0.174282 138 138 138
0.002183 -0.354316 -0.174735 138 138 138
0.006203 -0.353260 -0.175166 138 138 138
0.010122 -0.352364 -0.175570 138 138 138
0.013749 -0.351912 -0.175895 138 138 138
0.017469 -0.351329 -0.176244 138 138 138
0.021143 -0.350824 -0.176580 138 138 138
0.024372 -0.350982 -0.176798 138 138 138
0.027577 -0.351181 -0.177009 138 138 138
0.030775 -0.351395 -0.177217 138 138 138
0.034083 -0.351453 -0.177454 138 138 138
0.037720 -0.351037 -0.177775 138 138 138
0.041277 -0.350744 -0.178075 138 138 138
0.044848 -0.350440 -0.178378 138 138 138
0.049701 -0.348283 -0.179011 138 138 138
0.054472 -0.346261 -0.179621 138 138 138
0.060786 -0.342025 -0.180628 138 138 138
0.067072 -0.337855 -0.181625 138 138 138
0.071995 -0.335668 -0.182267 138 138 138
0.076738 -0.333754 -0.182862 138 138 138
0.082046 -0.331046 -0.183599 138 138 138
0.087096 -0.328725 -0.184268 138 138 138
0.092153 -0.326411 -0.184937 138 138 138
0.097577 -0.323590 -0.185698 138 138 138
0.102648 -0.321288 -0.186366 138 138 138
0.107413 -0.319436 -0.186954 138 138 138
0.111790 -0.318146 -0.187442 138 138 138
0.116365 -0.316589 -0.187978 138 138 138
0.122283 -0.313155 -0.188854 138 138 138
0.129438 -0.308006 -0.190039 138 138 138
0.136261 -0.303350 -0.191137 138 138 138
0.141752 -0.300581 -0.191896 138 138 138
0.147949 -0.296846 -0.192831 138 138 138
0.156010 -0.290540 -0.194231 138 138 138
0.164120 -0.284198 -0.195640 138 138 138
0.171531 -0.278859 -0.196868 138 138 138
0.178727 -0.273845 -0.198040 138 138 138
0.203462 -0.244657 -0.203594 138 138 138
0.212772 -0.236839 -0.205280 138 138 138
0.220925 -0.230652 -0.206672 138 138 138
0.227981 -0.226002 -0.207786 138 138 138
0.235002 -0.221425 -0.208889 138 138 138
-0.265892 0.109031 -0.217204 138 138 138
-0.271892 0.088626 -0.214133 138 138 138
-0.284518 0.053847 -0.208720 138 138 138
-0.296428 0.020806 -0.203585 138 138 138
-0.297468 0.011555 -0.202317 138 138 138
-0.297815 0.003847 -0.201299 138 138 138
-0.298050 -0.003586 -0.200326 138 138 138
-0.298066 -0.010512 -0.199433 138 138 138
-0.298496 -0.018302 -0.198399 138 138 138
-0.327655 -0.087655 -0.187310 138 138 138
-0.328210 -0.095480 -0.186262 138 138 138
-0.326881 -0.099253 -0.185875 138 138 138
-0.325554 -0.103018 -0.185489 138 138 138
-0.323930 -0.106140 -0.185208 138 138 138
-0.321862 -0.108315 -0.185082 138 138 138
-0.319789 -0.110475 -0.184958 138 138 138
-0.317478 -0.112128 -0.184917 138 138 138
-0.315152 -0.113751 -0.184881 138 138 138
-0.312828 -0.115374 -0.184845 138 138 138
-0.310430 -0.116844 -0.184834 138 138 138
-0.308004 -0.118254 -0.184833 138 138 138
-0.305578 -0.119665 -0.184831 138 138 138
-0.303180 -0.121133 -0.184821 138 138 138
-0.300978 -0.123006 -0.184743 138 138 138
-0.298777 -0.124878 -0.184666 138 138 138
-0.296844 -0.127298 -0.184498 138 138 138
-0.294983 -0.129863 -0.184306 138 138 138
-0.293089 -0.132353 -0.184126 138 138 138
-0.290983 -0.134405 -0.184019 138 138 138
-0.289170 -0.137048 -0.183814 138 138 138
-0.287927 -0.140843 -0.183417 138 138 138
-0.286514 -0.144283 -0.183080 138 138 138
-0.285232 -0.147974 -0.182700 138 138 138
-0.284513 -0.152788 -0.182134 138 138 138
-0.283796 -0.157588 -0.181570 138 138 138
-0.282902 -0.162017 -0.181067 138 138 138
-0.281883 -0.166180 -0.180607 138 138 138
-0.280866 -0.170334 -0.180148 138 138 138
-0.279423 -0.173627 -0.179831 138 138 138
-0.277962 -0.176872 -0.179522 138 138 138
-0.276275 -0.179663 -0.179288 138 138 138
-0.274378 -0.182032 -0.179124 138 138 138
-0.272384 -0.184205 -0.178993 138 138 138
-0.270409 -0.186410 -0.178856 138 138 138
-0.268376 -0.188498 -0.178738 138 138 138
-0.266329 -0.190557 -0.178625 138 138 138
-0.264256 -0.192561 -0.178522 138 138 138
-0.262185 -0.194565 -0.178418 138 138 138
-0.260090 -0.196519 -0.178322 138 138 138
-0.258000 -0.198481 -0.178225 138 138 138
-0.255911 -0.200442 -0.178128 138 138 138
-0.253849 -0.202451 -0.178022 138 138 138
-0.251888 -0.204650 -0.177885 138 138 138
-0.249923 -0.206838 -0.177749 138 138 138
-0.247979 -0.209064 -0.177607 138 138 138
-0.246065 -0.211341 -0.177457 138 138 138
-0.244243 -0.213789 -0.177277 138 138 138
-0.242510 -0.216399 -0.177070 138 138 138
-0.240778 -0.219006 -0.176863 138 138 138
-0.239049 -0.221611 -0.176656 138 138 138
-0.237272 -0.224122 -0.176465 138 138 138
-0.235431 -0.226507 -0.176295 138 138 138
-0.233592 -0.228889 -0.176125 138 138 138
-0.231755 -0.231270 -0.175955 138 138 138
-0.229927 -0.233663 -0.175783 138 138 138
-0.227864 -0.235616 -0.175685 138 138 138
-0.225789 -0.237543 -0.175592 138 138 138
-0.223835 -0.239689 -0.175461 138 138 138
-0.221930 -0.241924 -0.175315 138 138 138
-0.219850 -0.243832 -0.175224 138 138 138
-0.218128 -0.246395 -0.175022 138 138 138
-0.216351 -0.248850 -0.174838 138 138 138
-0.214563 -0.251281 -0.174658 138 138 138
-0.212759 -0.253676 -0.174484 138 138 138
-0.211310 -0.256713 -0.174201 138 138 138
-0.210019 -0.260028 -0.173870 138 138 138
-0.208684 -0.263254 -0.173554 138 138 138
-0.207195 -0.266193 -0.173286 138 138 138
-0.206289 -0.270173 -0.172842 138 138 138
-0.205651 -0.274622 -0.172317 138 138 138
-0.204468 -0.278080 -0.171960 138 138 138
-0.202916 -0.280868 -0.171716 138 138 138
-0.201296 -0.283529 -0.171494 138 138 138
-0.199678 -0.286187 -0.171272 138 138 138
-0.198034 -0.288792 -0.171059 138 138 138
-0.196167 -0.290997 -0.170914 138 138 138
-0.195060 -0.294539 -0.170541 138 138 138
-0.193487 -0.297250 -0.170309 138 138 138
-0.191970 -0.300053 -0.170061 138 138 138
-0.190625 -0.303151 -0.169762 138 138 138
-0.188873 -0.305528 -0.169587 138 138 138
-0.187121 -0.307902 -0.169411 138 138 138
-0.185372 -0.310275 -0.169236 138 138 138
-0.183458 -0.312356 -0.169110 138 138 138
-0.181549 -0.314442 -0.168984 138 138 138
-0.179707 -0.316643 -0.168837 138 138 138
-0.177887 -0.318876 -0.168685 138 138 138
-0.176042 -0.321061 -0.168541 138 138 138
-0.174255 -0.323342 -0.168380 138 138 138
-0.172441 -0.325574 -0.168228 138 138 138
-0.170482 -0.327553 -0.168119 138 138 138
-0.168514 -0.329513 -0.168013 138 138 138
-0.166495 -0.331385 -0.167922 138 138 138
-0.164210 -0.332801 -0.167910 138 138 138
-0.161924 -0.334218 -0.167897 138 138 138
-0.159639 -0.335634 -0.167885 138 138 138
-0.157354 -0.337052 -0.167872 138 138 138
-0.154971 -0.338303 -0.167888 138 138 138
-0.152447 -0.339319 -0.167945 138 138 138
-0.149935 -0.340355 -0.167998 138 138 138
-0.147465 -0.341465 -0.168039 138 138 138
-0.144996 -0.342575 -0.168079 138 138 138
-0.142525 -0.343686 -0.168120 138 138 138
-0.139996 -0.344700 -0.168177 138 138 138
-0.137457 -0.345699 -0.168237 138 138 138
-0.134861 -0.346605 -0.168314 138 138 138
-0.132258 -0.347503 -0.168391 138 138 138
-0.129616 -0.348339 -0.168480 138 138 138
-0.126700 -0.348728 -0.168647 138 138 138
-0.123646 -0.348897 -0.168852 138 138 138
-0.120589 -0.349066 -0.169057 138 138 138
-0.117527 -0.349232 -0.169263 138 138 138
-0.114447 -0.349374 -0.169474 138 138 138
-0.111390 -0.349559 -0.169677 138 138 138
-0.108329 -0.349743 -0.169881 138 138 138
-0.105551 -0.350388 -0.170004 138 138 138
-0.102852 -0.351165 -0.170105 138 138 138
-0.100064 -0.351800 -0.170230 138 138 138
-0.097143 -0.352226 -0.170392 138 138 138
-0.094183 -0.352594 -0.170565 138 138 138
-0.091130 -0.352817 -0.170763 138 138 138
-0.087978 -0.352889 -0.170988 138 138 138
-0.084825 -0.352966 -0.171212 138 138 138
-0.081867 -0.353357 -0.171382 138 138 138
-0.078907 -0.353748 -0.171551 138 138 138
-0.075938 -0.354130 -0.171722 138 138 138
-0.073226 -0.354920 -0.171822 138 138 138
-0.070348 -0.355453 -0.171967 138 138 138
-0.067469 -0.355988 -0.172113 138 138 138
-0.064849 -0.356930 -0.172186 138 138 138
-0.062229 -0.357874 -0.172259 138 138 138
-0.059466 -0.358599 -0.172371 138 138 138
-0.056615 -0.359189 -0.172507 138 138 138
-0.053748 -0.359760 -0.172646 138 138 138
-0.050862 -0.360303 -0.172791 138 138 138
-0.047644 -0.360338 -0.173025 138 138 138
-0.044251 -0.360112 -0.173307 138 138 138
-0.041033 -0.360161 -0.173539 138 138 138
-0.037951 -0.360422 -0.173735 138 138 138
-0.034622 -0.360312 -0.173996 138 138 138
-0.031236 -0.360123 -0.174272 138 138 138
-0.027837 -0.359921 -0.174550 138 138 138
-0.024271 -0.359472 -0.174873 138 138 138
-0.020324 -0.358454 -0.175297 138 138 138
-0.016357 -0.357418 -0.175725 138 138 138
-0.012318 -0.356284 -0.176171 138 138 138
-0.008220 -0.355071 -0.176632 138 138 138
-0.004179 -0.353957 -0.177075 138 138 138
-0.000368 -0.353198 -0.177456 138 138 138
0.003547 -0.352293 -0.177863 138 138 138
0.007552 -0.351263 -0.178293 138 138 138
0.011156 -0.350840 -0.178616 138 138 138
0.014792 -0.350377 -0.178945 138 138 138
0.018516 -0.349792 -0.179297 138 138 138
0.021901 -0.349717 -0.179558 138 138 138
0.025202 -0.349772 -0.179796 138 138 138
0.028494 -0.349846 -0.180031 138 138 138
0.031770 -0.349948 -0.180261 138 138 138
0.035415 -0.349516 -0.180588 138 138 138
0.039044 -0.349117 -0.180909 138 138 138
0.042606 -0.348823 -0.181211 138 138 138
0.047384 -0.346767 -0.181831 138 138 138
0.052379 -0.344412 -0.182505 138 138 138
0.058550 -0.340373 -0.183483 138 138 138
0.064775 -0.336279 -0.184472 138 138 138
0.070154 -0.333428 -0.185238 138 138 138
0.075712 -0.330337 -0.186049 138 138 138
0.081521 -0.326906 -0.186922 138 138 138
0.086288 -0.324989 -0.187523 138 138 138
0.090833 -0.323402 -0.188065 138 138 138
0.095231 -0.322038 -0.188567 138 138 138
0.099803 -0.320439 -0.189112 138 138 138
0.104680 -0.318419 -0.189734 138 138 138
0.109250 -0.316850 -0.190276 138 138 138
0.113854 -0.315244 -0.190824 138 138 138
0.119179 -0.312637 -0.191555 138 138 138
0.126565 -0.307146 -0.192810 138 138 138
0.133929 -0.301717 -0.194056 138 138 138
0.139494 -0.298836 -0.194840 138 138 138
0.145554 -0.295282 -0.195747 138 138 138
0.153978 -0.288454 -0.197252 138 138 138
0.161939 -0.282304 -0.198634 138 138 138
0.168707 -0.277844 -0.199711 138 138 138
0.175765 -0.273008 -0.200858 138 138 138
0.185361 -0.264688 -0.202641 138 138 138
0.211496 -0.233587 -0.208584 138 138 138
0.218895 -0.228425 -0.209798 138 138 138
0.225335 -0.224610 -0.210767 138 138 138
0.231507 -0.221184 -0.211666 138 138 138
0.239945 -0.214679 -0.213130 100 100 100
-0.265194 0.103321 -0.219560 138 138 138
-0.274368 0.076043 -0.215339 138 138 138
-0.293958 0.026209 -0.207418 138 138 138
-0.295885 0.015016 -0.205823 138 138 138
-0.296523 0.006668 -0.204694 138 138 138
-0.296623 -0.000479 -0.203761 138 138 138
-0.296681 -0.007508 -0.202846 138 138 138
-0.296756 -0.014541 -0.201929 138 138 138
-0.297233 -0.022407 -0.200874 138 138 138
-0.325829 -0.090368 -0.189930 138 138 138
-0.325593 -0.096486 -0.189155 138 138 138
-0.324262 -0.100252 -0.188767 138 138 138
-0.322934 -0.104009 -0.188379 138 138 138
-0.320931 -0.106327 -0.188229 138 138 138
-0.318855 -0.108486 -0.188104 138 138 138
-0.316633 -0.110333 -0.188031 138 138 138
-0.314378 -0.112108 -0.187970 138 138 138
-0.312052 -0.113732 -0.187934 138 138 138
-0.309669 -0.115239 -0.187917 138 138 138
-0.307242 -0.116650 -0.187915 138 138 138
-0.304809 -0.118050 -0.187916 138 138 138
-0.302392 -0.119484 -0.187911 138 138 138
-0.300137 -0.121252 -0.187850 138 138 138
-0.297907 -0.123069 -0.187782 138 138 138
-0.295898 -0.125339 -0.187638 138 138 138
-0.294039 -0.127913 -0.187444 138 138 138
-0.292183 -0.130484 -0.187249 138 138 138
-0.290316 -0.133030 -0.187059 138 138 138
-0.288306 -0.135277 -0.186918 138 138 138
-0.286609 -0.138154 -0.186673 138 138 138
-0.285403 -0.142020 -0.186262 138 138 138
-0.284095 -0.145665 -0.185888 138 138 138
-0.283335 -0.150403 -0.185331 138 138 138
-0.282440 -0.154852 -0.184821 138 138 138
-0.281546 -0.159289 -0.184313 138 138 138
-0.280589 -0.163582 -0.183829 138 138 138
-0.279573 -0.167744 -0.183365 138 138 138
-0.278259 -0.171301 -0.183003 138 138 138
-0.276782 -0.174521 -0.182696 138 138 138
-0.275318 -0.177759 -0.182386 138 138 138
-0.273551 -0.180389 -0.182177 138 138 138
-0.271482 -0.182419 -0.182069 138 138 138
-0.269443 -0.184504 -0.181951 138 138 138
-0.267390 -0.186559 -0.181839 138 138 138
-0.265293 -0.188523 -0.181741 138 138 138
-0.263146 -0.190387 -0.181660 138 138 138
-0.261087 -0.192421 -0.181551 138 138 138
-0.258981 -0.194360 -0.181457 138 138 138
-0.256981 -0.196502 -0.181329 138 138 138
-0.254891 -0.198464 -0.181231 138 138 138
-0.252802 -0.200426 -0.181133 138 138 138
-0.250830 -0.202612 -0.180998 138 138 138
-0.248869 -0.204812 -0.180859 138 138 138
-0.246909 -0.207011 -0.180721 138 138 138
-0.244979 -0.209265 -0.180573 138 138 138
-0.243101 -0.211611 -0.180410 138 138 138
-0.241276 -0.214053 -0.180230 138 138 138
-0.239514 -0.216609 -0.180031 138 138 138
-0.237754 -0.219163 -0.179832 138 138 138
-0.235996 -0.221714 -0.179632 138 138 138
-0.234212 -0.224213 -0.179442 138 138 138
-0.232388 -0.226629 -0.179266 138 138 138
-0.230550 -0.229013 -0.179094 138 138 138
-0.228721 -0.231411 -0.178920 138 138 138
-0.226742 -0.233525 -0.178795 138 138 138
-0.224666 -0.235456 -0.178700 138 138 138
-0.222592 -0.237386 -0.178605 138 138 138
-0.220504 -0.239289 -0.178514 138 138 138
-0.218449 -0.241250 -0.178414 138 138 138
-0.216491 -0.243386 -0.178284 138 138 138
-0.214667 -0.245763 -0.178112 138 138 138
-0.212844 -0.248137 -0.177941 138 138 138
-0.211004 -0.250476 -0.177776 138 138 138
-0.208962 -0.252442 -0.177674 138 138 138
-0.207138 -0.254801 -0.177504 138 138 138
-0.205491 -0.257477 -0.177281 138 138 138
-0.203940 -0.260317 -0.177029 138 138 138
-0.202457 -0.263274 -0.176757 138 138 138
-0.200924 -0.266133 -0.176501 138 138 138
-0.199381 -0.268966 -0.176249 138 138 138
-0.198200 -0.272439 -0.175888 138 138 138
-0.197188 -0.276204 -0.175476 138 138 138
-0.196417 -0.280385 -0.174992 138 138 138
-0.195225 -0.283807 -0.174637 138 138 138
-0.193609 -0.286468 -0.174414 138 138 138
-0.192395 -0.289833 -0.174068 138 138 138
-0.191693 -0.294089 -0.173570 138 138 138
-0.190306 -0.297129 -0.173279 138 138 138
-0.188981 -0.300268 -0.172972 138 138 138
-0.187771 -0.303601 -0.172631 138 138 138
-0.186229 -0.306345 -0.172390 138 138 138
-0.184479 -0.308720 -0.172214 138 138 138
-0.182647 -0.310948 -0.172062 138 138 138
-0.180781 -0.313113 -0.171921 138 138 138
-0.178926 -0.315292 -0.171778 138 138 138
-0.177093 -0.317507 -0.171628 138 138 138
-0.175243 -0.319687 -0.171484 138 138 138
-0.173405 -0.321884 -0.171336 138 138 138
-0.171561 -0.324069 -0.171191 138 138 138
-0.169682 -0.326187 -0.171057 138 138 138
-0.167770 -0.328248 -0.170933 138 138 138
-0.165754 -0.330127 -0.170841 138 138 138
-0.163467 -0.331544 -0.170828 138 138 138
-0.161181 -0.332962 -0.170816 138 138 138
-0.158838 -0.334285 -0.170819 138 138 138
-0.156453 -0.335536 -0.170836 138 138 138
-0.153997 -0.336668 -0.170873 138 138 138
-0.151494 -0.337723 -0.170923 138 138 138
-0.148968 -0.338741 -0.170980 138 138 138
-0.146496 -0.339851 -0.171021 138 138 138
-0.143990 -0.340905 -0.171072 138 138 138
-0.141402 -0.341823 -0.171147 138 138 138
-0.138820 -0.342755 -0.171219 138 138 138
-0.136283 -0.343762 -0.171279 138 138 138
-0.133745 -0.344769 -0.171338 138 138 138
-0.131199 -0.345766 -0.171399 138 138 138
-0.128577 -0.346639 -0.171482 138 138 138
-0.125567 -0.346878 -0.171677 138 138 138
-0.122488 -0.347010 -0.171890 138 138 138
-0.119406 -0.347142 -0.172103 138 138 138
-0.116345 -0.347315 -0.172310 138 138 138
-0.113378 -0.347645 -0.172489 138 138 138
-0.110379 -0.347927 -0.172677 138 138 138
-0.107315 -0.348111 -0.172882 138 138 138
-0.104558 -0.348794 -0.173000 138 138 138
-0.101734 -0.349373 -0.173136 138 138 138
-0.098886 -0.349917 -0.173279 138 138 138
-0.095951 -0.350324 -0.173445 138 138 138
-0.093007 -0.350722 -0.173614 138 138 138
-0.090022 -0.351058 -0.173794 138 138 138
-0.086859 -0.351118 -0.174023 138 138 138
-0.083854 -0.351432 -0.174207 138 138 138
-0.080819 -0.351704 -0.174398 138 138 138
-0.077851 -0.352088 -0.174571 138 138 138
-0.075054 -0.352745 -0.174695 138 138 138
-0.072349 -0.353549 -0.174793 138 138 138
-0.069673 -0.354401 -0.174883 138 138 138
-0.066907 -0.355116 -0.174997 138 138 138
-0.064208 -0.355938 -0.175092 138 138 138
-0.061446 -0.356663 -0.175205 138 138 138
-0.058681 -0.357387 -0.175318 138 138 138
-0.055824 -0.357972 -0.175456 138 138 138
-0.052956 -0.358542 -0.175597 138 138 138
-0.049933 -0.358878 -0.175779 138 138 138
-0.046517 -0.358612 -0.176069 138 138 138
-0.043121 -0.358384 -0.176353 138 138 138
-0.039928 -0.358475 -0.176580 138 138 138
-0.036587 -0.358345 -0.176847 138 138 138
-0.033209 -0.358166 -0.177122 138 138 138
-0.029819 -0.357975 -0.177401 138 138 138
-0.026202 -0.357447 -0.177740 138 138 138
-0.022222 -0.356375 -0.178176 138 138 138
-0.018244 -0.355318 -0.178611 138 138 138
-0.014217 -0.354199 -0.179057 138 138 138
-0.010222 -0.353139 -0.179493 138 138 138
-0.006219 -0.352077 -0.179930 138 138 138
-0.002413 -0.351320 -0.180313 138 138 138
0.001378 -0.350596 -0.180690 138 138 138
0.005053 -0.350055 -0.181035 138 138 138
0.008577 -0.349747 -0.181339 138 138 138
0.012191 -0.349313 -0.181665 138 138 138
0.015836 -0.348840 -0.181999 138 138 138
0.019312 -0.348627 -0.182287 138 138 138
0.022660 -0.348609 -0.182540 138 138 138
0.025964 -0.348661 -0.182780 138 138 138
0.029269 -0.348718 -0.183020 138 138 138
0.033010 -0.348142 -0.183374 138 138 138
0.036750 -0.347576 -0.183728 138 138 138
0.040370 -0.347194 -0.184048 138 138 138
0.045181 -0.345084 -0.184681 138 138 138
0.050514 -0.342230 -0.185450 138 138 138
0.056731 -0.338114 -0.186448 138 138 138
0.062816 -0.334212 -0.187409 138 138 138
0.068858 -0.330396 -0.188355 138 138 138
0.074993 -0.326468 -0.189323 138 138 138
0.080784 -0.323059 -0.190198 138 138 138
0.085016 -0.321906 -0.190664 138 138 138
0.089259 -0.320750 -0.191131 138 138 138
0.093714 -0.319301 -0.191652 138 138 138
0.098123 -0.317931 -0.192159 138 138 138
0.102220 -0.317016 -0.192584 138 138 138
0.106741 -0.315509 -0.193117 138 138 138
0.111353 -0.313886 -0.193673 138 138 138
0.116308 -0.311792 -0.194315 138 138 138
0.123723 -0.306245 -0.195588 138 138 138
0.131503 -0.300214 -0.196951 138 138 138
0.137459 -0.296776 -0.197842 138 138 138
0.143510 -0.293226 -0.198755 138 138 138
0.152092 -0.286159 -0.200312 138 138 138
0.159670 -0.280530 -0.201608 138 138 138
0.165885 -0.276828 -0.202553 138 138 138
0.172751 -0.272244 -0.203660 138 138 138
0.180490 -0.266476 -0.204987 138 138 138
0.210503 -0.229936 -0.211966 138 138 138
0.217530 -0.225279 -0.213095 138 138 138
0.223458 -0.222160 -0.213942 138 138 138
0.228941 -0.219672 -0.214675 138 138 138
0.235423 -0.215832 -0.215657 100 100 100
-0.264439 0.097757 -0.221929 138 138 138
-0.278162 0.060647 -0.216055 138 138 138
-0.293838 0.019486 -0.209504 138 138 138
-0.295119 0.009732 -0.208135 138 138 138
-0.295396 0.002193 -0.207131 138 138 138
-0.295326 -0.004565 -0.206255 138 138 138
-0.295391 -0.011587 -0.205334 138 138 138
-0.295653 -0.019001 -0.204347 138 138 138
-0.321696 -0.081512 -0.194231 138 138 138
-0.323939 -0.092940 -0.192571 138 138 138
-0.323033 -0.097619 -0.192029 138 138 138
-0.321716 -0.101408 -0.191634 138 138 138
-0.319953 -0.104240 -0.191397 138 138 138
-0.317917 -0.106489 -0.191257 138 138 138
-0.315694 -0.108338 -0.191183 138 138 138
-0.313470 -0.110185 -0.191109 138 138 138
-0.311248 -0.112033 -0.191036 138 138 138
-0.308908 -0.113633 -0.191003 138 138 138
-0.306469 -0.115025 -0.191005 138 138 138
-0.304030 -0.116416 -0.191008 138 138 138
-0.301606 -0.117840 -0.191004 138 138 138
-0.299350 -0.119610 -0.190944 138 138 138
-0.297094 -0.121379 -0.190883 138 138 138
-0.294974 -0.123425 -0.190775 138 138 138
-0.293110 -0.125992 -0.190581 138 138 138
-0.291253 -0.128568 -0.190385 138 138 138
-0.289487 -0.131325 -0.190158 138 138 138
-0.287741 -0.134113 -0.189926 138 138 138
-0.286040 -0.136986 -0.189679 138 138 138
-0.284443 -0.140063 -0.189398 138 138 138
-0.283109 -0.143662 -0.189029 138 138 138
-0.282062 -0.147828 -0.188564 138 138 138
-0.281061 -0.152070 -0.188086 138 138 138
-0.280071 -0.156322 -0.187606 138 138 138
-0.279180 -0.160755 -0.187095 138 138 138
-0.278276 -0.165148 -0.186590 138 138 138
-0.277094 -0.168973 -0.186180 138 138 138
-0.275616 -0.172198 -0.185871 138 138 138
-0.274141 -0.175419 -0.185562 138 138 138
-0.272629 -0.178559 -0.185266 138 138 138
-0.270575 -0.180623 -0.185151 138 138 138
-0.268416 -0.182477 -0.185072 138 138 138
-0.266247 -0.184310 -0.184996 138 138 138
-0.264097 -0.186178 -0.184915 138 138 138
-0.261948 -0.188044 -0.184833 138 138 138
-0.259851 -0.190010 -0.184735 138 138 138
-0.257796 -0.192053 -0.184623 138 138 138
-0.255742 -0.194096 -0.184511 138 138 138
-0.253697 -0.196153 -0.184397 138 138 138
-0.251761 -0.198417 -0.184247 138 138 138
-0.249748 -0.200527 -0.184123 138 138 138
-0.247705 -0.202576 -0.184010 138 138 138
-0.245779 -0.204847 -0.183859 138 138 138
-0.244005 -0.207402 -0.183659 138 138 138
-0.242144 -0.209784 -0.183489 138 138 138
-0.240273 -0.212144 -0.183322 138 138 138
-0.238312 -0.214329 -0.183184 138 138 138
-0.236450 -0.216697 -0.183016 138 138 138
-0.234690 -0.219252 -0.182815 138 138 138
-0.232915 -0.221773 -0.182620 138 138 138
-0.231133 -0.224273 -0.182428 138 138 138
-0.229342 -0.226752 -0.182239 138 138 138
-0.227513 -0.229155 -0.182064 138 138 138
-0.225617 -0.231429 -0.181910 138 138 138
-0.223406 -0.233115 -0.181856 138 138 138
-0.221184 -0.234779 -0.181807 138 138 138
-0.219121 -0.236734 -0.181707 138 138 138
-0.217079 -0.238725 -0.181601 138 138 138
-0.215031 -0.240702 -0.181497 138 138 138
-0.213193 -0.243059 -0.181328 138 138 138
-0.211159 -0.245056 -0.181221 138 138 138
-0.209113 -0.247027 -0.181118 138 138 138
-0.207068 -0.248997 -0.181015 138 138 138
-0.205029 -0.250974 -0.180911 138 138 138
-0.203135 -0.253212 -0.180761 138 138 138
-0.201382 -0.255698 -0.180569 138 138 138
-0.199724 -0.258351 -0.180348 138 138 138
-0.197959 -0.260806 -0.180160 138 138 138
-0.195865 -0.262667 -0.180075 138 138 138
-0.193795 -0.264566 -0.179984 138 138 138
-0.191885 -0.266749 -0.179843 138 138 138
-0.190277 -0.269466 -0.179609 138 138 138
-0.189415 -0.273499 -0.179148 138 138 138
-0.189656 -0.279471 -0.178351 138 138 138
-0.188744 -0.283386 -0.177909 138 138 138
-0.188774 -0.288947 -0.177181 138 138 138
-0.188042 -0.293149 -0.176688 138 138 138
-0.187199 -0.297143 -0.176231 138 138 138
-0.185989 -0.300483 -0.175886 138 138 138
-0.184781 -0.303817 -0.175542 138 138 138
-0.183575 -0.307146 -0.175199 138 138 138
-0.181762 -0.309411 -0.175040 138 138 138
-0.179915 -0.311612 -0.174892 138 138 138
-0.178069 -0.313812 -0.174744 138 138 138
-0.176219 -0.316000 -0.174598 138 138 138
-0.174366 -0.318180 -0.174453 138 138 138
-0.172527 -0.320379 -0.174304 138 138 138
-0.170680 -0.322561 -0.174159 138 138 138
-0.168800 -0.324681 -0.174024 138 138 138
-0.166920 -0.326800 -0.173889 138 138 138
-0.164964 -0.328784 -0.173777 138 138 138
-0.162619 -0.330107 -0.173782 138 138 138
-0.160251 -0.331390 -0.173793 138 138 138
-0.157857 -0.332631 -0.173811 138 138 138
-0.155463 -0.333872 -0.173829 138 138 138
-0.152998 -0.334993 -0.173869 138 138 138
-0.150498 -0.336057 -0.173918 138 138 138
-0.147995 -0.337117 -0.173968 138 138 138
-0.145403 -0.338030 -0.174045 138 138 138
-0.142811 -0.338946 -0.174120 138 138 138
-0.140218 -0.339862 -0.174196 138 138 138
-0.137642 -0.340807 -0.174267 138 138 138
-0.135102 -0.341815 -0.174327 138 138 138
-0.132562 -0.342822 -0.174387 138 138 138
-0.129890 -0.343616 -0.174484 138 138 138
-0.127015 -0.344079 -0.174640 138 138 138
-0.124207 -0.344655 -0.174777 138 138 138
-0.121196 -0.344904 -0.174971 138 138 138
-0.118152 -0.345103 -0.175174 138 138 138
-0.115185 -0.345432 -0.175355 138 138 138
-0.112215 -0.345762 -0.175536 138 138 138
-0.109242 -0.346093 -0.175716 138 138 138
-0.106223 -0.346353 -0.175910 138 138 138
-0.103406 -0.346944 -0.176045 138 138 138
-0.100558 -0.347487 -0.176189 138 138 138
-0.097701 -0.348021 -0.176334 138 138 138
-0.094757 -0.348419 -0.176504 138 138 138
-0.091752 -0.348725 -0.176690 138 138 138
-0.088709 -0.348974 -0.176887 138 138 138
-0.085690 -0.349266 -0.177076 138 138 138
-0.082712 -0.349628 -0.177253 138 138 138
-0.079766 -0.350045 -0.177421 138 138 138
-0.076968 -0.350701 -0.177546 138 138 138
-0.074168 -0.351357 -0.177671 138 138 138
-0.071464 -0.352166 -0.177769 138 138 138
-0.068786 -0.353018 -0.177860 138 138 138
-0.066115 -0.353884 -0.177948 138 138 138
-0.063417 -0.354711 -0.178044 138 138 138
-0.060662 -0.355450 -0.178155 138 138 138
-0.057895 -0.356174 -0.178268 138 138 138
-0.055033 -0.356753 -0.178409 138 138 138
-0.052018 -0.357100 -0.178590 138 138 138
-0.048853 -0.357219 -0.178813 138 138 138
-0.045432 -0.356949 -0.179106 138 138 138
-0.042005 -0.356679 -0.179399 138 138 138
-0.038553 -0.356376 -0.179699 138 138 138
-0.035177 -0.356199 -0.179976 138 138 138
-0.031794 -0.356016 -0.180255 138 138 138
-0.028154 -0.355449 -0.180603 138 138 138
-0.024174 -0.354375 -0.181043 138 138 138
-0.020377 -0.353589 -0.181432 138 138 138
-0.016423 -0.352575 -0.181862 138 138 138
-0.012303 -0.351320 -0.182336 138 138 138
-0.008261 -0.350197 -0.182787 138 138 138
-0.004538 -0.349561 -0.183150 138 138 138
-0.000940 -0.349123 -0.183478 138 138 138
0.002664 -0.348685 -0.183807 138 138 138
0.006045 -0.348586 -0.184074 138 138 138
0.009543 -0.348320 -0.184372 138 138 138
0.013195 -0.347833 -0.184711 138 138 138
0.016723 -0.347537 -0.185015 138 138 138
0.020069 -0.347518 -0.185270 138 138 138
0.023419 -0.347500 -0.185524 138 138 138
0.026727 -0.347549 -0.185767 138 138 138
0.030299 -0.347217 -0.186080 138 138 138
0.034053 -0.346625 -0.186439 138 138 138
0.037881 -0.345933 -0.186818 138 138 138
0.043181 -0.343102 -0.187587 138 138 138
0.048647 -0.340047 -0.188397 138 138 138
0.054871 -0.335910 -0.189405 138 138 138
0.061118 -0.331764 -0.190417 138 138 138
0.067420 -0.327563 -0.191439 138 138 138
0.073676 -0.323452 -0.192447 138 138 138
0.079330 -0.320233 -0.193293 138 138 138
0.083459 -0.319226 -0.193735 138 138 138
0.087685 -0.318091 -0.194201 138 138 138
0.091749 -0.317199 -0.194624 138 138 138
0.095790 -0.316350 -0.195039 138 138 138
0.099862 -0.315466 -0.195461 138 138 138
0.104239 -0.314159 -0.195961 138 138 138
0.108817 -0.312578 -0.196512 138 138 138
0.113733 -0.310531 -0.197149 138 138 138
0.121182 -0.304921 -0.198442 138 138 138
0.129053 -0.298745 -0.199841 138 138 138
0.135060 -0.295226 -0.200752 138 138 138
0.141967 -0.290464 -0.201894 138 138 138
0.150467 -0.283497 -0.203443 138 138 138
0.156998 -0.279318 -0.204480 138 138 138
0.163161 -0.275678 -0.205419 138 138 138
0.169677 -0.271567 -0.206446 138 138 138
0.176737 -0.266726 -0.207609 138 138 138
0.209782 -0.225899 -0.215424 138 138 138
0.215989 -0.222367 -0.216352 138 138 138
0.221816 -0.219382 -0.217181 138 138 138
0.226900 -0.217437 -0.217817 138 138 138
0.233241 -0.213783 -0.218771 138 138 138
-0.263693 0.092196 -0.224289 138 138 138
-0.280917 0.047583 -0.217123 138 138 138
-0.293088 0.014154 -0.211810 138 138 138
-0.293905 0.005437 -0.210603 138 138 138
-0.294157 -0.002025 -0.209604 138 138 138
-0.294039 -0.008660 -0.208741 138 138 138
-0.294256 -0.015985 -0.207762 138 138 138
-0.294540 -0.023423 -0.206764 138 138 138
-0.321231 -0.087147 -0.196370 138 138 138
-0.321200 -0.093701 -0.195511 138 138 138
-0.320297 -0.098379 -0.194965 138 138 138
-0.318985 -0.102174 -0.194566 138 138 138
-0.316978 -0.104489 -0.194414 138 138 138
-0.314752 -0.106339 -0.194340 138 138 138
-0.312529 -0.108193 -0.194265 138 138 138
-0.310350 -0.110137 -0.194175 138 138 138
-0.308123 -0.111976 -0.194102 138 138 138
-0.305691 -0.113387 -0.194102 138 138 138
-0.303250 -0.114780 -0.194104 138 138 138
-0.300819 -0.116194 -0.194102 138 138 138
-0.298561 -0.117965 -0.194041 138 138 138
-0.296315 -0.119759 -0.193976 138 138 138
-0.294257 -0.121936 -0.193846 138 138 138
-0.292491 -0.124709 -0.193615 138 138 138
-0.290713 -0.127450 -0.193390 138 138 138
-0.288959 -0.130234 -0.193158 138 138 138
-0.287213 -0.133025 -0.192923 138 138 138
-0.285578 -0.136036 -0.192652 138 138 138
-0.283982 -0.139116 -0.192368 138 138 138
-0.282399 -0.142214 -0.192082 138 138 138
-0.280803 -0.145279 -0.191800 138 138 138
-0.279644 -0.149210 -0.191372 138 138 138
-0.278486 -0.153133 -0.190944 138 138 138
-0.277138 -0.156662 -0.190583 138 138 138
-0.276370 -0.161337 -0.190027 138 138 138
-0.275667 -0.166124 -0.189452 138 138 138
-0.274429 -0.169831 -0.189058 138 138 138
-0.272953 -0.173058 -0.188747 138 138 138
-0.271479 -0.176279 -0.188435 138 138 138
-0.269553 -0.178600 -0.188276 138 138 138
-0.267345 -0.180364 -0.188212 138 138 138
-0.265160 -0.182171 -0.188140 138 138 138
-0.262963 -0.183953 -0.188073 138 138 138
-0.260748 -0.185697 -0.188012 138 138 138
-0.258609 -0.187587 -0.187926 138 138 138
-0.256552 -0.189634 -0.187813 138 138 138
-0.254505 -0.191695 -0.187698 138 138 138
-0.252470 -0.193779 -0.187578 138 138 138
-0.250437 -0.195861 -0.187459 138 138 138
-0.248444 -0.198017 -0.187327 138 138 138
-0.246544 -0.200347 -0.187165 138 138 138
-0.244673 -0.202726 -0.186994 138 138 138
-0.242803 -0.205104 -0.186824 138 138 138
-0.240934 -0.207479 -0.186653 138 138 138
