ply
format ascii 1.0
element vertex 1151
property float x
property float y
property float z
property uchar red
property uchar green
property uchar blue
end_header
0.274862 -0.281950 -0.100166 138 138 138
0.278020 -0.278237 -0.100606 138 138 138
0.281192 -0.274463 -0.101054 138 138 138
0.284718 -0.267381 -0.101895 138 138 138
0.288208 -0.260776 -0.102678 138 138 138
0.291794 -0.253400 -0.103553 138 138 138
0.295261 -0.247273 -0.104280 141 141 141
0.298484 -0.243502 -0.104728 142 142 142
0.301672 -0.240116 -0.105129 143 143 143
0.304847 -0.236910 -0.105510 144 144 144
0.307993 -0.234021 -0.105853 143 143 143
0.311148 -0.231109 -0.106198 143 143 143
0.314333 -0.227982 -0.106569 138 138 138
0.317509 -0.224993 -0.106924 138 138 138
0.320691 -0.222002 -0.107279 138 138 138
0.323918 -0.218686 -0.107672 138 138 138
0.327200 -0.214958 -0.108114 138 138 138
0.330475 -0.211346 -0.108543 138 138 138
0.333832 -0.207120 -0.109044 138 138 138
0.337452 -0.200797 -0.109794 138 138 138
0.341608 -0.190191 -0.111053 138 138 138
0.345741 -0.179955 -0.112267 142 142 142
0.349856 -0.170030 -0.113445 158 158 158
0.358663 -0.122831 -0.119045 173 173 173
0.363492 -0.107879 -0.120819 173 173 173
-0.361936 -0.120460 -0.122279 138 138 138
-0.358276 -0.126188 -0.121593 138 138 138
-0.355003 -0.128891 -0.121270 138 138 138
-0.351529 -0.133276 -0.120745 138 138 138
-0.348138 -0.137046 -0.120294 138 138 138
-0.344569 -0.142361 -0.119658 138 138 138
-0.340958 -0.148110 -0.118970 138 138 138
-0.337328 -0.154112 -0.118252 138 138 138
-0.333755 -0.159747 -0.117577 138 138 138
-0.330266 -0.164750 -0.116978 138 138 138
-0.326964 -0.168245 -0.116560 138 138 138
-0.323729 -0.171208 -0.116206 138 138 138
-0.320496 -0.174213 -0.115846 138 138 138
-0.317328 -0.176703 -0.115548 138 138 138
-0.314046 -0.180245 -0.115124 138 138 138
-0.310723 -0.184231 -0.114647 138 138 138
-0.307455 -0.187786 -0.114222 138 138 138
-0.304022 -0.192929 -0.113606 138 138 138
-0.300416 -0.199773 -0.112787 138 138 138
-0.296722 -0.207566 -0.111854 138 138 138
-0.292988 -0.215895 -0.110858 138 138 138
-0.289310 -0.223843 -0.109906 138 138 138
-0.285769 -0.230636 -0.109093 138 138 138
-0.282361 -0.236271 -0.108419 138 138 138
-0.278909 -0.242445 -0.107680 138 138 138
-0.275575 -0.247582 -0.107065 138 138 138
-0.272290 -0.252328 -0.106497 138 138 138
-0.268951 -0.257720 -0.105852 138 138 138
-0.265692 -0.262407 -0.105291 138 138 138
-0.262454 -0.266978 -0.104744 138 138 138
-0.259323 -0.270529 -0.104319 138 138 138
-0.256205 -0.274021 -0.103901 138 138 138
-0.253128 -0.277146 -0.103527 138 138 138
-0.250073 -0.280102 -0.103173 138 138 138
-0.247029 -0.283008 -0.102826 138 138 138
-0.243992 -0.285893 -0.102480 138 138 138
-0.240933 -0.289105 -0.102096 138 138 138
-0.237841 -0.292758 -0.101659 138 138 138
-0.234757 -0.296401 -0.101223 138 138 138
-0.231677 -0.300093 -0.100781 138 138 138
-0.228640 -0.303368 -0.100389 138 138 138
-0.225500 -0.307936 -0.099842 138 138 138
-0.222403 -0.312108 -0.099343 138 138 138
-0.219333 -0.316057 -0.098870 138 138 138
-0.215955 -0.323905 -0.097931 138 138 138
-0.211817 -0.341426 -0.095834 138 138 138
-0.208597 -0.347800 -0.095072 138 138 138
-0.205440 -0.353538 -0.094385 138 138 138
-0.202245 -0.359925 -0.093620 138 138 138
-0.199075 -0.366150 -0.092875 138 138 138
-0.196061 -0.370474 -0.092358 138 138 138
-0.193089 -0.374342 -0.091895 138 138 138
-0.190274 -0.376174 -0.091676 138 138 138
-0.187553 -0.376743 -0.091608 138 138 138
-0.184839 -0.377233 -0.091549 138 138 138
-0.182127 -0.377721 -0.091491 138 138 138
-0.179407 -0.378317 -0.091419 138 138 138
-0.176719 -0.378470 -0.091401 138 138 138
-0.174043 -0.378458 -0.091402 138 138 138
-0.171365 -0.378458 -0.091402 138 138 138
-0.168686 -0.378481 -0.091400 138 138 138
-0.166003 -0.378569 -0.091389 138 138 138
-0.163313 -0.378775 -0.091365 138 138 138
-0.160613 -0.379146 -0.091320 138 138 138
-0.157902 -0.379707 -0.091253 138 138 138
-0.155193 -0.380268 -0.091186 138 138 138
-0.152496 -0.380640 -0.091141 138 138 138
-0.149797 -0.381044 -0.091093 138 138 138
-0.147089 -0.381641 -0.091021 138 138 138
-0.144340 -0.382983 -0.090861 138 138 138
-0.141594 -0.384323 -0.090701 138 138 138
-0.138851 -0.385661 -0.090540 138 138 138
-0.136122 -0.386788 -0.090405 138 138 138
-0.133397 -0.387891 -0.090273 138 138 138
-0.130673 -0.388993 -0.090142 138 138 138
-0.127953 -0.390094 -0.090010 138 138 138
-0.125245 -0.390970 -0.089905 138 138 138
-0.122544 -0.391740 -0.089813 138 138 138
-0.119843 -0.392532 -0.089718 138 138 138
-0.117136 -0.393510 -0.089601 138 138 138
-0.114431 -0.394487 -0.089484 138 138 138
-0.111731 -0.395383 -0.089377 138 138 138
-0.109034 -0.396272 -0.089270 138 138 138
-0.106337 -0.397196 -0.089160 138 138 138
-0.103642 -0.398122 -0.089049 138 138 138
-0.100946 -0.399100 -0.088932 138 138 138
-0.098252 -0.400094 -0.088813 138 138 138
-0.095560 -0.401087 -0.088694 138 138 138
-0.092880 -0.401813 -0.088607 138 138 138
-0.090211 -0.402263 -0.088553 138 138 138
-0.087516 -0.403489 -0.088407 138 138 138
-0.084824 -0.404727 -0.088259 138 138 138
-0.082133 -0.405986 -0.088108 138 138 138
-0.079452 -0.407031 -0.087983 138 138 138
-0.076793 -0.407397 -0.087939 138 138 138
-0.074136 -0.407704 -0.087902 138 138 138
-0.071473 -0.408289 -0.087832 138 138 138
-0.068807 -0.408994 -0.087748 138 138 138
-0.066151 -0.409382 -0.087701 138 138 138
-0.063504 -0.409445 -0.087694 138 138 138
-0.060866 -0.409116 -0.087733 138 138 138
-0.058231 -0.408645 -0.087790 138 138 138
-0.055595 -0.408174 -0.087846 138 138 138
-0.052960 -0.407550 -0.087921 138 138 138
-0.050335 -0.406437 -0.088054 138 138 138
-0.047702 -0.405556 -0.088159 138 138 138
-0.045057 -0.405282 -0.088192 138 138 138
-0.042414 -0.404893 -0.088239 138 138 138
-0.039773 -0.404303 -0.088309 138 138 138
-0.037131 -0.403686 -0.088383 138 138 138
-0.034487 -0.403067 -0.088457 138 138 138
-0.031843 -0.402449 -0.088531 138 138 138
-0.029196 -0.401939 -0.088592 138 138 138
-0.026549 -0.401322 -0.088666 138 138 138
-0.023902 -0.400537 -0.088760 138 138 138
-0.021263 -0.398630 -0.088988 138 138 138
-0.018613 -0.397681 -0.089102 138 138 138
-0.015958 -0.397295 -0.089148 138 138 138
-0.013302 -0.396855 -0.089201 138 138 138
-0.010646 -0.396415 -0.089253 138 138 138
-0.007988 -0.396056 -0.089296 138 138 138
-0.005327 -0.396533 -0.089239 138 138 138
-0.002668 -0.397044 -0.089178 138 138 138
-0.000010 -0.397678 -0.089102 138 138 138
0.002647 -0.398312 -0.089026 138 138 138
0.005303 -0.399035 -0.088940 138 138 138
0.007957 -0.399758 -0.088853 138 138 138
0.010609 -0.400531 -0.088761 138 138 138
0.013261 -0.401151 -0.088686 138 138 138
0.015914 -0.401264 -0.088673 138 138 138
0.018568 -0.401377 -0.088659 138 138 138
0.021221 -0.401393 -0.088658 138 138 138
0.023877 -0.401178 -0.088683 138 138 138
0.026533 -0.400983 -0.088707 138 138 138
0.029191 -0.400659 -0.088745 138 138 138
0.031850 -0.400357 -0.088781 138 138 138
0.034507 -0.400154 -0.088806 138 138 138
0.037165 -0.399952 -0.088830 138 138 138
0.039824 -0.399749 -0.088854 138 138 138
0.042483 -0.399505 -0.088883 138 138 138
0.045147 -0.399079 -0.088934 138 138 138
0.047811 -0.398653 -0.088985 138 138 138
0.050476 -0.398229 -0.089036 138 138 138
0.053142 -0.397804 -0.089087 138 138 138
0.055810 -0.397312 -0.089146 138 138 138
0.058485 -0.396552 -0.089237 138 138 138
0.061161 -0.395814 -0.089325 138 138 138
0.063839 -0.395076 -0.089414 138 138 138
0.066518 -0.394337 -0.089502 138 138 138
0.069209 -0.393220 -0.089636 138 138 138
0.071904 -0.392062 -0.089774 138 138 138
0.074608 -0.390649 -0.089943 138 138 138
0.077317 -0.389174 -0.090120 138 138 138
0.080024 -0.387860 -0.090277 138 138 138
0.082739 -0.386374 -0.090455 138 138 138
0.085457 -0.384886 -0.090633 138 138 138
0.088174 -0.383508 -0.090798 138 138 138
0.090883 -0.382469 -0.090922 138 138 138
0.093594 -0.381430 -0.091047 138 138 138
0.096307 -0.380374 -0.091173 138 138 138
0.099026 -0.379226 -0.091310 138 138 138
0.101754 -0.377904 -0.091469 138 138 138
0.104488 -0.376520 -0.091634 138 138 138
0.107226 -0.375081 -0.091806 138 138 138
0.109991 -0.373087 -0.092045 138 138 138
0.112784 -0.370539 -0.092350 138 138 138
0.115567 -0.368328 -0.092615 138 138 138
0.118341 -0.366423 -0.092843 138 138 138
0.121138 -0.364103 -0.093120 138 138 138
0.123886 -0.362928 -0.093261 138 138 138
0.126626 -0.361970 -0.093376 138 138 138
0.129346 -0.361441 -0.093439 138 138 138
0.132060 -0.361059 -0.093484 138 138 138
0.134774 -0.360711 -0.093526 138 138 138
0.137490 -0.360317 -0.093573 138 138 138
0.140219 -0.359694 -0.093648 138 138 138
0.142961 -0.358869 -0.093747 138 138 138
0.145675 -0.358576 -0.093782 138 138 138
0.148388 -0.358305 -0.093814 138 138 138
0.151093 -0.358188 -0.093828 138 138 138
0.153803 -0.357988 -0.093852 138 138 138
0.156521 -0.357649 -0.093893 138 138 138
0.159259 -0.357000 -0.093970 138 138 138
0.162012 -0.356143 -0.094073 138 138 138
0.164772 -0.355187 -0.094187 138 138 138
0.167543 -0.354087 -0.094319 138 138 138
0.170274 -0.353652 -0.094371 138 138 138
0.172997 -0.353346 -0.094408 138 138 138
0.175727 -0.352942 -0.094456 138 138 138
0.178453 -0.352608 -0.094496 138 138 138
0.181173 -0.352378 -0.094523 138 138 138
0.183881 -0.352332 -0.094529 138 138 138
0.186621 -0.351829 -0.094589 138 138 138
0.189327 -0.351805 -0.094592 138 138 138
0.192043 -0.351656 -0.094610 138 138 138
0.194770 -0.351355 -0.094646 138 138 138
0.197498 -0.351055 -0.094682 138 138 138
0.200229 -0.350713 -0.094723 138 138 138
0.203001 -0.349863 -0.094824 138 138 138
0.205772 -0.349038 -0.094923 138 138 138
0.208535 -0.348340 -0.095007 138 138 138
0.211315 -0.347452 -0.095113 138 138 138
0.214137 -0.346063 -0.095279 138 138 138
0.216931 -0.345042 -0.095401 138 138 138
0.219762 -0.343605 -0.095573 138 138 138
0.222646 -0.341584 -0.095815 138 138 138
0.225629 -0.338443 -0.096191 138 138 138
0.228572 -0.335843 -0.096502 138 138 138
0.231551 -0.332886 -0.096856 138 138 138
0.234693 -0.328163 -0.097421 138 138 138
0.237765 -0.324320 -0.097881 138 138 138
0.240775 -0.321265 -0.098247 138 138 138
0.243746 -0.318694 -0.098555 138 138 138
0.246723 -0.316116 -0.098863 138 138 138
0.249814 -0.312379 -0.099310 138 138 138
0.253044 -0.307247 -0.099924 138 138 138
0.256320 -0.301755 -0.100582 138 138 138
0.259550 -0.296847 -0.101169 138 138 138
0.262794 -0.291895 -0.101762 138 138 138
0.265965 -0.287798 -0.102252 138 138 138
0.269053 -0.284611 -0.102634 138 138 138
0.272115 -0.281751 -0.102976 138 138 138
0.275247 -0.278255 -0.103394 138 138 138
0.278399 -0.274639 -0.103827 138 138 138
0.281811 -0.268583 -0.104552 138 138 138
0.285329 -0.261638 -0.105383 138 138 138
0.288749 -0.255753 -0.106087 140 140 140
0.292251 -0.249221 -0.106869 138 138 138
0.295503 -0.245121 -0.107360 141 141 141
0.298669 -0.241892 -0.107746 142 142 142
0.301849 -0.238597 -0.108140 143 143 143
0.305018 -0.235461 -0.108516 144 144 144
0.308161 -0.232614 -0.108856 143 143 143
0.311341 -0.229498 -0.109229 139 139 139
0.314521 -0.226434 -0.109596 138 138 138
0.317737 -0.223108 -0.109994 138 138 138
0.320963 -0.219756 -0.110395 138 138 138
0.324229 -0.216119 -0.110830 138 138 138
0.327540 -0.212170 -0.111303 138 138 138
0.330837 -0.208404 -0.111754 138 138 138
0.334339 -0.202996 -0.112401 138 138 138
0.338406 -0.193026 -0.113594 138 138 138
0.342415 -0.183693 -0.114711 138 138 138
0.346271 -0.175748 -0.115662 144 144 144
0.350498 -0.164961 -0.116953 145 145 145
0.359314 -0.117729 -0.122605 163 163 163
0.364327 -0.101372 -0.124563 122 122 122
-0.358825 -0.121902 -0.125058 138 138 138
-0.355391 -0.125866 -0.124579 138 138 138
-0.351894 -0.130413 -0.124030 138 138 138
-0.348377 -0.135194 -0.123453 138 138 138
-0.344821 -0.140377 -0.122827 138 138 138
-0.341137 -0.146713 -0.122063 138 138 138
-0.337498 -0.152783 -0.121330 138 138 138
-0.333991 -0.157838 -0.120720 138 138 138
-0.330597 -0.162026 -0.120214 138 138 138
-0.327212 -0.166202 -0.119710 138 138 138
-0.324012 -0.168852 -0.119390 138 138 138
-0.320764 -0.171962 -0.119015 138 138 138
-0.317578 -0.174583 -0.118699 138 138 138
-0.314405 -0.177139 -0.118390 138 138 138
-0.311150 -0.180476 -0.117987 138 138 138
-0.307850 -0.184292 -0.117527 138 138 138
-0.304536 -0.188306 -0.117042 138 138 138
-0.301122 -0.193319 -0.116437 138 138 138
-0.297503 -0.200353 -0.115588 138 138 138
-0.293866 -0.207689 -0.114702 138 138 138
-0.290222 -0.215240 -0.113791 138 138 138
-0.286546 -0.223247 -0.112824 138 138 138
-0.282921 -0.230912 -0.111899 138 138 138
-0.279431 -0.237411 -0.111115 138 138 138
-0.275959 -0.243860 -0.110336 138 138 138
-0.272582 -0.249490 -0.109657 138 138 138
-0.269192 -0.255373 -0.108946 138 138 138
-0.265955 -0.259807 -0.108411 138 138 138
-0.262642 -0.265128 -0.107769 138 138 138
-0.259494 -0.268829 -0.107322 138 138 138
-0.256365 -0.272416 -0.106889 138 138 138
-0.253232 -0.276130 -0.106441 138 138 138
-0.250155 -0.279310 -0.106057 138 138 138
-0.247108 -0.282239 -0.105704 138 138 138
-0.244069 -0.285138 -0.105354 138 138 138
-0.241036 -0.288046 -0.105003 138 138 138
-0.237987 -0.291198 -0.104622 138 138 138
-0.234901 -0.294846 -0.104182 138 138 138
-0.231816 -0.298573 -0.103732 138 138 138
-0.228791 -0.301681 -0.103357 138 138 138
-0.225758 -0.304969 -0.102960 138 138 138
-0.222657 -0.309156 -0.102454 138 138 138
-0.219576 -0.313189 -0.101968 138 138 138
-0.216481 -0.317511 -0.101446 138 138 138
-0.213020 -0.326500 -0.100361 138 138 138
-0.208945 -0.343499 -0.098309 138 138 138
-0.205759 -0.349546 -0.097579 138 138 138
-0.202591 -0.355529 -0.096857 138 138 138
-0.199401 -0.361952 -0.096081 138 138 138
-0.196357 -0.366612 -0.095519 138 138 138
-0.193415 -0.370027 -0.095107 138 138 138
-0.190468 -0.373604 -0.094675 138 138 138
-0.187663 -0.375310 -0.094469 138 138 138
-0.184938 -0.375928 -0.094395 138 138 138
-0.182215 -0.376544 -0.094320 138 138 138
-0.179511 -0.376906 -0.094276 138 138 138
-0.176817 -0.377127 -0.094250 138 138 138
-0.174139 -0.377106 -0.094252 138 138 138
-0.171461 -0.377085 -0.094255 138 138 138
-0.168783 -0.377077 -0.094256 138 138 138
-0.166092 -0.377270 -0.094233 138 138 138
-0.163400 -0.377476 -0.094208 138 138 138
-0.160706 -0.377730 -0.094177 138 138 138
-0.157994 -0.378292 -0.094109 138 138 138
-0.155282 -0.378854 -0.094041 138 138 138
-0.152569 -0.379476 -0.093966 138 138 138
-0.149859 -0.380058 -0.093896 138 138 138
-0.147144 -0.380745 -0.093813 138 138 138
-0.144397 -0.382041 -0.093657 138 138 138
-0.141660 -0.383199 -0.093517 138 138 138
-0.138923 -0.384412 -0.093370 138 138 138
-0.136189 -0.385604 -0.093227 138 138 138
-0.133462 -0.386710 -0.093093 138 138 138
-0.130739 -0.387783 -0.092963 138 138 138
-0.128017 -0.388885 -0.092830 138 138 138
-0.125308 -0.389748 -0.092726 138 138 138
-0.122613 -0.390372 -0.092651 138 138 138
-0.119913 -0.391112 -0.092562 138 138 138
-0.117215 -0.391851 -0.092472 138 138 138
-0.114513 -0.392716 -0.092368 138 138 138
-0.111810 -0.393642 -0.092256 138 138 138
-0.109110 -0.394562 -0.092145 138 138 138
-0.106411 -0.395472 -0.092035 138 138 138
-0.103715 -0.396381 -0.091926 138 138 138
-0.101021 -0.397266 -0.091819 138 138 138
-0.098331 -0.398120 -0.091716 138 138 138
-0.095644 -0.398901 -0.091621 138 138 138
-0.092973 -0.399309 -0.091572 138 138 138
-0.090303 -0.399718 -0.091523 138 138 138
-0.087613 -0.400722 -0.091402 138 138 138
-0.084918 -0.401950 -0.091253 138 138 138
-0.082226 -0.403176 -0.091105 138 138 138
-0.079558 -0.403662 -0.091047 138 138 138
-0.076890 -0.404213 -0.090980 138 138 138
-0.074222 -0.404825 -0.090906 138 138 138
-0.071562 -0.405162 -0.090866 138 138 138
-0.068893 -0.405869 -0.090780 138 138 138
-0.066251 -0.405567 -0.090817 138 138 138
-0.063614 -0.405057 -0.090878 138 138 138
-0.060977 -0.404491 -0.090947 138 138 138
-0.058339 -0.403964 -0.091010 138 138 138
-0.055702 -0.403278 -0.091093 138 138 138
-0.053072 -0.402196 -0.091224 138 138 138
-0.050441 -0.401077 -0.091359 138 138 138
-0.047807 -0.399996 -0.091489 138 138 138
-0.045164 -0.399288 -0.091575 138 138 138
-0.042515 -0.398852 -0.091627 138 138 138
-0.039865 -0.398412 -0.091680 138 138 138
-0.037214 -0.397972 -0.091734 138 138 138
-0.034565 -0.397386 -0.091804 138 138 138
-0.031908 -0.397244 -0.091821 138 138 138
-0.029256 -0.396754 -0.091881 138 138 138
-0.026602 -0.396263 -0.091940 138 138 138
-0.023947 -0.395773 -0.091999 138 138 138
-0.021289 -0.395554 -0.092025 138 138 138
-0.018632 -0.395211 -0.092067 138 138 138
-0.015973 -0.394883 -0.092106 138 138 138
-0.013314 -0.394695 -0.092129 138 138 138
-0.010655 -0.394191 -0.092190 138 138 138
-0.007993 -0.394551 -0.092146 138 138 138
-0.005331 -0.395030 -0.092089 138 138 138
-0.002670 -0.395508 -0.092031 138 138 138
-0.000010 -0.396129 -0.091956 138 138 138
0.002649 -0.396764 -0.091879 138 138 138
0.005306 -0.397629 -0.091775 138 138 138
0.007962 -0.398166 -0.091710 138 138 138
0.010616 -0.398922 -0.091619 138 138 138
0.013269 -0.399696 -0.091525 138 138 138
0.015924 -0.399850 -0.091507 138 138 138
0.018579 -0.399950 -0.091495 138 138 138
0.021233 -0.400038 -0.091484 138 138 138
0.023891 -0.399825 -0.091510 138 138 138
0.026549 -0.399596 -0.091537 138 138 138
0.029207 -0.399375 -0.091564 138 138 138
0.031866 -0.399122 -0.091595 138 138 138
0.034526 -0.398858 -0.091627 138 138 138
0.037186 -0.398595 -0.091658 138 138 138
0.039847 -0.398331 -0.091690 138 138 138
0.042510 -0.397985 -0.091732 138 138 138
0.045177 -0.397448 -0.091797 138 138 138
0.047845 -0.396911 -0.091862 138 138 138
0.050512 -0.396438 -0.091919 138 138 138
0.053180 -0.396016 -0.091970 138 138 138
0.055856 -0.395246 -0.092063 138 138 138
0.058535 -0.394417 -0.092163 138 138 138
0.061225 -0.393218 -0.092307 138 138 138
0.063917 -0.392017 -0.092452 138 138 138
0.066610 -0.390873 -0.092590 138 138 138
0.069305 -0.389738 -0.092727 138 138 138
0.072003 -0.388586 -0.092866 138 138 138
0.074705 -0.387364 -0.093014 138 138 138
0.077409 -0.386164 -0.093159 138 138 138
0.080116 -0.384966 -0.093303 138 138 138
0.082829 -0.383639 -0.093464 138 138 138
0.085550 -0.382155 -0.093643 138 138 138
0.088259 -0.381096 -0.093771 138 138 138
0.090973 -0.379986 -0.093905 138 138 138
0.093689 -0.378875 -0.094039 138 138 138
0.096407 -0.377763 -0.094173 138 138 138
0.099134 -0.376475 -0.094328 138 138 138
0.101866 -0.375139 -0.094490 138 138 138
0.104610 -0.373567 -0.094679 138 138 138
0.107361 -0.371906 -0.094880 138 138 138
0.110148 -0.369461 -0.095175 138 138 138
0.112940 -0.367013 -0.095471 138 138 138
0.115738 -0.364558 -0.095767 138 138 138
0.118536 -0.362206 -0.096051 138 138 138
0.121325 -0.360158 -0.096298 138 138 138
0.124076 -0.358990 -0.096439 138 138 138
0.126829 -0.357851 -0.096576 138 138 138
0.129564 -0.357106 -0.096666 138 138 138
0.132283 -0.356733 -0.096711 138 138 138
0.135002 -0.356359 -0.096756 138 138 138
0.137721 -0.355986 -0.096802 138 138 138
0.140440 -0.355648 -0.096842 138 138 138
0.143142 -0.355630 -0.096845 138 138 138
0.145834 -0.355800 -0.096824 138 138 138
0.148541 -0.355683 -0.096838 138 138 138
0.151253 -0.355494 -0.096861 138 138 138
0.153971 -0.355200 -0.096896 138 138 138
0.156690 -0.354906 -0.096932 138 138 138
0.159416 -0.354512 -0.096979 138 138 138
0.162158 -0.353852 -0.097059 138 138 138
0.164915 -0.353001 -0.097162 138 138 138
0.167674 -0.352125 -0.097268 138 138 138
0.170406 -0.351704 -0.097318 138 138 138
0.173138 -0.351295 -0.097368 138 138 138
0.175866 -0.350951 -0.097409 138 138 138
0.178595 -0.350616 -0.097450 138 138 138
0.181324 -0.350282 -0.097490 138 138 138
0.184042 -0.350112 -0.097511 138 138 138
0.186758 -0.349987 -0.097526 138 138 138
0.189480 -0.349765 -0.097552 138 138 138
0.192203 -0.349555 -0.097578 138 138 138
0.194932 -0.349255 -0.097614 138 138 138
0.197662 -0.348954 -0.097650 138 138 138
0.200418 -0.348318 -0.097727 138 138 138
0.203199 -0.347378 -0.097841 138 138 138
0.205984 -0.346418 -0.097956 138 138 138
0.208762 -0.345561 -0.098060 138 138 138
0.211582 -0.344199 -0.098224 138 138 138
0.214417 -0.342696 -0.098406 138 138 138
0.217255 -0.341191 -0.098587 138 138 138
0.220127 -0.339315 -0.098814 138 138 138
0.223054 -0.336835 -0.099113 138 138 138
0.225986 -0.334350 -0.099413 138 138 138
0.228937 -0.331701 -0.099733 138 138 138
0.232047 -0.327303 -0.100264 138 138 138
0.235151 -0.323065 -0.100775 138 138 138
0.238178 -0.319797 -0.101170 138 138 138
0.241161 -0.317080 -0.101498 138 138 138
0.244151 -0.314354 -0.101827 138 138 138
0.247241 -0.310611 -0.102279 138 138 138
0.250401 -0.306186 -0.102813 138 138 138
0.253587 -0.301599 -0.103366 138 138 138
0.256820 -0.296609 -0.103969 138 138 138
0.260061 -0.291645 -0.104568 138 138 138
0.263258 -0.287235 -0.105100 138 138 138
0.266399 -0.283490 -0.105552 138 138 138
0.269480 -0.280419 -0.105923 138 138 138
0.272568 -0.277343 -0.106294 138 138 138
0.275717 -0.273725 -0.106731 138 138 138
0.279068 -0.268221 -0.107395 138 138 138
0.282507 -0.261970 -0.108150 138 138 138
0.285833 -0.256922 -0.108759 138 138 138
0.289278 -0.250855 -0.109492 138 138 138
0.292532 -0.246680 -0.109996 138 138 138
0.295721 -0.243195 -0.110416 139 139 139
0.298886 -0.239993 -0.110803 140 140 140
0.302069 -0.236694 -0.111201 142 142 142
0.305212 -0.233809 -0.111549 141 141 141
0.308362 -0.230914 -0.111899 141 141 141
0.311549 -0.227753 -0.112280 138 138 138
0.314805 -0.224032 -0.112729 138 138 138
0.318023 -0.220712 -0.113130 138 138 138
0.321245 -0.217420 -0.113527 138 138 138
0.324550 -0.213477 -0.114003 138 138 138
0.327869 -0.209477 -0.114486 138 138 138
0.331307 -0.204558 -0.115080 138 138 138
0.335205 -0.195891 -0.116126 138 138 138
0.339264 -0.186037 -0.117316 138 138 138
0.343093 -0.178238 -0.118257 138 138 138
0.347079 -0.169297 -0.119336 158 158 158
0.355157 -0.127576 -0.124372 149 149 149
0.359894 -0.113200 -0.126108 165 165 165
-0.355787 -0.122777 -0.127902 138 138 138
-0.352259 -0.127545 -0.127322 138 138 138
-0.348701 -0.132642 -0.126702 138 138 138
-0.345075 -0.138379 -0.126003 138 138 138
-0.341317 -0.145314 -0.125159 138 138 138
-0.337718 -0.151037 -0.124462 138 138 138
-0.334183 -0.156318 -0.123819 138 138 138
-0.330861 -0.159864 -0.123388 138 138 138
-0.327474 -0.164046 -0.122878 138 138 138
-0.324222 -0.167124 -0.122504 138 138 138
-0.321050 -0.169554 -0.122208 138 138 138
-0.317843 -0.172332 -0.121870 138 138 138
-0.314637 -0.175167 -0.121524 138 138 138
-0.311433 -0.178028 -0.121176 138 138 138
-0.308234 -0.180895 -0.120827 138 138 138
-0.304950 -0.184602 -0.120376 138 138 138
-0.301590 -0.189080 -0.119831 138 138 138
-0.298194 -0.193983 -0.119234 138 138 138
-0.294596 -0.200889 -0.118393 138 138 138
-0.290993 -0.207972 -0.117531 138 138 138
-0.287413 -0.214979 -0.116678 138 138 138
-0.283773 -0.222713 -0.115736 138 138 138
-0.280066 -0.231263 -0.114695 138 138 138
-0.276495 -0.238637 -0.113798 138 138 138
-0.272964 -0.245749 -0.112932 138 138 138
-0.269522 -0.252117 -0.112157 138 138 138
-0.266237 -0.257012 -0.111561 138 138 138
-0.262906 -0.262491 -0.110894 138 138 138
-0.259636 -0.267437 -0.110292 138 138 138
-0.256493 -0.271158 -0.109839 138 138 138
-0.253348 -0.274982 -0.109373 138 138 138
-0.250251 -0.278364 -0.108961 138 138 138
-0.247186 -0.281471 -0.108583 138 138 138
-0.244139 -0.284455 -0.108220 138 138 138
-0.241107 -0.287347 -0.107868 138 138 138
-0.238085 -0.290178 -0.107523 138 138 138
-0.235045 -0.293289 -0.107144 138 138 138
-0.231957 -0.297029 -0.106689 138 138 138
-0.228929 -0.300163 -0.106308 138 138 138
-0.225909 -0.303267 -0.105930 138 138 138
-0.222893 -0.306412 -0.105547 138 138 138
-0.219798 -0.310580 -0.105039 138 138 138
-0.216710 -0.314784 -0.104528 138 138 138
-0.213615 -0.319174 -0.103993 138 138 138
-0.210257 -0.327003 -0.103040 138 138 138
-0.206160 -0.344497 -0.100910 138 138 138
-0.203001 -0.350299 -0.100204 138 138 138
-0.199734 -0.357667 -0.099307 138 138 138
-0.196563 -0.363964 -0.098541 138 138 138
-0.193613 -0.367435 -0.098118 138 138 138
-0.190667 -0.370961 -0.097689 138 138 138
-0.187791 -0.373619 -0.097365 138 138 138
-0.185027 -0.374769 -0.097225 138 138 138
-0.182312 -0.375245 -0.097167 138 138 138
-0.179615 -0.375477 -0.097139 138 138 138
-0.176919 -0.375708 -0.097111 138 138 138
-0.174235 -0.375760 -0.097104 138 138 138
-0.171556 -0.375740 -0.097107 138 138 138
-0.168882 -0.375645 -0.097118 138 138 138
-0.166186 -0.375879 -0.097090 138 138 138
-0.163487 -0.376175 -0.097054 138 138 138
-0.160795 -0.376381 -0.097029 138 138 138
-0.158085 -0.376875 -0.096969 138 138 138
-0.155369 -0.377483 -0.096895 138 138 138
-0.152654 -0.378107 -0.096819 138 138 138
-0.149940 -0.378745 -0.096741 138 138 138
-0.147218 -0.379528 -0.096646 138 138 138
-0.144475 -0.380731 -0.096499 138 138 138
-0.141734 -0.381930 -0.096353 138 138 138
-0.138994 -0.383176 -0.096202 138 138 138
-0.136256 -0.384413 -0.096051 138 138 138
-0.133528 -0.385521 -0.095916 138 138 138
-0.130801 -0.386629 -0.095781 138 138 138
-0.128079 -0.387705 -0.095650 138 138 138
-0.125384 -0.388261 -0.095583 138 138 138
-0.122682 -0.389002 -0.095492 138 138 138
-0.119981 -0.389742 -0.095402 138 138 138
-0.117281 -0.390483 -0.095312 138 138 138
-0.114582 -0.391254 -0.095218 138 138 138
-0.111885 -0.391994 -0.095128 138 138 138
-0.109186 -0.392832 -0.095026 138 138 138
-0.106487 -0.393726 -0.094917 138 138 138
-0.103788 -0.394635 -0.094807 138 138 138
-0.101092 -0.395545 -0.094696 138 138 138
-0.098404 -0.396266 -0.094608 138 138 138
-0.095735 -0.396528 -0.094576 138 138 138
-0.093067 -0.396801 -0.094543 138 138 138
-0.090393 -0.397209 -0.094493 138 138 138
-0.087710 -0.397948 -0.094403 138 138 138
-0.085014 -0.399119 -0.094261 138 138 138
-0.082343 -0.399579 -0.094205 138 138 138
-0.079673 -0.400039 -0.094149 138 138 138
-0.077004 -0.400500 -0.094093 138 138 138
-0.074335 -0.400964 -0.094036 138 138 138
-0.071660 -0.401723 -0.093944 138 138 138
-0.069009 -0.401632 -0.093955 138 138 138
-0.066368 -0.401121 -0.094017 138 138 138
-0.063726 -0.400608 -0.094079 138 138 138
-0.061083 -0.400096 -0.094142 138 138 138
-0.058448 -0.399234 -0.094247 138 138 138
-0.055811 -0.398321 -0.094358 138 138 138
-0.053172 -0.397451 -0.094464 138 138 138
-0.050531 -0.396580 -0.094570 138 138 138
-0.047884 -0.395884 -0.094655 138 138 138
-0.045227 -0.395742 -0.094672 138 138 138
-0.042571 -0.395544 -0.094696 138 138 138
-0.039917 -0.395103 -0.094750 138 138 138
-0.037264 -0.394621 -0.094808 138 138 138
-0.034606 -0.394341 -0.094842 138 138 138
-0.031947 -0.394186 -0.094861 138 138 138
-0.029287 -0.394031 -0.094880 138 138 138
-0.026627 -0.393878 -0.094899 138 138 138
-0.023969 -0.393530 -0.094941 138 138 138
-0.021305 -0.393701 -0.094920 138 138 138
-0.018643 -0.393713 -0.094919 138 138 138
-0.015984 -0.393341 -0.094964 138 138 138
-0.013323 -0.392968 -0.095009 138 138 138
-0.010661 -0.392908 -0.095017 138 138 138
-0.007997 -0.393201 -0.094981 138 138 138
-0.005334 -0.393524 -0.094942 138 138 138
-0.002671 -0.394002 -0.094884 138 138 138
-0.000010 -0.394578 -0.094813 138 138 138
0.002651 -0.395388 -0.094715 138 138 138
0.005309 -0.396347 -0.094598 138 138 138
0.007966 -0.397020 -0.094516 138 138 138
0.010623 -0.397527 -0.094455 138 138 138
0.013278 -0.398087 -0.094386 138 138 138
0.015933 -0.398429 -0.094345 138 138 138
0.018589 -0.398517 -0.094334 138 138 138
0.021246 -0.398604 -0.094323 138 138 138
0.023904 -0.398483 -0.094338 138 138 138
0.026563 -0.398255 -0.094366 138 138 138
0.029223 -0.397989 -0.094398 138 138 138
0.031885 -0.397693 -0.094434 138 138 138
0.034546 -0.397401 -0.094470 138 138 138
0.037208 -0.397156 -0.094500 138 138 138
0.039871 -0.396891 -0.094532 138 138 138
0.042538 -0.396353 -0.094597 138 138 138
0.045207 -0.395815 -0.094663 138 138 138
0.047876 -0.395277 -0.094728 138 138 138
0.050550 -0.394610 -0.094810 138 138 138
0.053233 -0.393513 -0.094943 138 138 138
0.055924 -0.392215 -0.095101 138 138 138
0.058616 -0.390916 -0.095259 138 138 138
0.061311 -0.389647 -0.095414 138 138 138
0.064007 -0.388446 -0.095560 138 138 138
0.066706 -0.387224 -0.095709 138 138 138
0.069407 -0.386001 -0.095858 138 138 138
0.072111 -0.384776 -0.096007 138 138 138
0.074816 -0.383573 -0.096153 138 138 138
0.077525 -0.382372 -0.096299 138 138 138
0.080227 -0.381439 -0.096413 138 138 138
0.082925 -0.380711 -0.096502 138 138 138
0.085631 -0.379761 -0.096617 138 138 138
0.088346 -0.378619 -0.096756 138 138 138
0.091067 -0.377374 -0.096908 138 138 138
0.093786 -0.376260 -0.097043 138 138 138
0.096511 -0.375044 -0.097191 138 138 138
0.099251 -0.373485 -0.097381 138 138 138
0.101995 -0.371913 -0.097573 138 138 138
0.104743 -0.370334 -0.097765 138 138 138
0.107529 -0.367887 -0.098063 138 138 138
0.110322 -0.365411 -0.098364 138 138 138
0.113122 -0.362888 -0.098671 138 138 138
0.115922 -0.360486 -0.098964 138 138 138
0.118718 -0.358262 -0.099235 138 138 138
0.121494 -0.356584 -0.099439 138 138 138
0.124255 -0.355305 -0.099594 138 138 138
0.127015 -0.354087 -0.099743 138 138 138
0.129774 -0.352937 -0.099883 138 138 138
0.132519 -0.352119 -0.099982 138 138 138
0.135243 -0.351752 -0.100027 138 138 138
0.137949 -0.351725 -0.100030 138 138 138
0.140654 -0.351738 -0.100029 138 138 138
0.143359 -0.351735 -0.100029 138 138 138
0.146065 -0.351717 -0.100031 138 138 138
0.148768 -0.351761 -0.100026 138 138 138
0.151462 -0.351948 -0.100003 138 138 138
0.154162 -0.352038 -0.099992 138 138 138
0.156880 -0.351814 -0.100020 138 138 138
0.159598 -0.351590 -0.100047 138 138 138
0.162329 -0.351169 -0.100098 138 138 138
0.165089 -0.350305 -0.100203 138 138 138
0.167844 -0.349543 -0.100296 138 138 138
0.170576 -0.349164 -0.100342 138 138 138
0.173300 -0.348920 -0.100372 138 138 138
0.176021 -0.348720 -0.100396 138 138 138
0.178748 -0.348450 -0.100429 138 138 138
0.181476 -0.348155 -0.100465 138 138 138
0.184206 -0.347858 -0.100501 138 138 138
0.186934 -0.347596 -0.100533 138 138 138
0.189661 -0.347346 -0.100563 138 138 138
0.192388 -0.347105 -0.100593 138 138 138
0.195107 -0.346987 -0.100607 138 138 138
0.197848 -0.346570 -0.100658 138 138 138
0.200613 -0.345849 -0.100746 138 138 138
0.203406 -0.344784 -0.100875 138 138 138
0.206222 -0.343458 -0.101037 138 138 138
0.209093 -0.341470 -0.101279 138 138 138
0.211946 -0.339753 -0.101488 138 138 138
0.214787 -0.338228 -0.101673 138 138 138
0.217631 -0.336704 -0.101859 138 138 138
0.220525 -0.334617 -0.102113 138 138 138
0.223451 -0.332203 -0.102407 138 138 138
0.226375 -0.329876 -0.102690 138 138 138
0.229459 -0.325750 -0.103192 138 138 138
0.232551 -0.321622 -0.103695 138 138 138
0.235592 -0.318174 -0.104115 138 138 138
0.238573 -0.315469 -0.104444 138 138 138
0.241586 -0.312471 -0.104809 138 138 138
0.244659 -0.308887 -0.105245 138 138 138
0.247796 -0.304691 -0.105756 138 138 138
0.250944 -0.300477 -0.106269 138 138 138
0.254132 -0.295918 -0.106824 138 138 138
0.257336 -0.291303 -0.107386 138 138 138
0.260550 -0.286671 -0.107950 138 138 138
0.263688 -0.282924 -0.108406 138 138 138
0.266834 -0.279168 -0.108863 138 138 138
0.269920 -0.276090 -0.109238 138 138 138
0.273034 -0.272809 -0.109637 138 138 138
0.276323 -0.267858 -0.110240 138 138 138
0.279685 -0.262302 -0.110917 138 138 138
0.282976 -0.257547 -0.111495 138 138 138
0.286308 -0.252487 -0.112111 138 138 138
0.289556 -0.248317 -0.112619 138 138 138
0.292788 -0.244382 -0.113098 138 138 138
0.295939 -0.241265 -0.113478 138 138 138
0.299104 -0.238092 -0.113864 139 139 139
0.302267 -0.234987 -0.114242 139 139 139
0.305407 -0.232142 -0.114588 140 140 140
0.308566 -0.229185 -0.114948 140 140 140
0.311825 -0.225404 -0.115408 138 138 138
0.315101 -0.221529 -0.115880 138 138 138
0.318323 -0.218202 -0.116285 138 138 138
0.321606 -0.214404 -0.116748 138 138 138
0.324924 -0.210378 -0.117238 138 138 138
0.328482 -0.204385 -0.117967 138 138 138
0.332293 -0.196376 -0.118942 138 138 138
0.336262 -0.187190 -0.120061 138 138 138
0.339985 -0.180190 -0.120913 138 138 138
0.343756 -0.172908 -0.121799 138 138 138
0.351636 -0.132426 -0.126728 138 138 138
0.356005 -0.120851 -0.128137 146 146 146
0.360456 -0.108817 -0.129602 116 116 116
-0.352724 -0.123874 -0.130718 138 138 138
-0.349038 -0.129977 -0.129969 138 138 138
-0.345476 -0.135172 -0.129331 138 138 138
-0.341564 -0.143356 -0.128327 138 138 138
-0.337976 -0.148964 -0.127638 138 138 138
-0.334391 -0.154646 -0.126941 138 138 138
-0.331054 -0.158317 -0.126490 138 138 138
-0.327736 -0.161887 -0.126052 138 138 138
-0.324435 -0.165365 -0.125625 138 138 138
-0.321270 -0.167720 -0.125335 138 138 138
-0.318085 -0.170294 -0.125020 138 138 138
-0.314871 -0.173171 -0.124666 138 138 138
-0.311664 -0.176037 -0.124314 138 138 138
-0.308464 -0.178895 -0.123964 138 138 138
-0.305271 -0.181748 -0.123613 138 138 138
-0.302047 -0.184937 -0.123222 138 138 138
-0.298647 -0.189836 -0.122620 138 138 138
-0.295262 -0.194686 -0.122025 138 138 138
-0.291642 -0.201876 -0.121142 138 138 138
-0.288063 -0.208813 -0.120291 138 138 138
-0.284556 -0.215186 -0.119508 138 138 138
-0.280883 -0.223327 -0.118509 138 138 138
-0.277127 -0.232450 -0.117389 138 138 138
-0.273535 -0.240114 -0.116448 138 138 138
-0.269971 -0.247667 -0.115520 138 138 138
-0.266520 -0.254211 -0.114717 138 138 138
-0.263208 -0.259451 -0.114074 138 138 138
-0.259854 -0.265255 -0.113361 138 138 138
-0.256621 -0.269900 -0.112791 138 138 138
-0.253464 -0.273832 -0.112308 138 138 138
-0.250364 -0.277232 -0.111891 138 138 138
-0.247274 -0.280603 -0.111477 138 138 138
-0.244209 -0.283771 -0.111088 138 138 138
-0.241177 -0.286647 -0.110735 138 138 138
-0.238155 -0.289480 -0.110387 138 138 138
-0.235138 -0.292322 -0.110038 138 138 138
-0.232107 -0.295386 -0.109662 138 138 138
-0.229066 -0.298643 -0.109262 138 138 138
-0.226034 -0.301881 -0.108864 138 138 138
-0.223023 -0.304939 -0.108489 138 138 138
-0.220014 -0.308041 -0.108108 138 138 138
-0.216928 -0.312188 -0.107599 138 138 138
-0.213832 -0.316554 -0.107063 138 138 138
-0.210775 -0.320541 -0.106574 138 138 138
-0.207529 -0.327058 -0.105773 138 138 138
-0.203632 -0.342201 -0.103914 138 138 138
-0.200198 -0.351652 -0.102754 138 138 138
-0.196866 -0.360010 -0.101728 138 138 138
-0.193796 -0.365051 -0.101109 138 138 138
-0.190847 -0.368584 -0.100675 138 138 138
-0.187975 -0.371143 -0.100361 138 138 138
-0.185181 -0.372677 -0.100173 138 138 138
-0.182447 -0.373397 -0.100084 138 138 138
-0.179720 -0.374045 -0.100005 138 138 138
-0.177022 -0.374277 -0.099976 138 138 138
-0.174331 -0.374414 -0.099960 138 138 138
-0.171652 -0.374359 -0.099966 138 138 138
-0.168980 -0.374213 -0.099984 138 138 138
-0.166294 -0.374279 -0.099976 138 138 138
-0.163589 -0.374641 -0.099932 138 138 138
-0.160885 -0.375003 -0.099887 138 138 138
-0.158174 -0.375495 -0.099827 138 138 138
-0.155455 -0.376139 -0.099748 138 138 138
-0.152737 -0.376782 -0.099669 138 138 138
-0.150021 -0.377426 -0.099590 138 138 138
-0.147305 -0.378070 -0.099511 138 138 138
-0.144556 -0.379351 -0.099354 138 138 138
-0.141807 -0.380692 -0.099189 138 138 138
-0.139064 -0.381939 -0.099036 138 138 138
-0.136325 -0.383186 -0.098883 138 138 138
-0.133593 -0.384330 -0.098742 138 138 138
-0.130866 -0.385439 -0.098606 138 138 138
-0.128158 -0.386198 -0.098513 138 138 138
-0.125452 -0.386944 -0.098421 138 138 138
-0.122746 -0.387724 -0.098325 138 138 138
-0.120042 -0.388499 -0.098230 138 138 138
-0.117340 -0.389273 -0.098135 138 138 138
-0.114639 -0.390055 -0.098039 138 138 138
-0.111938 -0.390852 -0.097941 138 138 138
-0.109247 -0.391483 -0.097864 138 138 138
-0.106556 -0.392142 -0.097783 138 138 138
-0.103856 -0.393025 -0.097675 138 138 138
-0.101161 -0.393861 -0.097572 138 138 138
-0.098493 -0.394022 -0.097552 138 138 138
-0.095823 -0.394256 -0.097524 138 138 138
-0.093151 -0.394538 -0.097489 138 138 138
-0.090480 -0.394820 -0.097454 138 138 138
-0.087813 -0.394989 -0.097434 138 138 138
-0.085144 -0.395254 -0.097401 138 138 138
-0.082473 -0.395574 -0.097362 138 138 138
-0.079803 -0.395894 -0.097322 138 138 138
-0.077134 -0.396213 -0.097283 138 138 138
-0.074465 -0.396535 -0.097244 138 138 138
-0.071806 -0.396531 -0.097244 138 138 138
-0.069148 -0.396501 -0.097248 138 138 138
-0.066490 -0.396467 -0.097252 138 138 138
-0.063839 -0.396117 -0.097295 138 138 138
-0.061198 -0.395336 -0.097391 138 138 138
-0.058555 -0.394549 -0.097488 138 138 138
-0.055905 -0.394064 -0.097547 138 138 138
-0.053253 -0.393579 -0.097607 138 138 138
-0.050600 -0.393121 -0.097663 138 138 138
-0.047944 -0.392754 -0.097708 138 138 138
-0.045287 -0.392387 -0.097753 138 138 138
-0.042630 -0.392043 -0.097795 138 138 138
-0.039970 -0.391785 -0.097827 138 138 138
-0.037310 -0.391522 -0.097859 138 138 138
-0.034647 -0.391394 -0.097875 138 138 138
-0.031981 -0.391517 -0.097860 138 138 138
-0.029315 -0.391640 -0.097845 138 138 138
-0.026650 -0.391762 -0.097830 138 138 138
-0.023984 -0.391990 -0.097802 138 138 138
-0.021321 -0.391844 -0.097820 138 138 138
-0.018656 -0.392015 -0.097799 138 138 138
-0.015993 -0.391841 -0.097820 138 138 138
-0.013331 -0.391614 -0.097848 138 138 138
-0.010666 -0.391758 -0.097830 138 138 138
-0.008001 -0.392043 -0.097795 138 138 138
-0.005336 -0.392337 -0.097759 138 138 138
-0.002673 -0.392631 -0.097723 138 138 138
-0.000010 -0.393145 -0.097660 138 138 138
0.002652 -0.394105 -0.097542 138 138 138
0.005312 -0.395065 -0.097424 138 138 138
0.007970 -0.395872 -0.097325 138 138 138
0.010628 -0.396379 -0.097263 138 138 138
0.013284 -0.396887 -0.097201 138 138 138
0.015942 -0.397128 -0.097171 138 138 138
0.018600 -0.397081 -0.097177 138 138 138
0.021258 -0.397169 -0.097166 138 138 138
0.023917 -0.397140 -0.097169 138 138 138
0.026578 -0.396895 -0.097199 138 138 138
0.029240 -0.396598 -0.097236 138 138 138
0.031903 -0.396302 -0.097272 138 138 138
0.034566 -0.396005 -0.097309 138 138 138
0.037230 -0.395691 -0.097347 138 138 138
0.039902 -0.394961 -0.097437 138 138 138
0.042575 -0.394186 -0.097532 138 138 138
0.045249 -0.393510 -0.097615 138 138 138
0.047923 -0.392834 -0.097698 138 138 138
0.050605 -0.391852 -0.097819 138 138 138
0.053296 -0.390551 -0.097978 138 138 138
0.055993 -0.389081 -0.098159 138 138 138
0.058696 -0.387479 -0.098355 138 138 138
0.061397 -0.386088 -0.098526 138 138 138
0.064099 -0.384800 -0.098684 138 138 138
0.066803 -0.383511 -0.098843 138 138 138
0.069510 -0.382220 -0.099001 138 138 138
0.072206 -0.381436 -0.099097 138 138 138
0.074901 -0.380708 -0.099187 138 138 138
0.077599 -0.379979 -0.099276 138 138 138
0.080297 -0.379250 -0.099366 138 138 138
0.083001 -0.378404 -0.099470 138 138 138
0.085712 -0.377384 -0.099595 138 138 138
0.088428 -0.376291 -0.099729 138 138 138
0.091146 -0.375197 -0.099863 138 138 138
0.093880 -0.373734 -0.100043 138 138 138
0.096626 -0.372025 -0.100253 138 138 138
0.099375 -0.370312 -0.100463 138 138 138
0.102125 -0.368678 -0.100664 138 138 138
0.104910 -0.366264 -0.100960 138 138 138
0.107703 -0.363743 -0.101270 138 138 138
0.110503 -0.361216 -0.101580 138 138 138
0.113302 -0.358801 -0.101876 138 138 138
0.116093 -0.356692 -0.102135 138 138 138
0.118889 -0.354579 -0.102395 138 138 138
0.121657 -0.353152 -0.102570 138 138 138
0.124419 -0.351931 -0.102720 138 138 138
0.127182 -0.350709 -0.102870 138 138 138
0.129951 -0.349442 -0.103025 138 138 138
0.132716 -0.348309 -0.103164 138 138 138
0.135442 -0.347969 -0.103206 138 138 138
0.138159 -0.347819 -0.103224 138 138 138
0.140867 -0.347832 -0.103223 138 138 138
0.143577 -0.347827 -0.103223 138 138 138
0.146282 -0.347890 -0.103216 138 138 138
0.148987 -0.347976 -0.103205 138 138 138
0.151691 -0.348062 -0.103195 138 138 138
0.154395 -0.348149 -0.103184 138 138 138
0.157094 -0.348311 -0.103164 138 138 138
0.159807 -0.348238 -0.103173 138 138 138
0.162518 -0.348200 -0.103178 138 138 138
0.165265 -0.347589 -0.103253 138 138 138
0.168015 -0.346945 -0.103332 138 138 138
0.170742 -0.346684 -0.103364 138 138 138
0.173466 -0.346486 -0.103388 138 138 138
0.176190 -0.346288 -0.103412 138 138 138
0.178914 -0.346089 -0.103437 138 138 138
0.181641 -0.345860 -0.103465 138 138 138
0.184373 -0.345556 -0.103502 138 138 138
0.187106 -0.345255 -0.103539 138 138 138
0.189836 -0.345003 -0.103570 138 138 138
0.192566 -0.344751 -0.103601 138 138 138
0.195306 -0.344376 -0.103647 138 138 138
0.198060 -0.343827 -0.103715 138 138 138
0.200852 -0.342793 -0.103842 138 138 138
0.203677 -0.341365 -0.104017 138 138 138
0.206549 -0.339357 -0.104263 138 138 138
0.209434 -0.337244 -0.104523 138 138 138
0.212320 -0.335178 -0.104776 138 138 138
0.215166 -0.333651 -0.104964 138 138 138
0.218015 -0.332128 -0.105151 138 138 138
0.220935 -0.329782 -0.105439 138 138 138
0.223869 -0.327333 -0.105739 138 138 138
0.226945 -0.323285 -0.106236 138 138 138
0.230007 -0.319483 -0.106703 138 138 138
0.233045 -0.316055 -0.107124 138 138 138
0.236034 -0.313253 -0.107468 138 138 138
0.239045 -0.310275 -0.107834 138 138 138
0.242095 -0.306937 -0.108244 138 138 138
0.245222 -0.302828 -0.108748 138 138 138
0.248354 -0.298747 -0.109249 138 138 138
0.251496 -0.294662 -0.109751 138 138 138
0.254642 -0.290614 -0.110248 138 138 138
0.257847 -0.286047 -0.110808 138 138 138
0.260981 -0.282300 -0.111268 138 138 138
0.264137 -0.278413 -0.111745 138 138 138
0.267273 -0.274815 -0.112187 138 138 138
0.270367 -0.271701 -0.112569 138 138 138
0.273607 -0.267205 -0.113121 138 138 138
0.276904 -0.262241 -0.113731 138 138 138
0.280166 -0.257717 -0.114286 138 138 138
0.283412 -0.253439 -0.114812 138 138 138
0.286664 -0.249182 -0.115334 138 138 138
0.289917 -0.245003 -0.115847 138 138 138
0.293050 -0.242018 -0.116214 138 138 138
0.296174 -0.239182 -0.116562 138 138 138
0.299321 -0.236188 -0.116929 138 138 138
0.302460 -0.233321 -0.117281 138 138 138
0.305603 -0.230471 -0.117631 138 138 138
0.308794 -0.227246 -0.118027 138 138 138
0.312101 -0.223050 -0.118542 138 138 138
0.315398 -0.219022 -0.119037 138 138 138
0.318663 -0.215340 -0.119489 138 138 138
0.322032 -0.210835 -0.120042 138 138 138
0.325596 -0.204732 -0.120791 138 138 138
0.329382 -0.196867 -0.121757 138 138 138
0.333331 -0.187766 -0.122874 138 138 138
0.336928 -0.181751 -0.123613 138 138 138
0.340529 -0.175796 -0.124344 138 138 138
0.347988 -0.138397 -0.128935 138 138 138
0.352263 -0.127436 -0.130281 143 143 143
0.356695 -0.115402 -0.131758 145 145 145
-0.349648 -0.125090 -0.133518 138 138 138
-0.345935 -0.131481 -0.132727 138 138 138
-0.342109 -0.138921 -0.131805 138 138 138
-0.338234 -0.146898 -0.130818 138 138 138
-0.334625 -0.152769 -0.130091 138 138 138
-0.331265 -0.156615 -0.129615 138 138 138
-0.327927 -0.160332 -0.129155 138 138 138
-0.324649 -0.163604 -0.128750 138 138 138
-0.321495 -0.165841 -0.128473 138 138 138
-0.318338 -0.168148 -0.128187 138 138 138
-0.315105 -0.171176 -0.127812 138 138 138
-0.311896 -0.174044 -0.127457 138 138 138
-0.308694 -0.176906 -0.127103 138 138 138
-0.305493 -0.179803 -0.126744 138 138 138
-0.302306 -0.182634 -0.126394 138 138 138
-0.299097 -0.185722 -0.126011 138 138 138
-0.295720 -0.190460 -0.125425 138 138 138
-0.292265 -0.196030 -0.124735 138 138 138
-0.288642 -0.203332 -0.123831 138 138 138
-0.285127 -0.209726 -0.123040 138 138 138
-0.281693 -0.215457 -0.122330 138 138 138
-0.277995 -0.223928 -0.121281 138 138 138
-0.274190 -0.233636 -0.120080 138 138 138
-0.270545 -0.241933 -0.119052 138 138 138
-0.266965 -0.249746 -0.118085 138 138 138
-0.263491 -0.256615 -0.117235 138 138 138
-0.260122 -0.262535 -0.116502 138 138 138
-0.256834 -0.267735 -0.115858 138 138 138
-0.253583 -0.272651 -0.115249 138 138 138
-0.250472 -0.276158 -0.114815 138 138 138
-0.247381 -0.279531 -0.114398 138 138 138
-0.244297 -0.282896 -0.113981 138 138 138
-0.241247 -0.285964 -0.113601 138 138 138
-0.238225 -0.288782 -0.113252 138 138 138
-0.235208 -0.291610 -0.112902 138 138 138
-0.232196 -0.294444 -0.112551 138 138 138
-0.229192 -0.297265 -0.112202 138 138 138
-0.226156 -0.300519 -0.111799 138 138 138
-0.223133 -0.303700 -0.111406 138 138 138
-0.220123 -0.306816 -0.111020 138 138 138
-0.217115 -0.309975 -0.110629 138 138 138
-0.214061 -0.313793 -0.110156 138 138 138
-0.210990 -0.317924 -0.109645 138 138 138
-0.207940 -0.321884 -0.109154 138 138 138
-0.204796 -0.327179 -0.108499 138 138 138
-0.201333 -0.336821 -0.107305 138 138 138
-0.197306 -0.354241 -0.105148 138 138 138
-0.194040 -0.361852 -0.104206 138 138 138
-0.191028 -0.366202 -0.103668 138 138 138
-0.188159 -0.368682 -0.103361 138 138 138
-0.185332 -0.370636 -0.103119 138 138 138
-0.182588 -0.371480 -0.103014 138 138 138
-0.179865 -0.372019 -0.102947 138 138 138
-0.177144 -0.372559 -0.102881 138 138 138
-0.174427 -0.373065 -0.102818 138 138 138
-0.171753 -0.372926 -0.102835 138 138 138
-0.169079 -0.372780 -0.102853 138 138 138
-0.166402 -0.372676 -0.102866 138 138 138
-0.163695 -0.373038 -0.102821 138 138 138
-0.160985 -0.373464 -0.102769 138 138 138
-0.158263 -0.374120 -0.102687 138 138 138
-0.155542 -0.374764 -0.102608 138 138 138
-0.152822 -0.375416 -0.102527 138 138 138
-0.150104 -0.376071 -0.102446 138 138 138
-0.147386 -0.376741 -0.102363 138 138 138
-0.144638 -0.377969 -0.102211 138 138 138
-0.141886 -0.379313 -0.102044 138 138 138
-0.139138 -0.380658 -0.101878 138 138 138
-0.136394 -0.381950 -0.101718 138 138 138
-0.133659 -0.383137 -0.101571 138 138 138
-0.130942 -0.384020 -0.101462 138 138 138
-0.128229 -0.384847 -0.101359 138 138 138
-0.125517 -0.385680 -0.101256 138 138 138
-0.122809 -0.386487 -0.101156 138 138 138
-0.120102 -0.387289 -0.101057 138 138 138
-0.117398 -0.388067 -0.100961 138 138 138
-0.114695 -0.388865 -0.100862 138 138 138
-0.111994 -0.389662 -0.100763 138 138 138
-0.109298 -0.390348 -0.100678 138 138 138
-0.106607 -0.390971 -0.100601 138 138 138
-0.103917 -0.391594 -0.100524 138 138 138
-0.101248 -0.391714 -0.100509 138 138 138
-0.098579 -0.391855 -0.100492 138 138 138
-0.095909 -0.392016 -0.100472 138 138 138
-0.093239 -0.392177 -0.100452 138 138 138
-0.090568 -0.392405 -0.100424 138 138 138
-0.087919 -0.391962 -0.100478 138 138 138
-0.085270 -0.391519 -0.100533 138 138 138
-0.082619 -0.391075 -0.100588 138 138 138
-0.079960 -0.390908 -0.100609 138 138 138
-0.077285 -0.391234 -0.100569 138 138 138
-0.074619 -0.391285 -0.100562 138 138 138
-0.071955 -0.391276 -0.100563 138 138 138
-0.069284 -0.391489 -0.100537 138 138 138
-0.066614 -0.391701 -0.100511 138 138 138
-0.063949 -0.391739 -0.100506 138 138 138
-0.061286 -0.391690 -0.100512 138 138 138
-0.058627 -0.391489 -0.100537 138 138 138
-0.055973 -0.391002 -0.100597 138 138 138
-0.053317 -0.390530 -0.100656 138 138 138
-0.050659 -0.390163 -0.100701 138 138 138
-0.048000 -0.389795 -0.100747 138 138 138
-0.045337 -0.389652 -0.100765 138 138 138
-0.042672 -0.389528 -0.100780 138 138 138
-0.040005 -0.389613 -0.100769 138 138 138
-0.037336 -0.389749 -0.100753 138 138 138
-0.034669 -0.389871 -0.100737 138 138 138
-0.032001 -0.389994 -0.100722 138 138 138
-0.029334 -0.390117 -0.100707 138 138 138
-0.026665 -0.390415 -0.100670 138 138 138
-0.023996 -0.390779 -0.100625 138 138 138
-0.021332 -0.390648 -0.100641 138 138 138
-0.018668 -0.390492 -0.100661 138 138 138
-0.016003 -0.390335 -0.100680 138 138 138
-0.013337 -0.390471 -0.100663 138 138 138
-0.010671 -0.390615 -0.100645 138 138 138
-0.008005 -0.390884 -0.100612 138 138 138
-0.005339 -0.391178 -0.100576 138 138 138
-0.002674 -0.391504 -0.100535 138 138 138
-0.000010 -0.392196 -0.100450 138 138 138
0.002653 -0.392902 -0.100362 138 138 138
0.005315 -0.393781 -0.100253 138 138 138
0.007974 -0.394723 -0.100137 138 138 138
0.010633 -0.395231 -0.100074 138 138 138
0.013291 -0.395680 -0.100018 138 138 138
0.015949 -0.396078 -0.099969 138 138 138
0.018609 -0.395971 -0.099982 138 138 138
0.021270 -0.395863 -0.099996 138 138 138
0.023930 -0.395796 -0.100004 138 138 138
0.026593 -0.395491 -0.100042 138 138 138
0.029257 -0.395167 -0.100082 138 138 138
0.031922 -0.394843 -0.100122 138 138 138
0.034587 -0.394520 -0.100162 138 138 138
0.037257 -0.393953 -0.100232 138 138 138
0.039932 -0.393063 -0.100342 138 138 138
0.042610 -0.392171 -0.100453 138 138 138
0.045289 -0.391279 -0.100563 138 138 138
0.047976 -0.390092 -0.100710 138 138 138
0.050674 -0.388430 -0.100916 138 138 138
0.053374 -0.386828 -0.101114 138 138 138
0.056078 -0.385223 -0.101313 138 138 138
0.058781 -0.383797 -0.101489 138 138 138
0.061483 -0.382535 -0.101645 138 138 138
0.064185 -0.381418 -0.101784 138 138 138
0.066888 -0.380300 -0.101922 138 138 138
0.069585 -0.379517 -0.102019 138 138 138
0.072278 -0.378938 -0.102091 138 138 138
0.074972 -0.378352 -0.102163 138 138 138
