ply
format ascii 1.0
element vertex 1190
property float x
property float y
property float z
property uchar red
property uchar green
property uchar blue
end_header
0.279815 -0.327164 0.093091 162 162 162
0.282280 -0.326209 0.093111 162 162 162
0.284756 -0.325275 0.093133 161 161 161
0.287161 -0.324210 0.093147 161 161 161
0.289553 -0.323123 0.093159 161 161 161
0.291944 -0.322035 0.093172 161 161 161
0.294337 -0.320952 0.093185 161 161 161
0.296684 -0.319783 0.093193 161 161 161
0.298819 -0.318211 0.093178 161 161 161
0.300955 -0.316639 0.093163 161 161 161
0.303090 -0.315066 0.093149 161 161 161
0.305237 -0.313513 0.093135 161 161 161
0.307275 -0.311752 0.093110 160 160 160
0.309186 -0.309742 0.093071 159 159 159
0.311054 -0.307647 0.093027 159 159 159
0.312924 -0.305551 0.092984 159 159 159
0.314730 -0.303328 0.092933 159 159 159
0.316475 -0.300982 0.092875 160 160 160
0.318222 -0.298633 0.092817 160 160 160
0.319929 -0.296203 0.092755 162 162 162
0.321448 -0.293397 0.092672 162 162 162
0.322968 -0.290588 0.092589 162 162 162
0.324539 -0.287871 0.092511 163 163 163
0.326246 -0.285415 0.092447 163 163 163
0.327931 -0.282908 0.092381 164 164 164
0.329593 -0.280352 0.092313 164 164 164
0.331278 -0.277833 0.092246 165 165 165
0.333151 -0.275685 0.092200 166 166 166
0.334887 -0.273258 0.092139 167 167 167
0.336654 -0.270887 0.092080 168 168 168
0.338408 -0.268484 0.092021 168 168 168
0.340209 -0.266170 0.091966 168 168 168
0.342085 -0.264004 0.091919 169 169 169
0.343956 -0.261822 0.091872 169 169 169
0.345828 -0.259638 0.091824 170 170 170
0.347733 -0.257517 0.091780 170 170 170
0.349760 -0.255641 0.091750 171 171 171
0.351794 -0.253776 0.091720 171 171 171
0.353829 -0.251910 0.091690 171 171 171
0.355859 -0.250030 0.091660 172 172 172
0.357696 -0.247751 0.091607 172 172 172
0.359566 -0.245536 0.091558 172 172 172
0.361447 -0.243337 0.091510 172 172 172
0.363386 -0.241255 0.091469 172 172 172
0.365326 -0.239171 0.091427 171 171 171
0.367270 -0.237092 0.091386 171 171 171
0.369219 -0.235020 0.091345 169 169 169
0.371247 -0.233108 0.091313 169 169 169
0.373471 -0.231605 0.091304 168 168 168
0.375695 -0.230102 0.091295 168 168 168
0.377729 -0.228198 0.091263 168 168 168
0.379646 -0.226041 0.091218 167 167 167
0.381565 -0.223883 0.091173 167 167 167
0.383484 -0.221724 0.091127 167 167 167
0.385406 -0.219563 0.091082 166 166 166
0.387406 -0.217567 0.091046 164 164 164
0.389494 -0.215756 0.091020 163 163 163
0.391791 -0.214395 0.091018 163 163 163
0.394055 -0.212959 0.091013 163 163 163
0.396241 -0.211355 0.090998 164 164 164
0.398356 -0.209596 0.090975 163 163 163
0.400473 -0.207837 0.090952 163 163 163
0.402590 -0.206078 0.090929 163 163 163
0.404717 -0.204339 0.090907 162 162 162
0.406491 -0.201820 0.090842 163 163 163
0.407930 -0.198559 0.090737 163 163 163
0.409611 -0.195823 0.090661 163 163 163
0.411295 -0.193084 0.090585 163 163 163
0.412802 -0.189946 0.090488 161 161 161
0.413923 -0.185940 0.090343 161 161 161
0.415266 -0.182413 0.090224 159 159 159
0.416477 -0.178582 0.090090 158 158 158
0.417660 -0.174672 0.089950 156 156 156
0.418935 -0.170955 0.089822 154 154 154
0.419935 -0.166605 0.089660 152 152 152
0.421044 -0.162485 0.089510 152 152 152
0.422205 -0.158467 0.089365 148 148 148
0.423293 -0.154269 0.089212 142 142 142
0.424152 -0.149535 0.089029 141 141 141
0.424706 -0.144083 0.088808 149 149 149
0.425326 -0.138761 0.088594 150 150 150
0.426161 -0.133910 0.088406 151 151 151
0.426998 -0.129046 0.088217 152 152 152
0.428033 -0.124617 0.088052 153 153 153
0.429009 -0.120038 0.087879 154 154 154
0.429989 -0.115447 0.087706 155 155 155
0.430664 -0.110128 0.087494 158 158 158
0.431343 -0.104798 0.087281 159 159 159
0.431314 -0.097786 0.086978 162 162 162
0.431066 -0.090226 0.086646 166 166 166
0.430111 -0.080966 0.086224 167 167 167
0.429416 -0.072276 0.085832 167 167 167
0.428772 -0.063665 0.085445 169 169 169
0.428476 -0.055840 0.085101 171 171 171
0.428287 -0.048236 0.084768 173 173 173
0.428425 -0.041376 0.084476 175 175 175
0.428696 -0.034806 0.084200 176 176 176
0.428934 -0.028126 0.083918 177 177 177
0.429236 -0.021569 0.083643 177 177 177
0.429408 -0.014671 0.083350 178 178 178
0.429551 -0.007669 0.083052 180 180 180
0.429545 -0.000274 0.082733 180 180 180
0.429150 0.008104 0.082363 179 179 179
0.429094 0.015693 0.082034 179 179 179
0.429455 0.022295 0.081759 179 179 179
0.429628 0.029389 0.081458 180 180 180
0.429325 0.037692 0.081093 180 180 180
0.427168 0.050620 0.080482 181 181 181
0.425189 0.063171 0.079892 181 181 181
0.424002 0.073819 0.079404 183 183 183
0.422183 0.086096 0.078830 189 189 189
-0.340028 -0.286867 0.072957 100 100 100
-0.327735 -0.297584 0.073740 138 138 138
-0.310842 -0.314144 0.074897 138 138 138
-0.303266 -0.319021 0.075304 138 138 138
-0.296948 -0.322335 0.075610 138 138 138
-0.291573 -0.324472 0.075840 138 138 138
-0.207116 -0.427034 0.082493 138 138 138
-0.198072 -0.434078 0.083033 142 142 142
-0.192803 -0.436343 0.083266 145 145 145
-0.188338 -0.437597 0.083434 146 146 146
-0.183884 -0.438848 0.083603 147 147 147
-0.180564 -0.438653 0.083678 148 148 148
-0.177510 -0.438123 0.083732 147 147 147
-0.174459 -0.437593 0.083787 146 146 146
-0.171246 -0.437274 0.083854 145 145 145
-0.167822 -0.437232 0.083939 143 143 143
-0.164470 -0.437104 0.084019 140 140 140
-0.161122 -0.436977 0.084098 138 138 138
-0.157491 -0.437221 0.084201 138 138 138
-0.153341 -0.438149 0.084347 138 138 138
-0.149172 -0.439113 0.084495 138 138 138
-0.145028 -0.440053 0.084642 138 138 138
-0.140809 -0.441101 0.084795 138 138 138
-0.136274 -0.442576 0.084975 138 138 138
-0.131281 -0.444666 0.085194 138 138 138
-0.125969 -0.447191 0.085439 138 138 138
-0.120669 -0.449718 0.085685 138 138 138
-0.115584 -0.451975 0.085913 138 138 138
-0.111232 -0.453273 0.086081 138 138 138
-0.107296 -0.454029 0.086214 138 138 138
-0.103777 -0.454236 0.086313 138 138 138
-0.100268 -0.454437 0.086410 138 138 138
-0.096799 -0.454590 0.086505 138 138 138
-0.093369 -0.454699 0.086597 138 138 138
-0.089959 -0.454785 0.086687 138 138 138
-0.086599 -0.454810 0.086774 138 138 138
-0.083092 -0.455041 0.086873 138 138 138
-0.079421 -0.455500 0.086986 138 138 138
-0.075792 -0.455909 0.087096 138 138 138
-0.072122 -0.456382 0.087210 138 138 138
-0.068448 -0.456868 0.087325 138 138 138
-0.064781 -0.457354 0.087439 138 138 138
-0.061070 -0.457905 0.087558 138 138 138
-0.057394 -0.458418 0.087674 138 138 138
-0.053416 -0.459353 0.087816 138 138 138
-0.049289 -0.460503 0.087971 138 138 138
-0.045319 -0.461448 0.088113 138 138 138
-0.041363 -0.462383 0.088255 138 138 138
-0.037180 -0.463642 0.088417 138 138 138
-0.033148 -0.464704 0.088566 138 138 138
-0.029402 -0.465376 0.088690 138 138 138
-0.025662 -0.466048 0.088815 138 138 138
-0.022054 -0.466545 0.088928 138 138 138
-0.018587 -0.466852 0.089030 138 138 138
-0.015234 -0.467006 0.089122 138 138 138
-0.012074 -0.466894 0.089197 138 138 138
-0.009048 -0.466599 0.089261 138 138 138
-0.006037 -0.466288 0.089323 138 138 138
-0.003358 -0.465509 0.089357 138 138 138
-0.000728 -0.464664 0.089387 141 141 141
0.001902 -0.463821 0.089416 144 144 144
0.004553 -0.463009 0.089448 146 146 146
0.007201 -0.462196 0.089480 147 147 147
0.009848 -0.461383 0.089511 149 149 149
0.012469 -0.460536 0.089540 150 150 150
0.014967 -0.459513 0.089559 152 152 152
0.017194 -0.458102 0.089553 153 153 153
0.019351 -0.456588 0.089541 154 154 154
0.021508 -0.455073 0.089530 156 156 156
0.023656 -0.453546 0.089517 157 157 157
0.025718 -0.451892 0.089497 157 157 157
0.027688 -0.450102 0.089468 158 158 158
0.029659 -0.448312 0.089439 157 157 157
0.031631 -0.446521 0.089411 156 156 156
0.033589 -0.444707 0.089380 155 155 155
0.035644 -0.443035 0.089359 154 154 154
0.038141 -0.442011 0.089378 155 155 155
0.040638 -0.440989 0.089396 155 155 155
0.043079 -0.439886 0.089409 156 156 156
0.045504 -0.438760 0.089421 156 156 156
0.048176 -0.438002 0.089456 155 155 155
0.051168 -0.437723 0.089520 153 153 153
0.054233 -0.437556 0.089590 151 151 151
0.057339 -0.437458 0.089665 149 149 149
0.060595 -0.437589 0.089753 147 147 147
0.063910 -0.437817 0.089847 145 145 145
0.067312 -0.438181 0.089950 142 142 142
0.070817 -0.438708 0.090062 139 139 139
0.074414 -0.439383 0.090183 138 138 138
0.077999 -0.440048 0.090303 140 140 140
0.081576 -0.440712 0.090423 142 142 142
0.085147 -0.441373 0.090543 145 145 145
0.088316 -0.441430 0.090626 146 146 146
0.091451 -0.441442 0.090706 147 147 147
0.094429 -0.441217 0.090771 147 147 147
0.097403 -0.440993 0.090837 148 148 148
0.100052 -0.440272 0.090873 149 149 149
0.102635 -0.439452 0.090902 150 150 150
0.105186 -0.438584 0.090929 151 151 151
0.107725 -0.437701 0.090954 152 152 152
0.110258 -0.436810 0.090979 153 153 153
0.112681 -0.435749 0.090994 153 153 153
0.115059 -0.434619 0.091005 154 154 154
0.117375 -0.433393 0.091010 157 157 157
0.119721 -0.432214 0.091018 157 157 157
0.122115 -0.431111 0.091030 158 158 158
0.124377 -0.429801 0.091030 159 159 159
0.126615 -0.428453 0.091027 160 160 160
0.128919 -0.427210 0.091031 161 161 161
0.131222 -0.425965 0.091035 162 162 162
0.133521 -0.424715 0.091038 163 163 163
0.135670 -0.423225 0.091027 164 164 164
0.137748 -0.421622 0.091010 164 164 164
0.139828 -0.420019 0.090992 165 165 165
0.141876 -0.418365 0.090971 168 168 168
0.143855 -0.416598 0.090944 167 167 167
0.145699 -0.414611 0.090903 168 168 168
0.147544 -0.412623 0.090863 168 168 168
0.149388 -0.410631 0.090822 168 168 168
0.151264 -0.408686 0.090784 168 168 168
0.153156 -0.406764 0.090747 168 168 168
0.155048 -0.404841 0.090711 168 168 168
0.156956 -0.402940 0.090676 167 167 167
0.158899 -0.401094 0.090644 167 167 167
0.160901 -0.399343 0.090618 167 167 167
0.162959 -0.397681 0.090597 166 166 166
0.164978 -0.395955 0.090572 165 165 165
0.167043 -0.394300 0.090552 165 165 165
0.169216 -0.392825 0.090542 165 165 165
0.171412 -0.391385 0.090535 165 165 165
0.173743 -0.390171 0.090540 164 164 164
0.176105 -0.389009 0.090549 164 164 164
0.178488 -0.387882 0.090560 164 164 164
0.180931 -0.386857 0.090577 164 164 164
0.183383 -0.385850 0.090595 164 164 164
0.185827 -0.384829 0.090612 165 165 165
0.188256 -0.383783 0.090628 165 165 165
0.190536 -0.382489 0.090629 166 166 166
0.192909 -0.381351 0.090639 166 166 166
0.195285 -0.380218 0.090650 166 166 166
0.197579 -0.378948 0.090652 167 167 167
0.199851 -0.377640 0.090652 167 167 167
0.202168 -0.376409 0.090657 167 167 167
0.204538 -0.375270 0.090667 167 167 167
0.206900 -0.374117 0.090676 168 168 168
0.209262 -0.372966 0.090686 168 168 168
0.211550 -0.371686 0.090687 166 166 166
0.213937 -0.370578 0.090699 165 165 165
0.216354 -0.369525 0.090714 165 165 165
0.218771 -0.368472 0.090729 165 165 165
0.221198 -0.367437 0.090745 165 165 165
0.223580 -0.366325 0.090757 165 165 165
0.225832 -0.364986 0.090755 165 165 165
0.228083 -0.363646 0.090754 165 165 165
0.230336 -0.362308 0.090752 166 166 166
0.232613 -0.361013 0.090753 166 166 166
0.234726 -0.359429 0.090737 166 166 166
0.236803 -0.357778 0.090717 165 165 165
0.238885 -0.356134 0.090698 165 165 165
0.240944 -0.354450 0.090676 164 164 164
0.242940 -0.352649 0.090647 164 164 164
0.244950 -0.350872 0.090620 164 164 164
0.246971 -0.349112 0.090594 164 164 164
0.248993 -0.347352 0.090568 164 164 164
0.251010 -0.345581 0.090541 164 164 164
0.253020 -0.343795 0.090514 164 164 164
0.255118 -0.342165 0.090495 164 164 164
0.257251 -0.340598 0.090481 164 164 164
0.259459 -0.339167 0.090474 164 164 164
0.261668 -0.337737 0.090467 164 164 164
0.263854 -0.336263 0.090458 164 164 164
0.266077 -0.334857 0.090452 164 164 164
0.268311 -0.333472 0.090448 164 164 164
0.270545 -0.332086 0.090444 164 164 164
0.272776 -0.330694 0.090439 164 164 164
0.275156 -0.329577 0.090451 163 163 163
0.277561 -0.328507 0.090465 163 163 163
0.279992 -0.327487 0.090481 162 162 162
0.282451 -0.326522 0.090502 162 162 162
0.284843 -0.325431 0.090514 162 162 162
0.287170 -0.324222 0.090520 161 161 161
0.289555 -0.323120 0.090532 161 161 161
0.291939 -0.322019 0.090544 161 161 161
0.294323 -0.320919 0.090557 161 161 161
0.296550 -0.319520 0.090552 160 160 160
0.298679 -0.317938 0.090536 160 160 160
0.300810 -0.316357 0.090521 160 160 160
0.302946 -0.314784 0.090506 160 160 160
0.305074 -0.313193 0.090490 160 160 160
0.307015 -0.311244 0.090453 159 159 159
0.308948 -0.309275 0.090416 158 158 158
0.310816 -0.307180 0.090371 158 158 158
0.312620 -0.304954 0.090319 158 158 158
0.314393 -0.302666 0.090263 158 158 158
0.316137 -0.300316 0.090204 159 159 159
0.317885 -0.297967 0.090146 159 159 159
0.319622 -0.295593 0.090085 160 160 160
0.321174 -0.292852 0.090004 161 161 161
0.322699 -0.290050 0.089920 162 162 162
0.324403 -0.287593 0.089855 162 162 162
0.326110 -0.285135 0.089790 163 163 163
0.327810 -0.282659 0.089724 163 163 163
0.329473 -0.280103 0.089654 164 164 164
0.331262 -0.277790 0.089598 165 165 165
0.333136 -0.275643 0.089551 165 165 165
0.334937 -0.273344 0.089496 166 166 166
0.336699 -0.270964 0.089436 167 167 167
0.338479 -0.268614 0.089378 168 168 168
0.340353 -0.266448 0.089330 168 168 168
0.342235 -0.264294 0.089283 168 168 168
0.344106 -0.262113 0.089235 169 169 169
0.345978 -0.259929 0.089186 169 169 169
0.347987 -0.258021 0.089153 168 168 168
0.350074 -0.256266 0.089129 168 168 168
0.352142 -0.254473 0.089103 171 171 171
0.354207 -0.252670 0.089076 171 171 171
0.356258 -0.250835 0.089047 172 172 172
0.358171 -0.248715 0.089003 172 172 172
0.360043 -0.246507 0.088953 172 172 172
0.361918 -0.244297 0.088904 172 172 172
0.363790 -0.242080 0.088854 172 172 172
0.365730 -0.239997 0.088811 172 172 172
0.367679 -0.237931 0.088770 169 169 169
0.369627 -0.235856 0.088728 169 169 169
0.371575 -0.233780 0.088686 168 168 168
0.373788 -0.232257 0.088676 168 168 168
0.375965 -0.230655 0.088660 167 167 167
0.377817 -0.228367 0.088607 167 167 167
0.379733 -0.226207 0.088560 167 167 167
0.381651 -0.224050 0.088514 167 167 167
0.383571 -0.221890 0.088468 166 166 166
0.385521 -0.219791 0.088425 164 164 164
0.387467 -0.217681 0.088382 163 163 163
0.389460 -0.215665 0.088344 162 162 162
0.391793 -0.214380 0.088347 161 161 161
0.394112 -0.213063 0.088348 162 162 162
0.396300 -0.211463 0.088333 162 162 162
0.398444 -0.209768 0.088313 162 162 162
0.400561 -0.208009 0.088289 161 161 161
0.402678 -0.206250 0.088265 161 161 161
0.404675 -0.204225 0.088227 161 161 161
0.406353 -0.201497 0.088150 161 161 161
0.407917 -0.198510 0.088058 162 162 162
0.409582 -0.195738 0.087979 161 161 161
0.411046 -0.192513 0.087874 159 159 159
0.412425 -0.189089 0.087758 158 158 158
0.413680 -0.185377 0.087627 157 157 157
0.414889 -0.181551 0.087490 157 157 157
0.416101 -0.177717 0.087352 156 156 156
0.417287 -0.173811 0.087210 153 153 153
0.418202 -0.169282 0.087034 151 151 151
0.419011 -0.164498 0.086844 148 148 148
0.419958 -0.160006 0.086671 147 147 147
0.420995 -0.155699 0.086508 145 145 145
0.422012 -0.151334 0.086342 141 141 141
0.422613 -0.146000 0.086123 147 147 147
0.423187 -0.140585 0.085899 148 148 148
0.423937 -0.135551 0.085697 149 149 149
0.424875 -0.130928 0.085517 149 149 149
0.425991 -0.126697 0.085360 150 150 150
0.427067 -0.122358 0.085196 151 151 151
0.428145 -0.118008 0.085032 152 152 152
0.429103 -0.113360 0.084852 153 153 153
0.429765 -0.108006 0.084634 154 154 154
0.430339 -0.102422 0.084403 159 159 159
0.430070 -0.094841 0.084063 163 163 163
0.429852 -0.087345 0.083727 166 166 166
0.429191 -0.078768 0.083334 167 167 167
0.428413 -0.069875 0.082923 167 167 167
0.428154 -0.062171 0.082578 169 169 169
0.427951 -0.054563 0.082238 171 171 171
0.428125 -0.047818 0.081946 173 173 173
0.428465 -0.041442 0.081674 175 175 175
0.428807 -0.035040 0.081401 175 175 175
0.429112 -0.028521 0.081122 176 176 176
0.429414 -0.021968 0.080842 177 177 177
0.429595 -0.015090 0.080544 177 177 177
0.429783 -0.008200 0.080246 179 179 179
0.429831 -0.000938 0.079928 180 180 180
0.429791 0.006574 0.079597 178 178 178
0.429324 0.015165 0.079207 178 178 178
0.429748 0.021611 0.078934 178 178 178
0.430073 0.028330 0.078647 179 179 179
0.429330 0.037715 0.078216 179 179 179
0.427293 0.050344 0.077609 180 180 180
0.425484 0.062475 0.077030 181 181 181
0.424320 0.073063 0.076535 183 183 183
0.422783 0.084637 0.075987 186 186 186
-0.337503 -0.290058 0.070183 100 100 100
-0.326765 -0.298826 0.070855 138 138 138
-0.313338 -0.311023 0.071749 138 138 138
-0.305313 -0.316461 0.072201 138 138 138
-0.299091 -0.319647 0.072505 138 138 138
-0.292627 -0.323159 0.072830 138 138 138
-0.204728 -0.430087 0.079903 138 138 138
-0.196976 -0.435493 0.080346 140 140 140
-0.192407 -0.436870 0.080526 143 143 143
-0.187547 -0.438629 0.080731 147 147 147
-0.183494 -0.439367 0.080869 149 149 149
-0.180293 -0.439022 0.080936 148 148 148
-0.177239 -0.438492 0.080991 148 148 148
-0.174230 -0.437908 0.081043 147 147 147
-0.171380 -0.437122 0.081082 145 145 145
-0.168344 -0.436578 0.081136 143 143 143
-0.165011 -0.436423 0.081215 141 141 141
-0.161661 -0.436295 0.081296 138 138 138
-0.157761 -0.436890 0.081424 138 138 138
-0.153838 -0.437521 0.081554 138 138 138
-0.149603 -0.438569 0.081711 138 138 138
-0.145407 -0.439576 0.081864 138 138 138
-0.141186 -0.440626 0.082021 138 138 138
-0.136749 -0.441971 0.082196 138 138 138
-0.132196 -0.443479 0.082382 138 138 138
-0.127102 -0.445713 0.082614 138 138 138
-0.121796 -0.448244 0.082865 138 138 138
-0.116504 -0.450773 0.083115 138 138 138
-0.111977 -0.452301 0.083301 138 138 138
-0.107781 -0.453401 0.083459 138 138 138
-0.104260 -0.453610 0.083560 138 138 138
-0.100687 -0.453895 0.083665 138 138 138
-0.097294 -0.453944 0.083755 138 138 138
-0.093869 -0.454044 0.083848 138 138 138
-0.090451 -0.454140 0.083941 138 138 138
-0.087119 -0.454126 0.084027 138 138 138
-0.083756 -0.454160 0.084115 138 138 138
-0.080075 -0.454630 0.084232 138 138 138
-0.076371 -0.455140 0.084350 138 138 138
-0.072607 -0.455740 0.084475 138 138 138
-0.068881 -0.456295 0.084596 138 138 138
-0.065162 -0.456849 0.084717 138 138 138
-0.061380 -0.457497 0.084844 138 138 138
-0.057617 -0.458128 0.084970 138 138 138
-0.053588 -0.459133 0.085120 138 138 138
-0.049460 -0.460284 0.085278 138 138 138
-0.045581 -0.461103 0.085415 138 138 138
-0.041718 -0.461907 0.085551 138 138 138
-0.037802 -0.462796 0.085693 138 138 138
-0.033830 -0.463771 0.085839 138 138 138
-0.030110 -0.464405 0.085964 138 138 138
-0.026419 -0.465006 0.086087 138 138 138
-0.022769 -0.465560 0.086206 138 138 138
-0.019301 -0.465866 0.086309 138 138 138
-0.015946 -0.466020 0.086403 138 138 138
-0.012644 -0.466106 0.086493 138 138 138
-0.009616 -0.465812 0.086558 138 138 138
-0.006613 -0.465487 0.086621 138 138 138
-0.003791 -0.464909 0.086668 138 138 138
-0.001115 -0.464128 0.086703 139 139 139
0.001560 -0.463348 0.086737 142 142 142
0.004211 -0.462534 0.086769 144 144 144
0.006860 -0.461721 0.086801 146 146 146
0.009497 -0.460895 0.086832 147 147 147
0.012133 -0.460066 0.086863 149 149 149
0.014710 -0.459156 0.086889 150 150 150
0.016855 -0.457625 0.086876 152 152 152
0.019000 -0.456093 0.086863 153 153 153
0.021145 -0.454561 0.086850 155 155 155
0.023325 -0.453078 0.086840 156 156 156
0.025655 -0.451813 0.086843 158 158 158
0.027634 -0.450036 0.086815 158 158 158
0.029593 -0.448227 0.086785 158 158 158
0.031550 -0.446414 0.086754 157 157 157
0.033518 -0.444615 0.086724 155 155 155
0.035830 -0.443320 0.086726 156 156 156
0.038263 -0.442202 0.086739 156 156 156
0.040689 -0.441076 0.086751 157 157 157
0.043115 -0.439950 0.086763 157 157 157
0.045613 -0.438932 0.086782 157 157 157
0.048292 -0.438185 0.086818 156 156 156
0.051284 -0.437906 0.086883 154 154 154
0.054273 -0.437628 0.086948 152 152 152
0.057312 -0.437428 0.087018 150 150 150
0.060632 -0.437656 0.087114 149 149 149
0.063948 -0.437883 0.087210 147 147 147
0.067262 -0.438116 0.087307 144 144 144
0.070784 -0.438669 0.087423 141 141 141
0.074347 -0.439292 0.087543 140 140 140
0.077915 -0.439932 0.087664 140 140 140
0.081494 -0.440596 0.087786 142 142 142
0.084920 -0.441037 0.087895 145 145 145
0.088073 -0.441068 0.087978 145 145 145
0.091221 -0.441098 0.088061 146 146 146
0.094365 -0.441129 0.088144 147 147 147
0.097300 -0.440843 0.088207 147 147 147
0.099885 -0.440022 0.088237 148 148 148
0.102468 -0.439202 0.088267 149 149 149
0.105034 -0.438357 0.088296 150 150 150
0.107574 -0.437474 0.088322 151 151 151
0.110101 -0.436573 0.088347 152 152 152
0.112578 -0.435595 0.088367 153 153 153
0.114956 -0.434465 0.088378 154 154 154
0.117334 -0.433335 0.088389 154 154 154
0.119711 -0.432205 0.088400 155 155 155
0.122073 -0.431052 0.088409 158 158 158
0.124364 -0.429788 0.088412 159 159 159
0.126669 -0.428545 0.088416 160 160 160
0.128973 -0.427302 0.088420 161 161 161
0.131273 -0.426053 0.088423 162 162 162
0.133572 -0.424803 0.088427 163 163 163
0.135790 -0.423422 0.088422 163 163 163
0.137868 -0.421819 0.088404 164 164 164
0.139943 -0.420209 0.088386 166 166 166
0.141976 -0.418531 0.088363 166 166 166
0.144014 -0.416859 0.088341 166 166 166
0.145971 -0.415055 0.088310 167 167 167
0.147816 -0.413067 0.088269 167 167 167
0.149632 -0.411031 0.088225 167 167 167
0.151494 -0.409064 0.088185 168 168 168
0.153421 -0.407200 0.088151 168 168 168
0.155348 -0.405335 0.088117 168 168 168
0.157245 -0.403417 0.088080 168 168 168
0.159178 -0.401555 0.088047 167 167 167
0.161204 -0.399844 0.088023 167 167 167
0.163223 -0.398120 0.087998 166 166 166
0.165243 -0.396394 0.087973 166 166 166
0.167315 -0.394753 0.087953 165 165 165
0.169500 -0.393298 0.087944 165 165 165
0.171695 -0.391858 0.087936 165 165 165
0.173974 -0.390558 0.087937 165 165 165
0.176336 -0.389397 0.087946 164 164 164
0.178698 -0.388236 0.087955 164 164 164
0.181151 -0.387228 0.087973 164 164 164
0.183621 -0.386251 0.087993 164 164 164
0.186094 -0.385280 0.088014 165 165 165
0.188540 -0.384265 0.088032 165 165 165
0.190886 -0.383083 0.088040 166 166 166
0.193262 -0.381950 0.088050 166 166 166
0.195637 -0.380818 0.088061 167 167 167
0.197949 -0.379580 0.088065 167 167 167
0.200220 -0.378272 0.088065 167 167 167
0.202600 -0.377149 0.088077 167 167 167
0.204968 -0.376008 0.088087 167 167 167
0.207329 -0.374856 0.088096 168 168 168
0.209690 -0.373704 0.088106 168 168 168
0.212099 -0.372635 0.088120 169 169 169
0.214457 -0.371479 0.088129 169 169 169
0.216729 -0.370176 0.088130 167 167 167
0.219078 -0.369005 0.088138 166 166 166
0.221499 -0.367961 0.088154 166 166 166
0.223787 -0.366687 0.088156 166 166 166
0.226054 -0.365375 0.088156 166 166 166
0.228331 -0.364080 0.088157 166 166 166
0.230607 -0.362785 0.088158 166 166 166
0.232862 -0.361451 0.088156 167 167 167
0.234865 -0.359672 0.088128 167 167 167
0.236925 -0.357993 0.088106 166 166 166
0.239003 -0.356342 0.088086 166 166 166
0.241069 -0.354671 0.088065 166 166 166
0.243078 -0.352894 0.088037 166 166 166
0.245068 -0.351081 0.088007 165 165 165
0.247075 -0.349297 0.087979 165 165 165
0.249097 -0.347537 0.087953 165 165 165
0.251117 -0.345771 0.087926 164 164 164
0.253180 -0.344082 0.087903 164 164 164
0.255278 -0.342452 0.087885 164 164 164
0.257376 -0.340823 0.087866 164 164 164
0.259508 -0.339252 0.087851 164 164 164
0.261716 -0.337821 0.087844 164 164 164
0.263879 -0.336306 0.087832 164 164 164
0.266103 -0.334901 0.087826 164 164 164
0.268337 -0.333515 0.087822 164 164 164
0.270571 -0.332129 0.087818 164 164 164
0.272909 -0.330935 0.087825 163 163 163
0.275342 -0.329916 0.087842 163 163 163
0.277774 -0.328897 0.087859 163 163 163
0.280178 -0.327828 0.087873 163 163 163
0.282627 -0.326845 0.087893 162 162 162
0.284922 -0.325573 0.087895 162 162 162
0.287184 -0.324241 0.087894 162 162 162
0.289487 -0.322986 0.087897 161 161 161
0.291872 -0.321885 0.087910 161 161 161
0.294226 -0.320728 0.087919 161 161 161
0.296423 -0.319273 0.087910 160 160 160
0.298553 -0.317691 0.087895 160 160 160
0.300684 -0.316108 0.087879 160 160 160
0.302815 -0.314525 0.087863 159 159 159
0.304818 -0.312695 0.087833 159 159 159
0.306757 -0.310741 0.087795 158 158 158
0.308698 -0.308786 0.087758 157 157 157
0.310510 -0.306580 0.087706 157 157 157
0.312300 -0.304327 0.087651 157 157 157
0.314053 -0.301998 0.087592 157 157 157
0.315799 -0.299650 0.087532 158 158 158
0.317547 -0.297300 0.087472 158 158 158
0.319292 -0.294939 0.087411 159 159 159
0.320901 -0.292307 0.087335 161 161 161
0.322561 -0.289769 0.087264 161 161 161
0.324267 -0.287314 0.087198 162 162 162
0.325974 -0.284856 0.087132 162 162 162
0.327683 -0.282397 0.087066 163 163 163
0.329374 -0.279894 0.086997 163 163 163
0.331246 -0.277748 0.086950 164 164 164
0.333121 -0.275601 0.086902 164 164 164
0.334986 -0.273430 0.086853 165 165 165
0.336742 -0.271038 0.086791 166 166 166
0.338593 -0.268830 0.086740 167 167 167
0.340498 -0.266727 0.086695 167 167 167
0.342386 -0.264585 0.086648 168 168 168
0.344256 -0.262403 0.086598 168 168 168
0.346180 -0.260327 0.086555 168 168 168
0.348217 -0.258474 0.086525 167 167 167
0.350261 -0.256635 0.086495 167 167 167
0.352418 -0.255024 0.086479 168 168 168
0.354502 -0.253260 0.086454 170 170 170
0.356567 -0.251456 0.086426 171 171 171
0.358495 -0.249369 0.086382 171 171 171
0.360424 -0.247277 0.086339 171 171 171
0.362353 -0.245184 0.086295 172 172 172
0.364269 -0.243059 0.086249 172 172 172
0.366138 -0.240830 0.086197 172 172 172
0.368087 -0.238766 0.086155 169 169 169
0.370034 -0.236692 0.086113 168 168 168
0.371982 -0.234617 0.086070 168 168 168
0.374106 -0.232908 0.086048 167 167 167
0.376092 -0.230907 0.086010 167 167 167
0.377945 -0.228620 0.085955 167 167 167
0.379819 -0.226373 0.085903 167 167 167
0.381737 -0.224216 0.085856 167 167 167
0.383647 -0.222034 0.085808 166 166 166
0.385603 -0.219949 0.085765 163 163 163
0.387503 -0.217738 0.085715 162 162 162
0.389425 -0.215572 0.085667 161 161 161
0.391759 -0.214288 0.085670 160 160 160
0.394006 -0.212816 0.085662 159 159 159
0.396176 -0.211175 0.085645 159 159 159
0.398345 -0.209533 0.085628 159 159 159
0.400516 -0.207891 0.085610 159 159 159
0.402687 -0.206249 0.085593 158 158 158
0.404426 -0.203659 0.085522 159 159 159
0.406140 -0.201009 0.085447 160 160 160
0.407763 -0.198152 0.085361 160 160 160
0.409193 -0.194858 0.085250 157 157 157
0.410590 -0.191483 0.085135 153 153 153
0.411810 -0.187702 0.084997 155 155 155
0.412918 -0.183661 0.084845 155 155 155
0.413986 -0.179514 0.084686 154 154 154
0.415056 -0.175358 0.084527 153 153 153
0.415953 -0.170796 0.084346 150 150 150
0.416759 -0.166014 0.084152 146 146 146
0.417365 -0.160762 0.083933 144 144 144
0.418501 -0.156687 0.083779 144 144 144
0.419639 -0.152602 0.083625 144 144 144
0.420524 -0.147926 0.083439 145 145 145
0.421095 -0.142515 0.083211 145 145 145
0.421714 -0.137192 0.082988 146 146 146
0.422781 -0.132874 0.082822 147 147 147
0.423901 -0.128663 0.082662 149 149 149
0.425044 -0.124488 0.082504 150 150 150
0.426149 -0.120211 0.082341 151 151 151
0.427257 -0.115923 0.082178 153 153 153
0.428149 -0.111117 0.081985 153 153 153
0.428800 -0.105729 0.081760 155 155 155
0.429060 -0.099407 0.081483 161 161 161
0.429164 -0.092689 0.081185 163 163 163
0.428865 -0.084995 0.080832 165 165 165
0.428209 -0.076425 0.080431 167 167 167
0.427439 -0.067544 0.080012 168 168 168
0.427536 -0.060675 0.079707 170 170 170
0.427426 -0.053285 0.079372 171 171 171
0.427962 -0.047399 0.079122 173 173 173
0.428543 -0.041596 0.078877 174 174 174
0.428892 -0.035212 0.078600 175 175 175
0.429287 -0.028912 0.078327 176 176 176
0.429593 -0.022366 0.078042 176 176 176
0.429785 -0.015517 0.077739 177 177 177
0.429969 -0.008618 0.077435 179 179 179
0.430081 -0.001513 0.077119 177 177 177
0.430119 0.005807 0.076791 177 177 177
0.429615 0.014488 0.076389 177 177 177
0.429971 0.021099 0.076102 178 178 178
0.430155 0.028162 0.075790 178 178 178
0.429170 0.038144 0.075316 178 178 178
0.427318 0.050320 0.074722 179 179 179
0.425809 0.061706 0.074173 181 181 181
0.424375 0.072964 0.073630 182 182 182
0.422677 0.084938 0.073049 185 185 185
-0.336893 -0.290846 0.067257 138 138 138
-0.326504 -0.299178 0.067912 138 138 138
-0.315851 -0.307882 0.068592 138 138 138
-0.307076 -0.314260 0.069115 138 138 138
-0.301218 -0.316980 0.069395 138 138 138
-0.294448 -0.320874 0.069751 138 138 138
-0.202356 -0.433120 0.077318 138 138 138
-0.195914 -0.436866 0.077660 139 139 139
-0.191411 -0.438161 0.077838 140 140 140
-0.186774 -0.439637 0.078028 148 148 148
-0.183138 -0.439844 0.078133 150 150 150
-0.180021 -0.439391 0.078195 149 149 149
-0.177068 -0.438732 0.078243 148 148 148
-0.174129 -0.438057 0.078290 148 148 148
-0.171352 -0.437177 0.078323 146 146 146
-0.168475 -0.436428 0.078364 143 143 143
-0.165376 -0.435970 0.078425 140 140 140
-0.162191 -0.435627 0.078494 139 139 139
-0.158308 -0.436197 0.078622 138 138 138
-0.154449 -0.436744 0.078749 138 138 138
-0.150157 -0.437865 0.078914 138 138 138
-0.145813 -0.439064 0.079083 138 138 138
-0.141563 -0.440150 0.079245 138 138 138
-0.137223 -0.441366 0.079416 138 138 138
-0.132660 -0.442886 0.079606 138 138 138
-0.128122 -0.444385 0.079794 138 138 138
-0.122999 -0.446670 0.080034 138 138 138
-0.117606 -0.449329 0.080298 138 138 138
-0.112631 -0.451450 0.080526 138 138 138
-0.108340 -0.452674 0.080696 138 138 138
-0.104511 -0.453293 0.080825 138 138 138
-0.101105 -0.453352 0.080918 138 138 138
-0.097712 -0.453402 0.081010 138 138 138
-0.094323 -0.453451 0.081101 138 138 138
-0.090953 -0.453481 0.081192 138 138 138
-0.087640 -0.453441 0.081277 138 138 138
-0.084323 -0.453411 0.081364 138 138 138
-0.080738 -0.453750 0.081474 138 138 138
-0.076959 -0.454359 0.081601 138 138 138
-0.073048 -0.455156 0.081741 138 138 138
-0.069249 -0.455809 0.081871 138 138 138
-0.065529 -0.456363 0.081995 138 138 138
-0.061690 -0.457089 0.082130 138 138 138
-0.057875 -0.457791 0.082262 138 138 138
-0.053767 -0.458903 0.082422 138 138 138
-0.049713 -0.459951 0.082577 138 138 138
-0.045842 -0.460757 0.082716 138 138 138
-0.041983 -0.461556 0.082854 138 138 138
-0.038134 -0.462351 0.082992 138 138 138
-0.034590 -0.462730 0.083103 138 138 138
-0.030882 -0.463345 0.083229 138 138 138
-0.027189 -0.463947 0.083355 138 138 138
-0.023530 -0.464510 0.083477 138 138 138
-0.020105 -0.464753 0.083578 138 138 138
-0.016686 -0.464995 0.083680 138 138 138
-0.013307 -0.465188 0.083778 138 138 138
-0.010188 -0.465019 0.083853 138 138 138
-0.007189 -0.464686 0.083917 138 138 138
-0.004226 -0.464308 0.083977 138 138 138
-0.001548 -0.463527 0.084012 138 138 138
0.001128 -0.462746 0.084047 140 140 140
0.003737 -0.461872 0.084076 143 143 143
0.006355 -0.461013 0.084106 143 143 143
0.008983 -0.460170 0.084137 144 144 144
0.011619 -0.459342 0.084169 146 146 146
0.014204 -0.458442 0.084196 149 149 149
0.016441 -0.457041 0.084191 151 151 151
0.018586 -0.455509 0.084177 152 152 152
0.020821 -0.454104 0.084172 154 154 154
0.023120 -0.452792 0.084173 156 156 156
0.025475 -0.451563 0.084179 158 158 158
0.027613 -0.450017 0.084165 159 159 159
0.029572 -0.448208 0.084134 159 159 159
0.031532 -0.446399 0.084103 158 158 158
0.033563 -0.444693 0.084078 158 158 158
0.035919 -0.443461 0.084084 158 158 158
0.038299 -0.442266 0.084092 158 158 158
0.040725 -0.441140 0.084105 159 159 159
0.043150 -0.440014 0.084117 159 159 159
0.045763 -0.439166 0.084148 158 158 158
0.048428 -0.438398 0.084183 157 157 157
0.051400 -0.438089 0.084247 156 156 156
0.054389 -0.437811 0.084313 154 154 154
0.057390 -0.437555 0.084381 152 152 152
0.060514 -0.437489 0.084460 151 151 151
0.063880 -0.437792 0.084563 149 149 149
0.067264 -0.438128 0.084668 146 146 146
0.070751 -0.438628 0.084783 145 145 145
0.074305 -0.439238 0.084905 144 144 144
0.077853 -0.439846 0.085026 142 142 142
0.081411 -0.440479 0.085149 143 143 143
0.084676 -0.440675 0.085244 144 144 144
0.087839 -0.440720 0.085330 144 144 144
0.091028 -0.440811 0.085418 145 145 145
0.094212 -0.440903 0.085507 146 146 146
0.097036 -0.440446 0.085560 147 147 147
0.099692 -0.439735 0.085598 147 147 147
0.102301 -0.438952 0.085631 148 148 148
0.104882 -0.438130 0.085662 149 149 149
0.107418 -0.437241 0.085688 150 150 150
0.109944 -0.436337 0.085713 151 151 151
0.112468 -0.435433 0.085739 153 153 153
0.114852 -0.434311 0.085750 153 153 153
0.117230 -0.433181 0.085761 153 153 153
0.119606 -0.432048 0.085772 156 156 156
0.122017 -0.430971 0.085787 157 157 157
0.124421 -0.429885 0.085800 158 158 158
0.126723 -0.428637 0.085804 159 159 159
0.129025 -0.427391 0.085808 160 160 160
0.131324 -0.426140 0.085811 161 161 161
0.133624 -0.424890 0.085815 162 162 162
0.135910 -0.423619 0.085817 163 163 163
0.137988 -0.422017 0.085799 164 164 164
0.140039 -0.420368 0.085778 166 166 166
0.142076 -0.418697 0.085755 165 165 165
0.144114 -0.417026 0.085732 165 165 165
0.146153 -0.415353 0.085710 166 166 166
0.148088 -0.413511 0.085677 166 166 166
0.149833 -0.411360 0.085624 167 167 167
0.151652 -0.409325 0.085579 167 167 167
0.153578 -0.407461 0.085545 167 167 167
0.155506 -0.405597 0.085510 168 168 168
0.157435 -0.403732 0.085476 168 168 168
0.159433 -0.401976 0.085448 167 167 167
0.161473 -0.400289 0.085425 167 167 167
0.163488 -0.398559 0.085399 167 167 167
0.165508 -0.396834 0.085374 166 166 166
0.167589 -0.395210 0.085354 166 166 166
0.169783 -0.393771 0.085347 166 166 166
0.171978 -0.392331 0.085339 165 165 165
0.174205 -0.390946 0.085334 165 165 165
0.176567 -0.389785 0.085343 165 165 165
0.178969 -0.388693 0.085357 164 164 164
0.181417 -0.387676 0.085375 164 164 164
0.183876 -0.386682 0.085394 164 164 164
0.186335 -0.385688 0.085414 164 164 164
0.188794 -0.384695 0.085433 164 164 164
0.191238 -0.383679 0.085451 166 166 166
0.193614 -0.382549 0.085463 166 166 166
0.195988 -0.381417 0.085473 167 167 167
0.198320 -0.380212 0.085480 167 167 167
0.200643 -0.378994 0.085486 167 167 167
0.203032 -0.377889 0.085498 167 167 167
0.205397 -0.376745 0.085508 167 167 167
0.207758 -0.375593 0.085518 168 168 168
0.210184 -0.374555 0.085535 168 168 168
0.212608 -0.373514 0.085551 169 169 169
0.214987 -0.372398 0.085563 169 169 169
0.217350 -0.371253 0.085573 170 170 170
0.219684 -0.370059 0.085580 169 169 169
0.221888 -0.368639 0.085573 168 168 168
0.224050 -0.367145 0.085562 167 167 167
0.226326 -0.365851 0.085563 167 167 167
0.228602 -0.364555 0.085564 167 167 167
0.230878 -0.363261 0.085564 167 167 167
0.233017 -0.361724 0.085551 168 168 168
0.235012 -0.359932 0.085521 167 167 167
0.237047 -0.358208 0.085496 167 167 167
0.239125 -0.356557 0.085476 166 166 166
0.241185 -0.354876 0.085453 167 167 167
0.243256 -0.353210 0.085432 167 167 167
0.245272 -0.351443 0.085404 166 166 166
0.247264 -0.349634 0.085374 166 166 166
0.249258 -0.347823 0.085344 165 165 165
0.251260 -0.346026 0.085314 165 165 165
0.253295 -0.344286 0.085288 165 165 165
0.255398 -0.342666 0.085270 165 165 165
0.257502 -0.341048 0.085251 165 165 165
0.259607 -0.339429 0.085233 165 165 165
0.261742 -0.337864 0.085218 165 165 165
0.263905 -0.336349 0.085206 164 164 164
0.266129 -0.334944 0.085200 164 164 164
0.268367 -0.333565 0.085196 164 164 164
0.270654 -0.332276 0.085198 164 164 164
0.273066 -0.331220 0.085213 163 163 163
0.275499 -0.330201 0.085231 163 163 163
0.277931 -0.329183 0.085248 163 163 163
0.280362 -0.328166 0.085266 163 163 163
0.282748 -0.327064 0.085279 163 163 163
0.285003 -0.325718 0.085277 162 162 162
0.287262 -0.324382 0.085275 162 162 162
0.289525 -0.323051 0.085274 162 162 162
0.291804 -0.321752 0.085275 161 161 161
0.294102 -0.320487 0.085278 161 161 161
0.296296 -0.319025 0.085269 160 160 160
0.298426 -0.317443 0.085253 160 160 160
0.300548 -0.315843 0.085235 160 160 160
0.302629 -0.314163 0.085213 158 158 158
0.304568 -0.312209 0.085175 158 158 158
0.306501 -0.310241 0.085136 157 157 157
0.308372 -0.308153 0.085090 157 157 157
0.310189 -0.305954 0.085038 157 157 157
0.311965 -0.303672 0.084980 157 157 157
0.313698 -0.301300 0.084917 157 157 157
0.315427 -0.298918 0.084854 157 157 157
0.317181 -0.296579 0.084793 158 158 158
0.318937 -0.294238 0.084733 158 158 158
0.320652 -0.291810 0.084667 160 160 160
0.322375 -0.289394 0.084602 159 159 159
0.324101 -0.286977 0.084537 161 161 161
0.325828 -0.284558 0.084472 161 161 161
0.327541 -0.282105 0.084405 161 161 161
0.329358 -0.279853 0.084350 163 163 163
0.331231 -0.277706 0.084301 163 163 163
0.333105 -0.275558 0.084252 164 164 164
0.334981 -0.273409 0.084204 164 164 164
0.336785 -0.271113 0.084146 165 165 165
0.338706 -0.269045 0.084102 166 166 166
0.340643 -0.267006 0.084060 167 167 167
0.342535 -0.264875 0.084013 167 167 167
0.344406 -0.262693 0.083962 168 168 168
0.346429 -0.260819 0.083930 167 167 167
0.348446 -0.258928 0.083897 167 167 167
0.350464 -0.257036 0.083864 167 167 167
0.352605 -0.255392 0.083845 167 167 167
0.354763 -0.253782 0.083828 168 168 168
0.356791 -0.251902 0.083796 169 169 169
0.358716 -0.249808 0.083751 171 171 171
0.360644 -0.247717 0.083706 171 171 171
0.362573 -0.245624 0.083661 171 171 171
0.364504 -0.243531 0.083617 172 172 172
0.366430 -0.241424 0.083571 169 169 169
0.368351 -0.239300 0.083525 169 169 169
0.370371 -0.237382 0.083490 168 168 168
0.372388 -0.235453 0.083455 168 168 168
0.374369 -0.233445 0.083416 167 167 167
0.376220 -0.231160 0.083360 167 167 167
0.378073 -0.228873 0.083304 167 167 167
0.379927 -0.226584 0.083249 167 167 167
0.381824 -0.224382 0.083198 169 169 169
0.383740 -0.222215 0.083150 163 163 163
0.385638 -0.220006 0.083099 162 162 162
0.387538 -0.217795 0.083048 161 161 161
0.389439 -0.215582 0.082997 160 160 160
0.391725 -0.214195 0.082994 159 159 159
0.393797 -0.212344 0.082964 157 157 157
0.395936 -0.210638 0.082942 157 157 157
0.398107 -0.208995 0.082924 157 157 157
0.400278 -0.207353 0.082907 157 157 157
0.402076 -0.204896 0.082842 156 156 156
0.403577 -0.201781 0.082739 156 156 156
0.405292 -0.199128 0.082663 157 157 157
0.406799 -0.196009 0.082560 155 155 155
0.408179 -0.192600 0.082440 152 152 152
0.409397 -0.188822 0.082300 152 152 152
0.410626 -0.185053 0.082160 151 151 151
0.411659 -0.180837 0.081994 151 151 151
0.412717 -0.176662 0.081831 150 150 150
0.413736 -0.172382 0.081662 149 149 149
0.414496 -0.167505 0.081459 145 145 145
0.414770 -0.161519 0.081193 139 139 139
0.415903 -0.157443 0.081036 139 139 139
0.416882 -0.153002 0.080859 139 139 139
0.417918 -0.148676 0.080688 139 139 139
0.418797 -0.143976 0.080497 139 139 139
0.419634 -0.139160 0.080298 146 146 146
0.420824 -0.135132 0.080146 148 148 148
0.421953 -0.130952 0.079984 150 150 150
0.423085 -0.126761 0.079822 150 150 150
0.424212 -0.122543 0.079659 152 152 152
0.425317 -0.118261 0.079492 153 153 153
0.426404 -0.113918 0.079323 154 154 154
0.427183 -0.108845 0.079111 155 155 155
0.427749 -0.103253 0.078870 157 157 157
0.427957 -0.096800 0.078580 162 162 162
0.428244 -0.090505 0.078300 164 164 164
0.427733 -0.082305 0.077912 166 166 166
0.427198 -0.074012 0.077518 168 168 168
0.426582 -0.065489 0.077112 169 169 169
0.426792 -0.058883 0.076815 170 170 170
0.427178 -0.052666 0.076541 171 171 171
0.427853 -0.047109 0.076305 172 172 172
0.428520 -0.041511 0.076066 173 173 173
0.429002 -0.035446 0.075802 175 175 175
0.429464 -0.029304 0.075533 176 176 176
0.429771 -0.022764 0.075242 176 176 176
0.430029 -0.016075 0.074943 176 176 176
0.430110 -0.008927 0.074618 177 177 177
0.430116 -0.001563 0.074281 177 177 177
0.430242 0.005541 0.073959 177 177 177
0.429994 0.013593 0.073585 176 176 176
0.430193 0.020587 0.073270 177 177 177
0.429957 0.028683 0.072893 175 175 175
0.428858 0.038948 0.072395 177 177 177
0.427342 0.050295 0.071836 178 178 178
0.425818 0.061719 0.071273 180 180 180
0.424158 0.073541 0.070688 179 179 179
0.422571 0.085239 0.070111 184 184 184
-0.336284 -0.291634 0.064332 138 138 138
-0.326244 -0.299528 0.064971 138 138 138
-0.318831 -0.304153 0.065386 138 138 138
-0.309392 -0.311361 0.065976 138 138 138
-0.302832 -0.314962 0.066321 138 138 138
-0.296285 -0.318570 0.066665 138 138 138
-0.200892 -0.435001 0.074663 138 138 138
-0.194853 -0.438237 0.074977 138 138 138
-0.190354 -0.439529 0.075158 140 140 140
-0.186204 -0.440386 0.075310 145 145 145
-0.182921 -0.440142 0.075387 150 150 150
-0.179895 -0.439574 0.075442 150 150 150
-0.176968 -0.438882 0.075488 150 150 150
-0.174101 -0.438115 0.075530 148 148 148
-0.171326 -0.437232 0.075563 146 146 146
-0.168552 -0.436350 0.075597 143 143 143
-0.165507 -0.435820 0.075654 141 141 141
-0.162293 -0.435514 0.075726 139 139 139
-0.158914 -0.435428 0.075813 138 138 138
-0.155004 -0.436039 0.075947 138 138 138
-0.150654 -0.437234 0.076120 138 138 138
-0.146308 -0.438435 0.076293 138 138 138
-0.141972 -0.439632 0.076465 138 138 138
-0.137698 -0.440760 0.076633 138 138 138
-0.133143 -0.442268 0.076826 138 138 138
-0.128887 -0.443393 0.076993 138 138 138
-0.124141 -0.445178 0.077204 138 138 138
-0.118710 -0.447884 0.077477 138 138 138
-0.113177 -0.450743 0.077759 138 138 138
-0.108975 -0.451847 0.077924 138 138 138
-0.104919 -0.452766 0.078076 138 138 138
-0.101400 -0.452976 0.078180 138 138 138
-0.097885 -0.453187 0.078285 138 138 138
-0.094376 -0.453397 0.078389 138 138 138
-0.091117 -0.453279 0.078471 138 138 138
-0.088024 -0.452940 0.078539 138 138 138
-0.084842 -0.452726 0.078614 138 138 138
-0.081401 -0.452869 0.078714 138 138 138
-0.077547 -0.453578 0.078850 138 138 138
-0.073633 -0.454376 0.078993 138 138 138
-0.069728 -0.455173 0.079135 138 138 138
-0.065866 -0.455919 0.079274 138 138 138
-0.062000 -0.456680 0.079414 138 138 138
-0.058073 -0.457535 0.079559 138 138 138
-0.053971 -0.458638 0.079721 138 138 138
-0.049998 -0.459574 0.079872 138 138 138
-0.046132 -0.460373 0.080013 138 138 138
-0.042273 -0.461170 0.080154 138 138 138
-0.038469 -0.461901 0.080291 138 138 138
-0.035383 -0.461643 0.080362 138 138 138
-0.031687 -0.462239 0.080489 138 138 138
-0.027970 -0.462872 0.080619 138 138 138
-0.024348 -0.463381 0.080740 138 138 138
-0.020915 -0.463632 0.080844 138 138 138
-0.017477 -0.463898 0.080949 138 138 138
-0.014044 -0.464164 0.081054 138 138 138
-0.010774 -0.464206 0.081144 138 138 138
-0.007767 -0.463884 0.081210 138 138 138
-0.004769 -0.463552 0.081275 138 138 138
-0.001982 -0.462925 0.081321 138 138 138
0.000672 -0.462111 0.081354 139 139 139
0.003273 -0.461224 0.081383 142 142 142
0.005886 -0.460357 0.081413 143 143 143
0.008504 -0.459499 0.081443 144 144 144
0.011121 -0.458640 0.081474 144 144 144
0.013659 -0.457671 0.081497 147 147 147
0.016026 -0.456456 0.081504 150 150 150
0.018315 -0.455129 0.081504 153 153 153
0.020614 -0.453816 0.081504 155 155 155
0.022938 -0.452541 0.081507 157 157 157
0.025294 -0.451312 0.081514 158 158 158
0.027592 -0.449998 0.081514 160 160 160
0.029551 -0.448190 0.081483 160 160 160
0.031511 -0.446380 0.081451 160 160 160
0.033753 -0.444982 0.081446 159 159 159
0.036108 -0.443751 0.081452 159 159 159
0.038463 -0.442519 0.081458 160 160 160
0.040819 -0.441291 0.081464 161 161 161
0.043248 -0.440169 0.081477 160 160 160
0.045914 -0.439400 0.081513 159 159 159
0.048578 -0.438632 0.081549 158 158 158
0.051516 -0.438273 0.081611 157 157 157
0.054371 -0.437794 0.081666 154 154 154
0.057499 -0.437729 0.081747 153 153 153
0.060623 -0.437663 0.081828 152 152 152
0.063744 -0.437597 0.081909 151 151 151
0.067032 -0.437789 0.082007 149 149 149
0.070734 -0.438613 0.082145 146 146 146
0.074285 -0.439217 0.082269 145 145 145
0.077829 -0.439820 0.082392 144 144 144
0.081325 -0.440358 0.082511 143 143 143
0.084543 -0.440481 0.082604 143 143 143
0.087737 -0.440573 0.082694 144 144 144
0.090926 -0.440665 0.082784 145 145 145
0.094062 -0.440681 0.082869 146 146 146
0.096721 -0.439970 0.082908 146 146 146
0.099377 -0.439258 0.082946 147 147 147
0.102033 -0.438547 0.082984 147 147 147
0.104687 -0.437837 0.083023 148 148 148
0.107261 -0.437004 0.083053 149 149 149
0.109787 -0.436100 0.083079 150 150 150
0.112312 -0.435196 0.083105 152 152 152
0.114749 -0.434156 0.083122 153 153 153
0.117126 -0.433025 0.083133 153 153 153
0.119531 -0.431938 0.083147 155 155 155
0.121959 -0.430887 0.083164 156 156 156
0.124367 -0.429807 0.083178 157 157 157
0.126767 -0.428714 0.083192 158 158 158
0.129096 -0.427510 0.083198 160 160 160
0.131382 -0.426239 0.083201 161 161 161
0.133675 -0.424978 0.083204 162 162 162
0.135974 -0.423728 0.083207 163 163 163
0.138103 -0.422205 0.083193 164 164 164
0.140139 -0.420535 0.083170 164 164 164
0.142176 -0.418864 0.083147 164 164 164
0.144215 -0.417193 0.083124 164 164 164
0.146257 -0.415526 0.083101 165 165 165
0.148262 -0.413797 0.083075 165 165 165
0.150033 -0.411690 0.083024 166 166 166
0.151810 -0.409587 0.082974 167 167 167
0.153737 -0.407723 0.082939 167 167 167
0.155664 -0.405858 0.082904 167 167 167
0.157642 -0.404074 0.082874 167 167 167
0.159667 -0.402365 0.082849 167 167 167
0.161714 -0.400689 0.082826 167 167 167
0.163767 -0.399021 0.082803 166 166 166
0.165781 -0.397289 0.082777 166 166 166
0.167894 -0.395717 0.082760 166 166 166
0.170066 -0.394243 0.082750 166 166 166
0.172261 -0.392804 0.082742 166 166 166
0.174455 -0.391365 0.082734 165 165 165
0.176798 -0.390173 0.082742 165 165 165
0.179241 -0.389150 0.082760 164 164 164
0.181684 -0.388126 0.082778 164 164 164
0.184142 -0.387130 0.082797 164 164 164
0.186600 -0.386137 0.082817 164 164 164
0.189048 -0.385126 0.082836 164 164 164
0.191484 -0.384098 0.082854 164 164 164
0.193920 -0.383070 0.082871 165 165 165
0.196340 -0.382015 0.082887 167 167 167
0.198690 -0.380844 0.082896 167 167 167
0.201075 -0.379733 0.082908 167 167 167
0.203463 -0.378628 0.082921 167 167 167
0.205826 -0.377482 0.082931 167 167 167
0.208246 -0.376434 0.082947 168 168 168
0.210700 -0.375446 0.082967 168 168 168
0.213116 -0.374393 0.082983 169 169 169
0.215507 -0.373299 0.082997 169 169 169
0.217869 -0.372155 0.083007 170 170 170
0.220231 -0.371011 0.083017 170 170 170
0.222427 -0.369578 0.083010 170 170 170
0.224543 -0.368007 0.082993 170 170 170
0.226622 -0.366369 0.082973 168 168 168
0.228873 -0.365031 0.082971 167 167 167
0.231124 -0.363692 0.082969 168 168 168
0.233165 -0.361984 0.082945 168 168 168
0.235160 -0.360191 0.082915 168 168 168
0.237170 -0.358423 0.082886 168 168 168
0.239247 -0.356772 0.082865 167 167 167
0.241309 -0.355094 0.082843 167 167 167
0.243380 -0.353429 0.082821 167 167 167
0.245452 -0.351764 0.082799 167 167 167
0.247463 -0.349988 0.082770 167 167 167
0.249456 -0.348178 0.082739 167 167 167
0.251479 -0.346418 0.082712 166 166 166
0.253514 -0.344678 0.082685 167 167 167
0.255549 -0.342937 0.082659 167 167 167
0.257585 -0.341195 0.082633 167 167 167
0.259619 -0.339448 0.082606 167 167 167
0.261764 -0.337900 0.082591 166 166 166
0.263931 -0.336392 0.082579 165 165 165
0.266165 -0.335006 0.082575 165 165 165
0.268452 -0.333717 0.082576 164 164 164
0.270790 -0.332523 0.082584 163 163 163
0.273223 -0.331505 0.082602 163 163 163
0.275656 -0.330486 0.082620 163 163 163
0.278088 -0.329470 0.082638 163 163 163
0.280521 -0.328455 0.082656 163 163 163
0.282906 -0.327353 0.082669 163 163 163
0.285167 -0.326020 0.082668 163 163 163
0.287422 -0.324676 0.082666 162 162 162
0.289677 -0.323331 0.082664 162 162 162
0.291884 -0.321895 0.082656 161 161 161
0.293978 -0.320245 0.082635 161 161 161
0.296169 -0.318778 0.082626 160 160 160
0.298281 -0.317159 0.082607 160 160 160
0.300369 -0.315495 0.082586 158 158 158
0.302378 -0.313676 0.082555 158 158 158
0.304293 -0.311676 0.082514 157 157 157
0.306164 -0.309588 0.082467 157 157 157
0.308036 -0.307498 0.082420 157 157 157
0.309869 -0.305327 0.082368 157 157 157
0.311619 -0.302995 0.082306 157 157 157
0.313358 -0.300633 0.082243 157 157 157
0.315087 -0.298249 0.082178 157 157 157
0.316816 -0.295858 0.082113 157 157 157
0.318546 -0.293464 0.082048 158 158 158
0.320296 -0.291104 0.081985 158 158 158
0.322044 -0.288734 0.081922 158 158 158
0.323793 -0.286362 0.081858 158 158 158
0.325544 -0.283987 0.081795 159 159 159
0.327306 -0.281630 0.081732 160 160 160
0.329277 -0.279682 0.081694 161 161 161
0.331166 -0.277566 0.081647 162 162 162
0.333056 -0.275450 0.081599 163 163 163
0.334948 -0.273332 0.081551 163 163 163
0.336871 -0.271272 0.081507 164 164 164
0.338819 -0.269259 0.081465 165 165 165
0.340762 -0.267233 0.081423 166 166 166
0.342685 -0.265165 0.081378 167 167 167
0.344639 -0.263153 0.081337 167 167 167
0.346659 -0.261272 0.081304 167 167 167
0.348676 -0.259381 0.081270 166 166 166
0.350694 -0.257490 0.081236 166 166 166
0.352792 -0.255761 0.081212 167 167 167
