ply
format ascii 1.0
element vertex 1201
property float x
property float y
property float z
property uchar red
property uchar green
property uchar blue
end_header
0.191165 -0.389680 0.146471 162 162 162
0.194073 -0.388075 0.146520 160 160 160
0.196750 -0.386367 0.146561 159 159 159
0.199146 -0.384531 0.146594 160 160 160
0.201864 -0.382848 0.146636 159 159 159
0.204893 -0.381313 0.146689 157 157 157
0.208021 -0.379829 0.146744 157 157 157
0.211166 -0.378358 0.146800 157 157 157
0.214802 -0.377122 0.146872 157 157 157
0.218211 -0.375785 0.146936 157 157 157
0.221656 -0.374469 0.147002 157 157 157
0.224921 -0.373074 0.147062 158 158 158
0.228026 -0.371607 0.147117 158 158 158
0.230509 -0.369849 0.147153 160 160 160
0.232991 -0.368092 0.147189 161 161 161
0.235393 -0.366301 0.147222 161 161 161
0.237623 -0.364429 0.147250 163 163 163
0.239507 -0.362392 0.147267 163 163 163
0.241315 -0.360321 0.147282 163 163 163
0.243159 -0.358268 0.147298 164 164 164
0.245015 -0.356222 0.147315 165 165 165
0.246997 -0.354239 0.147335 164 164 164
0.248956 -0.352247 0.147355 164 164 164
0.250902 -0.350250 0.147374 164 164 164
0.252848 -0.348254 0.147394 164 164 164
0.254793 -0.346259 0.147413 164 164 164
0.256759 -0.344276 0.147433 164 164 164
0.258735 -0.342299 0.147454 166 166 166
0.260589 -0.340265 0.147470 168 168 168
0.262328 -0.338173 0.147483 169 169 169
0.264159 -0.336129 0.147499 169 169 169
0.266027 -0.334105 0.147516 169 169 169
0.267944 -0.332107 0.147535 169 169 169
0.269859 -0.330109 0.147553 169 169 169
0.271834 -0.328143 0.147574 169 169 169
0.273868 -0.326208 0.147596 170 170 170
0.276272 -0.324462 0.147630 170 170 170
0.278925 -0.322845 0.147672 171 171 171
0.281567 -0.321227 0.147714 171 171 171
0.284207 -0.319610 0.147756 171 171 171
0.286786 -0.317966 0.147796 171 171 171
0.289315 -0.316300 0.147834 171 171 171
0.291841 -0.314635 0.147872 171 171 171
0.294375 -0.312977 0.147911 171 171 171
0.296874 -0.311304 0.147948 172 172 172
0.299279 -0.309586 0.147983 172 172 172
0.301659 -0.307858 0.148016 172 172 172
0.304037 -0.306131 0.148050 172 172 172
0.306386 -0.304392 0.148083 172 172 172
0.308231 -0.302392 0.148100 172 172 172
0.310062 -0.300386 0.148116 172 172 172
0.311891 -0.298381 0.148133 172 172 172
0.313662 -0.296346 0.148147 172 172 172
0.315092 -0.294133 0.148151 172 172 172
0.316208 -0.291753 0.148145 172 172 172
0.317325 -0.289374 0.148138 172 172 172
0.318364 -0.286952 0.148130 172 172 172
0.319396 -0.284527 0.148121 171 171 171
0.320496 -0.282137 0.148114 171 171 171
0.321604 -0.279750 0.148107 171 171 171
0.322698 -0.277356 0.148100 171 171 171
0.323786 -0.274957 0.148093 170 170 170
0.324873 -0.272558 0.148086 170 170 170
0.326085 -0.270225 0.148082 169 169 169
0.327374 -0.267934 0.148082 169 169 169
0.328662 -0.265643 0.148081 169 169 169
0.330002 -0.263380 0.148082 169 169 169
0.331387 -0.261141 0.148084 169 169 169
0.332719 -0.258873 0.148084 168 168 168
0.334281 -0.256732 0.148092 168 168 168
0.335843 -0.254592 0.148100 168 168 168
0.337405 -0.252452 0.148108 168 168 168
0.339094 -0.250383 0.148120 168 168 168
0.340758 -0.248301 0.148132 168 168 168
0.342476 -0.246250 0.148145 168 168 168
0.344290 -0.244254 0.148161 169 169 169
0.346144 -0.242281 0.148178 169 169 169
0.348141 -0.240390 0.148200 169 169 169
0.350169 -0.238518 0.148224 170 170 170
0.352170 -0.236633 0.148246 171 171 171
0.354170 -0.234749 0.148268 172 172 172
0.356169 -0.232867 0.148290 173 173 173
0.358253 -0.231034 0.148315 174 174 174
0.360173 -0.229110 0.148335 174 174 174
0.362090 -0.227187 0.148355 175 175 175
0.364007 -0.225265 0.148375 175 175 175
0.365906 -0.223334 0.148394 176 176 176
0.367653 -0.221318 0.148408 177 177 177
0.369376 -0.219289 0.148422 178 178 178
0.370818 -0.217100 0.148426 179 179 179
0.371990 -0.214755 0.148421 180 180 180
0.373163 -0.212410 0.148417 180 180 180
0.374430 -0.210120 0.148416 181 181 181
0.375822 -0.207902 0.148418 181 181 181
0.377215 -0.205684 0.148421 181 181 181
0.378237 -0.203250 0.148412 182 182 182
0.379231 -0.200799 0.148402 182 182 182
0.380225 -0.198347 0.148391 182 182 182
0.381247 -0.195911 0.148382 182 182 182
0.382598 -0.193668 0.148383 182 182 182
0.384112 -0.191522 0.148390 182 182 182
0.385692 -0.189415 0.148399 182 182 182
0.387558 -0.187478 0.148417 182 182 182
0.389735 -0.185729 0.148446 181 181 181
0.391696 -0.183853 0.148467 181 181 181
0.393841 -0.182089 0.148495 181 181 181
0.396157 -0.180429 0.148528 180 180 180
0.398465 -0.178768 0.148561 181 181 181
0.400533 -0.176965 0.148586 181 181 181
0.402371 -0.175025 0.148603 181 181 181
0.404206 -0.173085 0.148621 181 181 181
0.406061 -0.171159 0.148639 181 181 181
0.407948 -0.169253 0.148658 181 181 181
0.409706 -0.167270 0.148673 182 182 182
0.411113 -0.165075 0.148677 182 182 182
0.412299 -0.162744 0.148673 182 182 182
0.413484 -0.160413 0.148669 182 182 182
0.414669 -0.158081 0.148665 182 182 182
0.415855 -0.155750 0.148661 182 182 182
0.416992 -0.153388 0.148655 181 181 181
0.417624 -0.150712 0.148633 181 181 181
0.418217 -0.148011 0.148609 181 181 181
0.418768 -0.145282 0.148584 181 181 181
0.419294 -0.142534 0.148558 181 181 181
0.419821 -0.139786 0.148533 181 181 181
0.420351 -0.137036 0.148507 181 181 181
0.420881 -0.134285 0.148481 181 181 181
0.421404 -0.131527 0.148455 181 181 181
0.421844 -0.128714 0.148426 181 181 181
0.422066 -0.125762 0.148390 180 180 180
0.422288 -0.122806 0.148353 180 180 180
0.422501 -0.119841 0.148317 180 180 180
0.422700 -0.116865 0.148280 180 180 180
0.422961 -0.113925 0.148245 180 180 180
0.423223 -0.110982 0.148209 180 180 180
0.423485 -0.108036 0.148174 179 179 179
0.423734 -0.105078 0.148139 179 179 179
0.424275 -0.102306 0.148113 179 179 179
0.424722 -0.099471 0.148084 178 178 178
0.425169 -0.096634 0.148055 178 178 178
0.425618 -0.093794 0.148025 178 178 178
0.425984 -0.090899 0.147994 178 178 178
0.426265 -0.087946 0.147959 178 178 178
0.426490 -0.084953 0.147922 177 177 177
0.426715 -0.081957 0.147885 177 177 177
0.426865 -0.078908 0.147846 178 178 178
0.427003 -0.075848 0.147806 178 178 178
0.427161 -0.072798 0.147767 178 178 178
0.427382 -0.069787 0.147730 178 178 178
0.427572 -0.066751 0.147692 178 178 178
0.427761 -0.063711 0.147654 178 178 178
0.427987 -0.060693 0.147616 178 178 178
0.428206 -0.057667 0.147579 178 178 178
0.428147 -0.054452 0.147532 178 178 178
0.428088 -0.051234 0.147486 178 178 178
0.428029 -0.048011 0.147439 177 177 177
0.427849 -0.044702 0.147388 177 177 177
0.427229 -0.041094 0.147322 177 177 177
0.426575 -0.037456 0.147254 176 176 176
0.425766 -0.033708 0.147182 175 175 175
0.424977 -0.029967 0.147110 174 174 174
0.424455 -0.026401 0.147046 173 173 173
0.424059 -0.022916 0.146988 172 172 172
0.423964 -0.019630 0.146939 171 171 171
0.423952 -0.016397 0.146893 171 171 171
0.423949 -0.013165 0.146847 170 170 170
0.424057 -0.010007 0.146806 170 170 170
0.424049 -0.006764 0.146760 170 170 170
0.423958 -0.003460 0.146711 169 169 169
0.423874 -0.000157 0.146662 169 169 169
0.423512 0.003343 0.146604 169 169 169
0.423054 0.006914 0.146542 168 168 168
0.422594 0.010493 0.146481 168 168 168
0.422008 0.014165 0.146415 168 168 168
0.421468 0.017810 0.146350 169 169 169
0.421198 0.021272 0.146295 169 169 169
0.420745 0.024867 0.146233 169 169 169
0.420415 0.028381 0.146175 169 169 169
0.420145 0.031859 0.146119 169 169 169
0.419922 0.035308 0.146065 169 169 169
0.419732 0.038738 0.146012 169 169 169
0.419527 0.042184 0.145959 169 169 169
0.419323 0.045633 0.145905 169 169 169
0.419181 0.049044 0.145854 169 169 169
0.419064 0.052441 0.145803 170 170 170
0.418968 0.055827 0.145753 170 170 170
0.419021 0.059112 0.145708 170 170 170
0.419172 0.062330 0.145666 170 170 170
0.419265 0.065594 0.145622 170 170 170
0.419272 0.068923 0.145575 171 171 171
0.419307 0.072237 0.145529 171 171 171
0.419471 0.075460 0.145488 172 172 172
0.419637 0.078686 0.145447 172 172 172
0.419565 0.082090 0.145397 172 172 172
0.419113 0.085774 0.145334 172 172 172
0.418547 0.089548 0.145267 173 173 173
0.417571 0.093627 0.145185 173 173 173
0.415779 0.098311 0.145076 173 173 173
0.413764 0.103170 0.144958 173 173 173
0.410132 0.109230 0.144784 173 173 173
0.405658 0.115927 0.144580 173 173 173
0.400921 0.122837 0.144367 172 172 172
0.395673 0.130145 0.144135 171 171 171
0.390650 0.137307 0.143912 171 171 171
0.386298 0.143988 0.143711 170 170 170
0.383409 0.149598 0.143561 170 170 170
0.380777 0.155028 0.143420 171 171 171
0.378899 0.159907 0.143306 169 169 169
0.376754 0.164996 0.143182 169 169 169
0.373454 0.170965 0.143017 170 170 170
0.366983 0.179339 0.142741 168 168 168
0.355415 0.191588 0.142285 165 165 165
0.349440 0.199645 0.142026 168 168 168
0.340729 0.209800 0.141669 172 172 172
0.328443 0.222705 0.141187 180 180 180
0.319650 0.232992 0.140827 182 182 182
0.313036 0.241650 0.140544 183 183 183
0.309379 0.248072 0.140364 183 183 183
0.306470 0.253936 0.140210 183 183 183
0.303993 0.259483 0.140071 183 183 183
0.301999 0.264670 0.139949 183 183 183
0.300104 0.269792 0.139831 182 182 182
0.298317 0.274842 0.139716 182 182 182
0.296629 0.279825 0.139604 182 182 182
0.295004 0.284770 0.139495 183 183 183
0.291998 0.290798 0.139337 185 185 185
0.286516 0.298770 0.139090 188 188 188
0.241481 0.337654 0.137442 179 179 179
0.237131 0.344850 0.137234 177 177 177
0.233119 0.351799 0.137038 175 175 175
0.229897 0.358146 0.136869 171 171 171
0.227172 0.364117 0.136719 169 169 169
0.223799 0.370613 0.136545 167 167 167
0.220467 0.377092 0.136372 167 167 167
0.213198 0.386707 0.136059 173 173 173
-0.117162 -0.450064 0.136859 128 128 128
-0.108186 -0.450432 0.137091 168 168 168
-0.101248 -0.450027 0.137261 163 163 163
-0.094604 -0.449519 0.137422 157 157 157
-0.047735 -0.464726 0.138831 157 157 157
-0.037325 -0.465763 0.139110 178 178 178
-0.028249 -0.466298 0.139347 180 180 180
-0.020603 -0.466287 0.139541 180 180 180
-0.016531 -0.464878 0.139623 180 180 180
-0.012645 -0.463402 0.139700 180 180 180
-0.009030 -0.461825 0.139768 180 180 180
-0.004751 -0.460516 0.139858 181 181 181
-0.000290 -0.459288 0.139953 180 180 180
0.003918 -0.457965 0.140040 179 179 179
0.007823 -0.456527 0.140118 175 175 175
0.011843 -0.455140 0.140199 174 174 174
0.018171 -0.454694 0.140353 170 170 170
0.022910 -0.453614 0.140457 165 165 165
0.028667 -0.452956 0.140593 160 160 160
0.034775 -0.452451 0.140740 157 157 157
0.040489 -0.451796 0.140875 155 155 155
0.045406 -0.450825 0.140986 153 153 153
0.049891 -0.449684 0.141083 152 152 152
0.056313 -0.449350 0.141240 151 151 151
0.062679 -0.449004 0.141396 151 151 151
0.068883 -0.448603 0.141548 156 156 156
0.073565 -0.447580 0.141651 160 160 160
0.077508 -0.446256 0.141732 163 163 163
0.081054 -0.444772 0.141800 163 163 163
0.084679 -0.443327 0.141870 163 163 163
0.088070 -0.441788 0.141934 166 166 166
0.090442 -0.439825 0.141965 166 166 166
0.092686 -0.437809 0.141993 167 167 167
0.094928 -0.435795 0.142020 167 167 167
0.097114 -0.433758 0.142045 168 168 168
0.098986 -0.431590 0.142061 171 171 171
0.101038 -0.429500 0.142083 171 171 171
0.103136 -0.427432 0.142105 172 172 172
0.105232 -0.425364 0.142128 173 173 173
0.107614 -0.423421 0.142160 173 173 173
0.110180 -0.421561 0.142198 173 173 173
0.113221 -0.419909 0.142251 173 173 173
0.116309 -0.418282 0.142305 172 172 172
0.120415 -0.417103 0.142392 172 172 172
0.124503 -0.415923 0.142478 171 171 171
0.128628 -0.414766 0.142566 171 171 171
0.132350 -0.413438 0.142640 170 170 170
0.135970 -0.412071 0.142712 170 170 170
0.139358 -0.410606 0.142777 168 168 168
0.142959 -0.409242 0.142848 168 168 168
0.146709 -0.407948 0.142924 168 168 168
0.150350 -0.406612 0.142996 167 167 167
0.153187 -0.404922 0.143044 166 166 166
0.156123 -0.403280 0.143094 165 165 165
0.159861 -0.402002 0.143170 165 165 165
0.163482 -0.400678 0.143242 164 164 164
0.168131 -0.399823 0.143347 165 165 165
0.172661 -0.398923 0.143449 164 164 164
0.176266 -0.397610 0.143521 165 165 165
0.179631 -0.396194 0.143585 164 164 164
0.182990 -0.394779 0.143650 165 165 165
0.185881 -0.393155 0.143699 162 162 162
0.188342 -0.391337 0.143735 162 162 162
0.191180 -0.389696 0.143783 161 161 161
0.194088 -0.388091 0.143833 159 159 159
0.196202 -0.386122 0.143858 158 158 158
0.198852 -0.384403 0.143900 158 158 158
0.201563 -0.382716 0.143944 158 158 158
0.204721 -0.381242 0.144002 154 154 154
0.207853 -0.379759 0.144060 155 155 155
0.210980 -0.378279 0.144117 155 155 155
0.214479 -0.376978 0.144187 155 155 155
0.217746 -0.375573 0.144249 155 155 155
0.221015 -0.374174 0.144311 156 156 156
0.224538 -0.372900 0.144382 157 157 157
0.227777 -0.371497 0.144443 157 157 157
0.230324 -0.369768 0.144483 158 158 158
0.232809 -0.368013 0.144520 160 160 160
0.235288 -0.366258 0.144557 160 160 160
0.237488 -0.364371 0.144585 161 161 161
0.239297 -0.362299 0.144601 162 162 162
0.241106 -0.360227 0.144616 162 162 162
0.242925 -0.358162 0.144632 163 163 163
0.244781 -0.356116 0.144649 164 164 164
0.246766 -0.354134 0.144670 163 163 163
0.248717 -0.352137 0.144691 163 163 163
0.250664 -0.350140 0.144711 163 163 163
0.252610 -0.348144 0.144731 163 163 163
0.254555 -0.346148 0.144751 163 163 163
0.256593 -0.344200 0.144774 163 163 163
0.258613 -0.342245 0.144797 165 165 165
0.260589 -0.340271 0.144818 167 167 167
0.262807 -0.338418 0.144847 167 167 167
0.264809 -0.336459 0.144869 168 168 168
0.266816 -0.334505 0.144891 168 168 168
0.268732 -0.332507 0.144910 168 168 168
0.270647 -0.330511 0.144930 168 168 168
0.272584 -0.328526 0.144950 168 168 168
0.274674 -0.326620 0.144975 169 169 169
0.277088 -0.324881 0.145010 169 169 169
0.279768 -0.323279 0.145055 170 170 170
0.282409 -0.321660 0.145098 170 170 170
0.285029 -0.320034 0.145141 171 171 171
0.287559 -0.318366 0.145180 170 170 170
0.290087 -0.316700 0.145220 170 170 170
0.292604 -0.315032 0.145259 170 170 170
0.295081 -0.313345 0.145297 170 170 170
0.297548 -0.311657 0.145335 170 170 170
0.300015 -0.309971 0.145373 171 171 171
0.302425 -0.308260 0.145409 172 172 172
0.304803 -0.306533 0.145444 172 172 172
0.306831 -0.304628 0.145467 171 171 171
0.308662 -0.302621 0.145484 172 172 172
0.310492 -0.300615 0.145501 172 172 172
0.312331 -0.298616 0.145519 172 172 172
0.314269 -0.296670 0.145539 172 172 172
0.315436 -0.294318 0.145535 172 172 172
0.316552 -0.291939 0.145528 172 172 172
0.317669 -0.289560 0.145522 172 172 172
0.318745 -0.287159 0.145514 172 172 172
0.319758 -0.284723 0.145504 172 172 172
0.320809 -0.282307 0.145495 171 171 171
0.321906 -0.279915 0.145488 171 171 171
0.322993 -0.277517 0.145480 171 171 171
0.324081 -0.275119 0.145473 170 170 170
0.325168 -0.272720 0.145465 170 170 170
0.326271 -0.270329 0.145458 170 170 170
0.327559 -0.268037 0.145457 169 169 169
0.328866 -0.265756 0.145457 169 169 169
0.330260 -0.263522 0.145460 169 169 169
0.331645 -0.261284 0.145462 169 169 169
0.333022 -0.259041 0.145464 169 169 169
0.334407 -0.256803 0.145466 168 168 168
0.335969 -0.254663 0.145475 168 168 168
0.337631 -0.252578 0.145486 168 168 168
0.339318 -0.250508 0.145499 168 168 168
0.341026 -0.248451 0.145512 168 168 168
0.342744 -0.246401 0.145526 168 168 168
0.344459 -0.244349 0.145539 169 169 169
0.346370 -0.242409 0.145559 169 169 169
0.348427 -0.240551 0.145584 169 169 169
0.350483 -0.238695 0.145609 169 169 169
0.352537 -0.236840 0.145634 169 169 169
0.354591 -0.234988 0.145659 169 169 169
0.356756 -0.233199 0.145687 170 170 170
0.358960 -0.231435 0.145717 172 172 172
0.361047 -0.229607 0.145743 173 173 173
0.362964 -0.227685 0.145764 173 173 173
0.364887 -0.225767 0.145785 174 174 174
0.366652 -0.223761 0.145800 175 175 175
0.368398 -0.221746 0.145815 175 175 175
0.370133 -0.219724 0.145829 177 177 177
0.371831 -0.217683 0.145842 178 178 178
0.373204 -0.215456 0.145844 180 180 180
0.374499 -0.213183 0.145844 180 180 180
0.375891 -0.210967 0.145847 180 180 180
0.377282 -0.208750 0.145850 180 180 180
0.378673 -0.206534 0.145852 180 180 180
0.380064 -0.204317 0.145855 181 181 181
0.381100 -0.201893 0.145846 181 181 181
0.382294 -0.199561 0.145842 181 181 181
0.383644 -0.197321 0.145844 181 181 181
0.384994 -0.195080 0.145845 181 181 181
0.386343 -0.192840 0.145846 182 182 182
0.387771 -0.190646 0.145851 182 182 182
0.389658 -0.188725 0.145870 181 181 181
0.391604 -0.186840 0.145892 181 181 181
0.393527 -0.184944 0.145913 180 180 180
0.395684 -0.183189 0.145942 180 180 180
0.397997 -0.181531 0.145976 180 180 180
0.400204 -0.179811 0.146007 180 180 180
0.402161 -0.177943 0.146029 180 180 180
0.404119 -0.176078 0.146051 181 181 181
0.405972 -0.174151 0.146070 181 181 181
0.407820 -0.172223 0.146089 181 181 181
0.409559 -0.170230 0.146104 181 181 181
0.411055 -0.168090 0.146110 181 181 181
0.412551 -0.165950 0.146117 181 181 181
0.413911 -0.163729 0.146119 181 181 181
0.415096 -0.161399 0.146115 181 181 181
0.416281 -0.159069 0.146111 182 182 182
0.417404 -0.156701 0.146105 181 181 181
0.418213 -0.154139 0.146088 181 181 181
0.419002 -0.151562 0.146070 181 181 181
0.419596 -0.148863 0.146045 181 181 181
0.420127 -0.146123 0.146019 181 181 181
0.420653 -0.143378 0.145992 181 181 181
0.421167 -0.140623 0.145965 180 180 180
0.421638 -0.137839 0.145936 180 180 180
0.422091 -0.135041 0.145907 180 180 180
0.422522 -0.132227 0.145876 180 180 180
0.422954 -0.129411 0.145846 180 180 180
0.423320 -0.126550 0.145814 180 180 180
0.423543 -0.123597 0.145776 180 180 180
0.423753 -0.120632 0.145738 180 180 180
0.423948 -0.117654 0.145699 180 180 180
0.424170 -0.114691 0.145662 180 180 180
0.424432 -0.111750 0.145625 180 180 180
0.424692 -0.108804 0.145589 179 179 179
0.424865 -0.105800 0.145549 179 179 179
0.425139 -0.102857 0.145513 178 178 178
0.425586 -0.100023 0.145483 178 178 178
0.426034 -0.097187 0.145453 178 178 178
0.426483 -0.094349 0.145423 178 178 178
0.426909 -0.091494 0.145392 178 178 178
0.427175 -0.088532 0.145356 177 177 177
0.427400 -0.085541 0.145317 177 177 177
0.427588 -0.082522 0.145278 177 177 177
0.427832 -0.079536 0.145241 177 177 177
0.427998 -0.076496 0.145200 177 177 177
0.428157 -0.073448 0.145160 177 177 177
0.428316 -0.070396 0.145119 177 177 177
0.428533 -0.067380 0.145081 178 178 178
0.428722 -0.064341 0.145041 178 178 178
0.428954 -0.061328 0.145003 178 178 178
0.429204 -0.058324 0.144965 178 178 178
0.429301 -0.055215 0.144922 178 178 178
0.429244 -0.051999 0.144874 178 178 178
0.429026 -0.048671 0.144820 177 177 177
0.428903 -0.045402 0.144769 176 176 176
0.428322 -0.041821 0.144702 175 175 175
0.427389 -0.037997 0.144622 175 175 175
0.426377 -0.034113 0.144540 175 175 175
0.425548 -0.030346 0.144464 174 174 174
0.424972 -0.026745 0.144397 173 173 173
0.424470 -0.023188 0.144332 172 172 172
0.424303 -0.019853 0.144279 171 171 171
0.424291 -0.016620 0.144231 171 171 171
0.424278 -0.013383 0.144184 171 171 171
0.424315 -0.010175 0.144138 170 170 170
0.424240 -0.006887 0.144088 170 170 170
0.424050 -0.003515 0.144034 169 169 169
0.423817 -0.000109 0.143978 169 169 169
0.423363 0.003455 0.143914 169 169 169
0.422903 0.007028 0.143851 168 168 168
0.422443 0.010607 0.143787 168 168 168
0.421893 0.014254 0.143719 168 168 168
0.421463 0.017823 0.143656 168 168 168
0.421193 0.021285 0.143599 168 168 168
0.420837 0.024812 0.143538 168 168 168
0.420565 0.028286 0.143481 168 168 168
0.420208 0.031824 0.143420 169 169 169
0.419865 0.035357 0.143360 169 169 169
0.419664 0.038796 0.143304 169 169 169
0.419462 0.042240 0.143249 169 169 169
0.419260 0.045689 0.143193 169 169 169
0.419135 0.049087 0.143140 169 169 169
0.419040 0.052469 0.143089 169 169 169
0.418944 0.055856 0.143037 170 170 170
0.418923 0.059193 0.142987 170 170 170
0.419074 0.062411 0.142944 170 170 170
0.419225 0.065633 0.142901 170 170 170
0.419390 0.068849 0.142858 171 171 171
0.419569 0.072059 0.142816 171 171 171
0.419724 0.075288 0.142772 171 171 171
0.419880 0.078522 0.142729 171 171 171
0.419978 0.081801 0.142683 172 172 172
0.419412 0.085568 0.142614 172 172 172
0.418847 0.089340 0.142545 172 172 172
0.418299 0.093106 0.142476 172 172 172
0.416509 0.097788 0.142362 172 172 172
0.414132 0.102912 0.142227 172 172 172
0.410183 0.109205 0.142035 173 173 173
0.405632 0.115959 0.141821 173 173 173
0.400593 0.123093 0.141589 172 172 172
0.395502 0.130285 0.141355 171 171 171
0.390467 0.137456 0.141123 170 170 170
0.386145 0.144116 0.140916 169 169 169
0.383024 0.149898 0.140753 169 169 169
0.380531 0.155226 0.140612 168 168 168
0.378433 0.160269 0.140485 168 168 168
0.375946 0.165616 0.140344 168 168 168
0.372025 0.172054 0.140150 167 167 167
0.363695 0.181831 0.139796 167 167 167
0.353065 0.193377 0.139359 163 163 163
0.346322 0.202019 0.139061 167 167 167
0.338863 0.211230 0.138738 172 172 172
0.330169 0.221408 0.138369 177 177 177
0.321741 0.231415 0.138009 184 184 184
0.315366 0.239888 0.137724 182 182 182
0.312176 0.245948 0.137555 183 183 183
0.308668 0.252267 0.137374 183 183 183
0.306210 0.257796 0.137231 183 183 183
0.304062 0.263099 0.137099 182 182 182
0.302176 0.268211 0.136976 182 182 182
0.300473 0.273192 0.136860 182 182 182
0.298842 0.278127 0.136747 182 182 182
0.297128 0.283138 0.136630 182 182 182
0.294510 0.288862 0.136480 184 184 184
0.291239 0.295107 0.136306 186 186 186
0.242577 0.336816 0.134465 180 180 180
0.238219 0.344016 0.134249 178 178 178
0.234101 0.351047 0.134042 176 176 176
0.229819 0.358226 0.133829 171 171 171
0.226063 0.365009 0.133634 169 169 169
0.222685 0.371510 0.133454 167 167 167
0.218845 0.378394 0.133256 165 165 165
0.208742 0.390257 0.132827 173 173 173
0.184670 0.413248 0.131881 139 139 139
-0.114083 -0.451268 0.134026 172 172 172
-0.107071 -0.450880 0.134204 167 167 167
-0.100554 -0.450312 0.134366 164 164 164
-0.093879 -0.449817 0.134533 158 158 158
-0.043808 -0.466274 0.136095 160 160 160
-0.032129 -0.467813 0.136424 178 178 178
-0.023513 -0.468173 0.136655 178 178 178
-0.017835 -0.467391 0.136792 178 178 178
-0.014211 -0.465809 0.136863 178 178 178
-0.010594 -0.464229 0.136934 179 179 179
-0.006953 -0.462664 0.137006 179 179 179
-0.002504 -0.461426 0.137104 178 178 178
0.002011 -0.460222 0.137204 177 177 177
0.005855 -0.458755 0.137282 176 176 176
0.010139 -0.457472 0.137375 174 174 174
0.014370 -0.456173 0.137466 171 171 171
0.018679 -0.454913 0.137560 167 167 167
0.022979 -0.453656 0.137654 163 163 163
0.027394 -0.452452 0.137751 159 159 159
0.033026 -0.451752 0.137888 153 153 153
0.038759 -0.451103 0.138029 150 150 150
0.043682 -0.450132 0.138143 148 148 148
0.048777 -0.449239 0.138263 146 146 146
0.055039 -0.448837 0.138421 146 146 146
0.061410 -0.448492 0.138583 147 147 147
0.067791 -0.448162 0.138745 154 154 154
0.073597 -0.447606 0.138889 155 155 155
0.077508 -0.446269 0.138971 161 161 161
0.081140 -0.444821 0.139044 162 162 162
0.084765 -0.443375 0.139117 162 162 162
0.087990 -0.441767 0.139178 165 165 165
0.090620 -0.439912 0.139218 167 167 167
0.092864 -0.437896 0.139247 167 167 167
0.095106 -0.435882 0.139275 168 168 168
0.097176 -0.433797 0.139298 170 170 170
0.099615 -0.431871 0.139332 171 171 171
0.101736 -0.429811 0.139357 173 173 173
0.103828 -0.427740 0.139380 174 174 174
0.106102 -0.425750 0.139410 174 174 174
0.108548 -0.423836 0.139445 174 174 174
0.110991 -0.421924 0.139480 173 173 173
0.114020 -0.420268 0.139534 173 173 173
0.117863 -0.418970 0.139615 173 173 173
0.122031 -0.417820 0.139707 172 172 172
0.126188 -0.416672 0.139799 172 172 172
0.129785 -0.415285 0.139872 171 171 171
0.133337 -0.413883 0.139944 170 170 170
0.136688 -0.412398 0.140009 168 168 168
0.140202 -0.410991 0.140080 168 168 168
0.143793 -0.409622 0.140153 168 168 168
0.147540 -0.408328 0.140232 167 167 167
0.150775 -0.406812 0.140294 166 166 166
0.154015 -0.405303 0.140356 165 165 165
0.157008 -0.403687 0.140410 164 164 164
0.160461 -0.402282 0.140479 163 163 163
0.163828 -0.400844 0.140546 163 163 163
0.168225 -0.399876 0.140646 163 163 163
0.172541 -0.398879 0.140744 159 159 159
0.176322 -0.397646 0.140825 161 161 161
0.180076 -0.396406 0.140904 162 162 162
0.183381 -0.394967 0.140969 163 163 163
0.186016 -0.393226 0.141012 161 161 161
0.188477 -0.391408 0.141049 160 160 160
0.191196 -0.389712 0.141094 160 160 160
0.193827 -0.387979 0.141137 158 158 158
0.195882 -0.385982 0.141161 157 157 157
0.198189 -0.384104 0.141193 157 157 157
0.200901 -0.382417 0.141238 157 157 157
0.204175 -0.380995 0.141303 151 151 151
0.207638 -0.379667 0.141373 152 152 152
0.210812 -0.378209 0.141434 153 153 153
0.214157 -0.376835 0.141501 153 153 153
0.217280 -0.375362 0.141561 154 154 154
0.220375 -0.373879 0.141620 155 155 155
0.223898 -0.372605 0.141693 156 156 156
0.227030 -0.371150 0.141753 156 156 156
0.229747 -0.369501 0.141799 157 157 157
0.232398 -0.367824 0.141843 157 157 157
0.235046 -0.366149 0.141887 157 157 157
0.237194 -0.364238 0.141914 159 159 159
0.239067 -0.362195 0.141933 160 160 160
0.240897 -0.360134 0.141949 161 161 161
0.242705 -0.358063 0.141965 162 162 162
0.244547 -0.356009 0.141983 162 162 162
0.246525 -0.354024 0.142004 162 162 162
0.248477 -0.352027 0.142025 162 162 162
0.250426 -0.350030 0.142046 162 162 162
0.252373 -0.348034 0.142067 162 162 162
0.254363 -0.346060 0.142089 162 162 162
0.256427 -0.344125 0.142114 163 163 163
0.258485 -0.342188 0.142139 163 163 163
0.260461 -0.340214 0.142161 165 165 165
0.262724 -0.338382 0.142192 166 166 166
0.265135 -0.336628 0.142229 166 166 166
0.267181 -0.334693 0.142253 166 166 166
0.269226 -0.332760 0.142278 166 166 166
0.271270 -0.330829 0.142302 167 167 167
0.273312 -0.328898 0.142326 167 167 167
0.275634 -0.327110 0.142360 168 168 168
0.277959 -0.325327 0.142394 168 168 168
0.280543 -0.323677 0.142437 169 169 169
0.283250 -0.322093 0.142484 170 170 170
0.285799 -0.320432 0.142525 170 170 170
0.288304 -0.318752 0.142566 170 170 170
0.290806 -0.317073 0.142606 170 170 170
0.293306 -0.315397 0.142646 170 170 170
0.295690 -0.313663 0.142682 170 170 170
0.298172 -0.311983 0.142722 170 170 170
0.300651 -0.310305 0.142761 170 170 170
0.303128 -0.308628 0.142801 170 170 170
0.305430 -0.306864 0.142834 171 171 171
0.307342 -0.304898 0.142855 171 171 171
0.309284 -0.302951 0.142876 171 171 171
0.311224 -0.301003 0.142898 171 171 171
0.313164 -0.299057 0.142919 171 171 171
0.314635 -0.296866 0.142924 171 171 171
0.315958 -0.294597 0.142925 172 172 172
0.316959 -0.292158 0.142914 172 172 172
0.318012 -0.289745 0.142905 172 172 172
0.319127 -0.287365 0.142898 172 172 172
0.320139 -0.284930 0.142888 172 172 172
0.321131 -0.282482 0.142877 171 171 171
0.322189 -0.280070 0.142868 171 171 171
0.323285 -0.277677 0.142861 171 171 171
0.324376 -0.275281 0.142853 170 170 170
0.325464 -0.272882 0.142845 170 170 170
0.326551 -0.270483 0.142838 170 170 170
0.327745 -0.268141 0.142833 170 170 170
0.329132 -0.265904 0.142836 170 170 170
0.330517 -0.263665 0.142838 169 169 169
0.331902 -0.261427 0.142841 169 169 169
0.333286 -0.259188 0.142843 169 169 169
0.334581 -0.256901 0.142842 169 169 169
0.336107 -0.254741 0.142850 168 168 168
0.337879 -0.252717 0.142866 168 168 168
0.339570 -0.250650 0.142879 169 169 169
0.341294 -0.248602 0.142893 168 168 168
0.343012 -0.246551 0.142907 168 168 168
0.344719 -0.244496 0.142920 169 169 169
0.346686 -0.242587 0.142943 169 169 169
0.348752 -0.240735 0.142969 169 169 169
0.350816 -0.238884 0.142995 169 169 169
0.352879 -0.237034 0.143021 169 169 169
0.354950 -0.235191 0.143048 169 169 169
0.357186 -0.233443 0.143080 169 169 169
0.359463 -0.231721 0.143114 170 170 170
0.361738 -0.230001 0.143147 171 171 171
0.363836 -0.228182 0.143175 172 172 172
0.365651 -0.226204 0.143192 173 173 173
0.367398 -0.224188 0.143207 174 174 174
0.369143 -0.222173 0.143223 175 175 175
0.370889 -0.220159 0.143238 175 175 175
0.372586 -0.218119 0.143252 177 177 177
0.374278 -0.216076 0.143265 178 178 178
0.375744 -0.213903 0.143271 179 179 179
0.377134 -0.211688 0.143274 179 179 179
0.378525 -0.209472 0.143276 179 179 179
0.379915 -0.207257 0.143279 180 180 180
0.381305 -0.205042 0.143282 180 180 180
0.382927 -0.202962 0.143293 180 180 180
0.384303 -0.200740 0.143296 180 180 180
0.385660 -0.198506 0.143298 181 181 181
0.387018 -0.196273 0.143299 181 181 181
0.388375 -0.194040 0.143301 181 181 181
0.389740 -0.191811 0.143303 181 181 181
0.391521 -0.189829 0.143320 181 181 181
0.393433 -0.187928 0.143341 180 180 180
0.395355 -0.186033 0.143363 180 180 180
0.397523 -0.184288 0.143393 180 180 180
0.399748 -0.182578 0.143426 180 180 180
0.401704 -0.180711 0.143449 179 179 179
0.403659 -0.178844 0.143472 179 179 179
0.405613 -0.176978 0.143495 179 179 179
0.407569 -0.175115 0.143518 180 180 180
0.409412 -0.173186 0.143537 180 180 180
0.410908 -0.171047 0.143544 180 180 180
0.412403 -0.168909 0.143550 180 180 180
0.413898 -0.166770 0.143557 180 180 180
0.415389 -0.164630 0.143564 181 181 181
0.416706 -0.162384 0.143565 181 181 181
0.417791 -0.159995 0.143557 181 181 181
0.418640 -0.157460 0.143541 181 181 181
0.419432 -0.154889 0.143523 181 181 181
0.420225 -0.152316 0.143504 181 181 181
0.420947 -0.149698 0.143484 180 180 180
0.421398 -0.146910 0.143453 180 180 180
0.421849 -0.144120 0.143423 180 180 180
0.422326 -0.141343 0.143393 179 179 179
0.422728 -0.138518 0.143361 179 179 179
0.423205 -0.135736 0.143332 180 180 180
0.423637 -0.132924 0.143300 180 180 180
0.424069 -0.130109 0.143269 180 180 180
0.424501 -0.127293 0.143238 180 180 180
0.424796 -0.124386 0.143202 180 180 180
0.425005 -0.121422 0.143162 180 180 180
0.425200 -0.118446 0.143122 180 180 180
0.425395 -0.115467 0.143082 180 180 180
0.425577 -0.112477 0.143042 179 179 179
0.425754 -0.109480 0.143001 179 179 179
0.425914 -0.106468 0.142960 179 179 179
0.426056 -0.103442 0.142918 178 178 178
0.426449 -0.100575 0.142885 178 178 178
0.426898 -0.097740 0.142854 177 177 177
0.427347 -0.094904 0.142822 177 177 177
0.427750 -0.092035 0.142790 177 177 177
0.427987 -0.089055 0.142751 177 177 177
0.428178 -0.086042 0.142710 176 176 176
0.428386 -0.083037 0.142670 176 176 176
0.428604 -0.080036 0.142630 176 176 176
0.428895 -0.077079 0.142593 177 177 177
0.429145 -0.074091 0.142555 177 177 177
0.429312 -0.071047 0.142513 177 177 177
0.429471 -0.067993 0.142471 177 177 177
0.429682 -0.064971 0.142431 177 177 177
0.429920 -0.061963 0.142391 177 177 177
0.430169 -0.058960 0.142353 178 178 178
0.430275 -0.055857 0.142308 177 177 177
0.430021 -0.052511 0.142251 177 177 177
0.429847 -0.049214 0.142197 176 176 176
0.429727 -0.045948 0.142144 175 175 175
0.429070 -0.042317 0.142072 175 175 175
0.428061 -0.038443 0.141987 175 175 175
0.427049 -0.034560 0.141902 175 175 175
0.426137 -0.030737 0.141820 174 174 174
0.425543 -0.027124 0.141750 173 173 173
0.424967 -0.023517 0.141680 172 172 172
0.424642 -0.020076 0.141619 171 171 171
0.424630 -0.016844 0.141570 171 171 171
0.424585 -0.013584 0.141520 170 170 170
0.424483 -0.010282 0.141467 170 170 170
0.424340 -0.006947 0.141413 169 169 169
0.424033 -0.003494 0.141353 169 169 169
0.423686 -0.000010 0.141291 169 169 169
0.423262 0.003534 0.141226 169 169 169
0.422767 0.007131 0.141159 168 168 168
0.422292 0.010721 0.141092 168 168 168
0.421778 0.014343 0.141024 168 168 168
0.421457 0.017836 0.140962 168 168 168
0.421186 0.021299 0.140903 168 168 168
0.420901 0.024777 0.140843 168 168 168
0.420535 0.028317 0.140780 169 169 169
0.420179 0.031855 0.140717 169 169 169
0.419821 0.035399 0.140654 169 169 169
0.419590 0.038859 0.140595 169 169 169
0.419388 0.042303 0.140538 169 169 169
0.419131 0.045790 0.140479 170 170 170
0.418971 0.049215 0.140423 170 170 170
0.418916 0.052568 0.140370 170 170 170
0.418862 0.055925 0.140318 170 170 170
0.418853 0.059254 0.140268 170 170 170
0.419073 0.062424 0.140225 170 170 170
0.419293 0.065596 0.140183 170 170 170
0.419514 0.068771 0.140141 170 170 170
0.419716 0.071964 0.140098 171 171 171
0.419872 0.075193 0.140053 171 171 171
0.419979 0.078461 0.140006 171 171 171
0.420072 0.081745 0.139959 171 171 171
0.419710 0.085363 0.139895 171 171 171
0.419152 0.089130 0.139823 171 171 171
0.418606 0.092893 0.139752 172 172 172
0.417112 0.097359 0.139645 172 172 172
0.414090 0.102955 0.139482 171 171 171
0.410300 0.109132 0.139289 172 172 172
0.405439 0.116115 0.139056 171 171 171
0.400235 0.123370 0.138810 171 171 171
0.395242 0.130491 0.138571 170 170 170
0.390006 0.137811 0.138323 169 169 169
0.385992 0.144243 0.138121 168 168 168
0.382640 0.150199 0.137943 168 168 168
0.379981 0.155651 0.137790 167 167 167
0.377625 0.160889 0.137649 167 167 167
0.375135 0.166239 0.137503 167 167 167
0.370646 0.173105 0.137282 164 164 164
0.359430 0.185061 0.136807 164 164 164
0.350175 0.195575 0.136405 163 163 163
0.343621 0.204078 0.136105 166 166 166
0.336743 0.212853 0.135792 172 172 172
0.330565 0.221122 0.135505 175 175 175
0.323840 0.229832 0.135197 181 181 181
0.317710 0.238113 0.134911 181 181 181
0.314138 0.244463 0.134721 182 182 182
0.311282 0.250279 0.134559 182 182 182
0.308351 0.256168 0.134393 182 182 182
0.306030 0.261600 0.134250 182 182 182
0.304183 0.266679 0.134124 181 181 181
0.302412 0.271710 0.134002 181 181 181
0.301124 0.276377 0.133898 182 182 182
0.299204 0.281544 0.133769 182 182 182
0.296977 0.286960 0.133629 182 182 182
0.293888 0.293060 0.133455 184 184 184
0.243838 0.335849 0.131497 191 191 191
0.239307 0.343183 0.131267 179 179 179
0.235104 0.350279 0.131049 177 177 177
0.229782 0.358273 0.130789 173 173 173
0.224962 0.365894 0.130547 169 169 169
0.221373 0.372565 0.130352 165 165 165
0.214723 0.381672 0.130040 163 163 163
0.202821 0.394967 0.129527 171 171 171
0.190420 0.408702 0.128995 189 189 189
-0.112903 -0.451740 0.131137 168 168 168
-0.105512 -0.451499 0.131333 167 167 167
-0.099012 -0.450927 0.131500 163 163 163
-0.092285 -0.450454 0.131675 158 158 158
-0.038151 -0.468498 0.133424 165 165 165
-0.027939 -0.469469 0.133716 175 175 175
-0.020677 -0.469301 0.133910 174 174 174
-0.016084 -0.468096 0.134016 175 175 175
-0.012159 -0.466635 0.134099 177 177 177
-0.008527 -0.465063 0.134173 178 178 178
-0.004762 -0.463550 0.134251 178 178 178
-0.000260 -0.462335 0.134354 176 176 176
0.003853 -0.460972 0.134444 175 175 175
0.007593 -0.459466 0.134522 174 174 174
0.011327 -0.457963 0.134600 173 173 173
0.014785 -0.456355 0.134668 171 171 171
0.018243 -0.454751 0.134737 168 168 168
0.022445 -0.453453 0.134830 163 163 163
0.026911 -0.452270 0.134933 160 160 160
0.031819 -0.451273 0.135050 153 153 153
0.037101 -0.450438 0.135180 145 145 145
0.042312 -0.449583 0.135308 143 143 143
0.047507 -0.448731 0.135435 143 143 143
0.053806 -0.448342 0.135600 141 141 141
0.060152 -0.447985 0.135766 141 141 141
0.067020 -0.447855 0.135950 150 150 150
0.072906 -0.447331 0.136102 152 152 152
0.077217 -0.446160 0.136200 154 154 154
0.081226 -0.444869 0.136289 161 161 161
0.084743 -0.443379 0.136361 161 161 161
0.087910 -0.441746 0.136421 165 165 165
0.090798 -0.439999 0.136472 167 167 167
0.093042 -0.437984 0.136501 168 168 168
0.095204 -0.435936 0.136528 168 168 168
0.097563 -0.433974 0.136561 171 171 171
0.100026 -0.432058 0.136598 172 172 172
0.102461 -0.430133 0.136633 173 173 173
0.104668 -0.428112 0.136662 174 174 174
0.107194 -0.426232 0.136701 175 175 175
0.109481 -0.424250 0.136732 174 174 174
0.111923 -0.422338 0.136768 174 174 174
0.115101 -0.420748 0.136829 174 174 174
0.119376 -0.419639 0.136928 173 173 173
0.123539 -0.418489 0.137022 172 172 172
0.127422 -0.417223 0.137108 172 172 172
0.130957 -0.415810 0.137181 170 170 170
0.134103 -0.414231 0.137242 168 168 168
0.137452 -0.412746 0.137309 168 168 168
0.141047 -0.411375 0.137385 167 167 167
0.144635 -0.410006 0.137461 167 167 167
0.148292 -0.408673 0.137539 166 166 166
0.151146 -0.406988 0.137590 165 165 165
0.154385 -0.405478 0.137655 164 164 164
0.157619 -0.403971 0.137719 164 164 164
0.160954 -0.402514 0.137786 162 162 162
0.164321 -0.401076 0.137855 161 161 161
0.168319 -0.399928 0.137945 161 161 161
0.172415 -0.398831 0.138039 160 160 160
0.176197 -0.397598 0.138122 160 160 160
0.179963 -0.396364 0.138205 160 160 160
0.183520 -0.395040 0.138281 159 159 159
0.186151 -0.393297 0.138325 159 159 159
0.188611 -0.391479 0.138363 159 159 159
0.191211 -0.389728 0.138406 158 158 158
0.193506 -0.387840 0.138439 157 157 157
0.195562 -0.385843 0.138463 156 156 156
0.197617 -0.383847 0.138487 156 156 156
0.200238 -0.382117 0.138531 156 156 156
0.203280 -0.380586 0.138590 151 151 151
0.206582 -0.379181 0.138657 150 150 150
0.210150 -0.377906 0.138734 150 150 150
0.213690 -0.376623 0.138810 150 150 150
0.216815 -0.375150 0.138871 152 152 152
0.219902 -0.373664 0.138932 153 153 153
0.223259 -0.372309 0.139002 154 154 154
0.226250 -0.370787 0.139059 155 155 155
0.229063 -0.369183 0.139110 156 156 156
0.231716 -0.367506 0.139156 156 156 156
0.234365 -0.365830 0.139201 157 157 157
0.236634 -0.363976 0.139234 158 158 158
0.238715 -0.362033 0.139260 158 158 158
0.240581 -0.359988 0.139278 159 159 159
0.242445 -0.357944 0.139297 160 160 160
0.244331 -0.355911 0.139316 161 161 161
0.246285 -0.353914 0.139338 161 161 161
0.248237 -0.351916 0.139359 161 161 161
0.250188 -0.349920 0.139381 161 161 161
0.252142 -0.347927 0.139403 161 161 161
0.254196 -0.345985 0.139428 162 162 162
0.256260 -0.344049 0.139454 162 162 162
0.258324 -0.342115 0.139479 163 163 163
0.260333 -0.340156 0.139503 164 164 164
0.262640 -0.338347 0.139537 164 164 164
0.265067 -0.336600 0.139576 165 165 165
0.267290 -0.334754 0.139607 165 165 165
0.269335 -0.332821 0.139632 166 166 166
0.271378 -0.330889 0.139657 166 166 166
0.273510 -0.329004 0.139686 166 166 166
0.276178 -0.327390 0.139733 167 167 167
0.278842 -0.325779 0.139780 167 167 167
0.281246 -0.324039 0.139818 167 167 167
0.283931 -0.322445 0.139865 168 168 168
0.286503 -0.320796 0.139909 169 169 169
0.289006 -0.319116 0.139951 169 169 169
0.291508 -0.317438 0.139992 169 169 169
0.293934 -0.315724 0.140031 169 169 169
0.296314 -0.313990 0.140069 169 169 169
0.298795 -0.312310 0.140110 169 169 169
0.301274 -0.310632 0.140150 169 169 169
0.303741 -0.308951 0.140191 171 171 171
0.305982 -0.307156 0.140224 171 171 171
0.308085 -0.305290 0.140251 171 171 171
0.310096 -0.303379 0.140276 171 171 171
0.312058 -0.301444 0.140299 171 171 171
0.313677 -0.299331 0.140310 171 171 171
0.315000 -0.297062 0.140310 171 171 171
0.316323 -0.294794 0.140310 171 171 171
0.317550 -0.292475 0.140307 172 172 172
0.318504 -0.290010 0.140295 172 172 172
0.319472 -0.287552 0.140282 172 172 172
0.320508 -0.285130 0.140273 172 172 172
0.321454 -0.282658 0.140260 172 172 172
0.322432 -0.280203 0.140248 171 171 171
0.323528 -0.277811 0.140240 171 171 171
0.324625 -0.275417 0.140232 171 171 171
0.325721 -0.273024 0.140225 171 171 171
0.326818 -0.270630 0.140217 171 171 171
0.328005 -0.268284 0.140212 170 170 170
0.329390 -0.266046 0.140215 170 170 170
0.330774 -0.263808 0.140217 170 170 170
0.332159 -0.261570 0.140220 170 170 170
0.333543 -0.259331 0.140222 169 169 169
0.334885 -0.257070 0.140223 169 169 169
0.336373 -0.254889 0.140229 169 169 169
0.338114 -0.252849 0.140245 169 169 169
0.339839 -0.250800 0.140259 169 169 169
0.341563 -0.248752 0.140274 169 169 169
0.343280 -0.246702 0.140289 169 169 169
0.345119 -0.244720 0.140307 169 169 169
0.347086 -0.242811 0.140331 169 169 169
0.349102 -0.240932 0.140356 169 169 169
0.351165 -0.239081 0.140383 169 169 169
0.353227 -0.237231 0.140410 169 169 169
0.355350 -0.235417 0.140439 169 169 169
0.357594 -0.233675 0.140473 169 169 169
0.359870 -0.231953 0.140507 170 170 170
0.362144 -0.230232 0.140542 171 171 171
0.364341 -0.228470 0.140574 169 169 169
0.366276 -0.226561 0.140597 172 172 172
0.368090 -0.224584 0.140615 173 173 173
0.369888 -0.222600 0.140632 173 173 173
0.371633 -0.220587 0.140648 174 174 174
0.373339 -0.218552 0.140663 175 175 175
0.375025 -0.216507 0.140676 177 177 177
0.376711 -0.214463 0.140690 178 178 178
0.378136 -0.212269 0.140694 178 178 178
0.379526 -0.210054 0.140697 178 178 178
0.380988 -0.207882 0.140703 179 179 179
0.382659 -0.205832 0.140716 179 179 179
0.384329 -0.203783 0.140729 180 180 180
0.385827 -0.201634 0.140736 180 180 180
0.387209 -0.199417 0.140739 180 180 180
0.388566 -0.197185 0.140741 181 181 181
0.390003 -0.195001 0.140746 181 181 181
0.391782 -0.193020 0.140763 180 180 180
0.393560 -0.191039 0.140780 180 180 180
0.395337 -0.189059 0.140797 180 180 180
0.397179 -0.187120 0.140817 179 179 179
0.399291 -0.185344 0.140846 179 179 179
0.401247 -0.183476 0.140870 179 179 179
0.403202 -0.181609 0.140894 179 179 179
0.405103 -0.179711 0.140916 179 179 179
0.406999 -0.177812 0.140937 179 179 179
0.408862 -0.175896 0.140958 179 179 179
0.410639 -0.173928 0.140975 179 179 179
0.412255 -0.171864 0.140987 179 179 179
0.413749 -0.169726 0.140994 180 180 180
0.415243 -0.167589 0.141001 180 180 180
0.416737 -0.165453 0.141008 180 180 180
0.417932 -0.163133 0.141004 180 180 180
0.419055 -0.160769 0.140997 180 180 180
0.419841 -0.158197 0.140978 180 180 180
0.420627 -0.155624 0.140959 180 180 180
0.421414 -0.153049 0.140940 180 180 180
0.422030 -0.150367 0.140915 179 179 179
0.422529 -0.147611 0.140886 179 179 179
0.422966 -0.144813 0.140854 179 179 179
0.423364 -0.141989 0.140820 179 179 179
0.423763 -0.139162 0.140787 179 179 179
0.424186 -0.136348 0.140754 179 179 179
0.424666 -0.133568 0.140724 179 179 179
0.425147 -0.130785 0.140693 179 179 179
0.425615 -0.127992 0.140662 180 180 180
0.426047 -0.125174 0.140630 180 180 180
0.426255 -0.122212 0.140589 180 180 180
0.426407 -0.119210 0.140546 179 179 179
0.426519 -0.116179 0.140502 179 179 179
0.426638 -0.113150 0.140458 179 179 179
0.426815 -0.110154 0.140416 179 179 179
0.426962 -0.107136 0.140373 178 178 178
0.427105 -0.104112 0.140329 178 178 178
0.427223 -0.101069 0.140285 177 177 177
0.427596 -0.098186 0.140250 177 177 177
0.427968 -0.095301 0.140215 176 176 176
0.428340 -0.092413 0.140180 176 176 176
0.428724 -0.089529 0.140145 176 176 176
0.428963 -0.086548 0.140105 176 176 176
0.429172 -0.083545 0.140063 176 176 176
0.429380 -0.080538 0.140022 176 176 176
0.429709 -0.077607 0.139985 176 176 176
0.429958 -0.074621 0.139945 176 176 176
0.430209 -0.071632 0.139905 177 177 177
0.430458 -0.068640 0.139865 177 177 177
0.430642 -0.065600 0.139823 177 177 177
0.430851 -0.062574 0.139781 177 177 177
0.430857 -0.059410 0.139732 177 177 177
0.430863 -0.056243 0.139682 177 177 177
0.430779 -0.053011 0.139629 176 176 176
0.430534 -0.049667 0.139570 175 175 175
0.430288 -0.046318 0.139511 175 175 175
0.429752 -0.042769 0.139441 174 174 174
0.428735 -0.038890 0.139353 174 174 174
0.427721 -0.035007 0.139265 174 174 174
0.426740 -0.031138 0.139178 174 174 174
0.426115 -0.027504 0.139104 173 173 173
0.425539 -0.023898 0.139032 172 172 172
0.424925 -0.020261 0.138959 171 171 171
0.424826 -0.016969 0.138904 171 171 171
0.424727 -0.013673 0.138850 170 170 170
0.424597 -0.010352 0.138795 169 169 169
0.424256 -0.006881 0.138731 169 169 169
0.423902 -0.003396 0.138667 169 169 169
0.423555 0.000090 0.138603 169 169 169
0.423169 0.003607 0.138538 169 169 169
0.422674 0.007205 0.138468 168 168 168
0.422178 0.010809 0.138398 168 168 168
0.421717 0.014395 0.138330 168 168 168
0.421438 0.017859 0.138268 168 168 168
0.421159 0.021328 0.138206 168 168 168
0.420879 0.024802 0.138144 169 169 169
0.420531 0.028329 0.138079 169 169 169
0.420162 0.031876 0.138014 169 169 169
0.419792 0.035429 0.137948 169 169 169
0.419502 0.038931 0.137886 169 169 169
0.419245 0.042414 0.137824 170 170 170
0.418988 0.045903 0.137763 170 170 170
0.418788 0.049355 0.137703 171 171 171
0.418895 0.052594 0.137656 170 170 170
0.419002 0.055836 0.137608 170 170 170
0.419075 0.059106 0.137559 170 170 170
0.419202 0.062342 0.137511 170 170 170
0.419420 0.065515 0.137468 170 170 170
0.419639 0.068692 0.137424 170 170 170
0.419858 0.071872 0.137380 170 170 170
0.419962 0.075139 0.137332 171 171 171
0.420055 0.078418 0.137283 171 171 171
0.420147 0.081702 0.137234 171 171 171
0.420008 0.085157 0.137176 171 171 171
0.419457 0.088919 0.137103 171 171 171
0.418839 0.092735 0.137026 171 171 171
0.417070 0.097401 0.136905 171 171 171
0.414048 0.102998 0.136736 171 171 171
0.410416 0.109059 0.136543 172 172 172
0.404810 0.116591 0.136273 170 170 170
0.399878 0.123648 0.136029 170 170 170
0.394870 0.130779 0.135782 169 169 169
0.389323 0.138332 0.135513 169 169 169
0.385447 0.144662 0.135309 168 168 168
0.382069 0.150638 0.135124 167 167 167
0.379304 0.156171 0.134963 166 166 166
0.376816 0.161508 0.134812 167 167 167
0.373716 0.167318 0.134637 163 163 163
0.368422 0.174792 0.134377 165 165 165
0.355532 0.188013 0.133821 163 163 163
0.347287 0.197771 0.133445 163 163 163
0.341793 0.205477 0.133175 166 166 166
0.335196 0.214042 0.132863 171 171 171
0.330791 0.220965 0.132635 174 174 174
0.325354 0.228694 0.132367 178 178 178
0.320050 0.236343 0.132103 179 179 179
0.315828 0.243186 0.131882 181 181 181
0.313063 0.248931 0.131717 182 182 182
0.310470 0.254556 0.131559 182 182 182
0.308089 0.260032 0.131409 181 181 181
0.306123 0.265199 0.131275 181 181 181
0.304347 0.270231 0.131148 181 181 181
0.303228 0.274764 0.131047 182 182 182
0.301277 0.279951 0.130913 181 181 181
0.299048 0.285366 0.130768 181 181 181
0.296499 0.291042 0.130610 183 183 183
0.291502 0.298643 0.130356 185 185 185
0.240649 0.342151 0.128297 181 181 181
0.235911 0.349664 0.128051 178 178 178
0.229814 0.358266 0.127752 174 174 174
0.224991 0.365889 0.127502 166 166 166
0.218902 0.374533 0.127202 161 161 161
0.211399 0.384319 0.126845 163 163 163
0.200224 0.397044 0.126343 173 173 173
0.191218 0.408088 0.125927 182 182 182
-0.122053 -0.451334 0.127947 125 125 125
-0.111924 -0.452133 0.128243 167 167 167
-0.103911 -0.452134 0.128467 167 167 167
-0.097472 -0.451540 0.128638 161 161 161
-0.090254 -0.451260 0.128835 158 158 158
-0.034615 -0.469894 0.130693 174 174 174
-0.024552 -0.470810 0.130989 170 170 170
-0.019067 -0.469948 0.131129 171 171 171
-0.014468 -0.468747 0.131238 173 173 173
-0.010275 -0.467394 0.131334 175 175 175
-0.006448 -0.465901 0.131416 176 176 176
-0.002515 -0.464457 0.131503 176 176 176
0.001850 -0.463190 0.131605 174 174 174
0.005593 -0.461682 0.131685 173 173 173
0.009295 -0.460163 0.131764 173 173 173
0.012648 -0.458508 0.131831 172 172 172
0.015463 -0.456642 0.131880 171 171 171
0.018408 -0.454831 0.131933 169 169 169
0.022114 -0.453333 0.132013 164 164 164
0.026428 -0.452087 0.132113 160 160 160
0.030967 -0.450939 0.132222 156 156 156
0.036057 -0.450025 0.132349 147 147 147
0.041036 -0.449073 0.132473 139 139 139
0.046288 -0.448242 0.132607 138 138 138
0.052610 -0.447862 0.132778 138 138 138
0.058518 -0.447322 0.132934 138 138 138
0.066253 -0.447550 0.133154 146 146 146
0.072113 -0.447014 0.133310 149 149 149
0.076426 -0.445843 0.133411 152 152 152
0.080729 -0.444674 0.133513 153 153 153
0.084649 -0.443351 0.133601 162 162 162
0.087830 -0.441725 0.133664 164 164 164
0.090976 -0.440087 0.133725 168 168 168
0.093219 -0.438071 0.133756 168 168 168
0.095510 -0.436078 0.133787 170 170 170
0.097974 -0.434160 0.133825 171 171 171
0.100436 -0.432245 0.133863 172 172 172
0.103298 -0.430503 0.133915 173 173 173
0.105794 -0.428607 0.133955 174 174 174
0.108444 -0.426781 0.133999 175 175 175
0.110761 -0.424814 0.134032 174 174 174
0.113032 -0.422830 0.134064 174 174 174
0.116616 -0.421417 0.134141 174 174 174
0.120887 -0.420308 0.134243 173 173 173
0.125022 -0.419147 0.134340 173 173 173
0.128564 -0.417733 0.134416 171 171 171
0.132003 -0.416280 0.134489 170 170 170
0.135121 -0.414690 0.134550 168 168 168
0.137952 -0.412978 0.134602 166 166 166
0.141838 -0.411736 0.134690 167 167 167
0.145477 -0.410390 0.134771 167 167 167
0.148680 -0.408856 0.134835 166 166 166
0.151522 -0.407166 0.134888 165 165 165
0.154755 -0.405654 0.134954 163 163 163
0.157684 -0.404010 0.135009 162 162 162
0.160470 -0.402306 0.135059 161 161 161
0.164606 -0.401214 0.135158 160 160 160
0.168414 -0.399981 0.135244 159 159 159
0.172286 -0.398782 0.135333 159 159 159
0.176040 -0.397536 0.135418 158 158 158
0.179786 -0.396293 0.135503 158 158 158
0.182906 -0.394769 0.135565 157 157 157
0.185602 -0.393055 0.135613 158 158 158
0.188375 -0.391380 0.135664 157 157 157
0.191063 -0.389669 0.135711 157 157 157
0.193186 -0.387701 0.135739 156 156 156
0.195242 -0.385704 0.135764 155 155 155
0.197297 -0.383707 0.135789 155 155 155
0.199575 -0.381817 0.135823 155 155 155
