ply
format ascii 1.0
element vertex 1211
property float x
property float y
property float z
property uchar red
property uchar green
property uchar blue
end_header
0.434193 -0.126001 0.122877 175 175 175
0.434397 -0.123310 0.122829 175 175 175
0.434601 -0.120620 0.122781 175 175 175
0.434804 -0.117930 0.122733 175 175 175
0.434568 -0.115260 0.122789 175 175 175
0.434217 -0.112595 0.122871 175 175 175
0.433866 -0.109929 0.122954 175 175 175
0.433510 -0.107263 0.123037 175 175 175
0.433256 -0.104591 0.123097 175 175 175
0.433106 -0.101915 0.123132 174 174 174
0.432920 -0.099240 0.123176 173 173 173
0.432606 -0.096570 0.123250 173 173 173
0.432511 -0.093891 0.123272 172 172 172
0.432846 -0.091196 0.123193 172 172 172
0.433134 -0.088503 0.123126 172 172 172
0.433406 -0.085812 0.123062 172 172 172
0.433678 -0.083121 0.122998 172 172 172
0.434039 -0.080429 0.122913 172 172 172
0.434468 -0.077734 0.122812 172 172 172
0.434912 -0.075041 0.122708 172 172 172
0.435356 -0.072348 0.122604 172 172 172
0.435590 -0.069662 0.122549 171 171 171
0.435633 -0.066981 0.122539 170 170 170
0.435651 -0.064301 0.122535 171 171 171
0.435614 -0.061622 0.122543 170 170 170
0.435450 -0.058947 0.122582 167 167 167
0.435011 -0.056277 0.122685 167 167 167
0.434571 -0.053606 0.122788 167 167 167
0.434131 -0.050934 0.122891 167 167 167
0.433725 -0.048260 0.122987 167 167 167
0.432999 -0.045592 0.123157 167 167 167
0.432250 -0.042922 0.123333 167 167 167
0.431597 -0.040249 0.123486 167 167 167
0.430947 -0.037575 0.123639 167 167 167
0.430093 -0.034902 0.123840 167 167 167
0.429290 -0.032227 0.124028 167 167 167
0.428584 -0.029549 0.124194 167 167 167
0.427877 -0.026870 0.124360 167 167 167
0.427340 -0.024187 0.124486 167 167 167
0.426846 -0.021503 0.124602 167 167 167
0.426352 -0.018818 0.124718 167 167 167
0.425857 -0.016132 0.124834 167 167 167
0.425555 -0.013444 0.124905 167 167 167
0.425340 -0.010754 0.124955 167 167 167
0.425094 -0.008065 0.125013 167 167 167
0.424785 -0.005375 0.125086 167 167 167
0.424481 -0.002684 0.125157 167 167 167
0.424181 0.000007 0.125227 167 167 167
0.423852 0.002699 0.125305 167 167 167
0.423523 0.005391 0.125382 167 167 167
0.423205 0.008084 0.125456 167 167 167
0.422917 0.010778 0.125524 168 168 168
0.422627 0.013473 0.125592 168 168 168
0.422465 0.016167 0.125630 168 168 168
0.422432 0.018860 0.125638 170 170 170
0.422355 0.021554 0.125656 170 170 170
0.422277 0.024249 0.125674 170 170 170
0.422216 0.026943 0.125689 170 170 170
0.422244 0.029636 0.125682 171 171 171
0.422153 0.032331 0.125703 171 171 171
0.422029 0.035026 0.125732 171 171 171
0.421891 0.037722 0.125765 171 171 171
0.421748 0.040418 0.125799 171 171 171
0.421665 0.043113 0.125818 171 171 171
0.421564 0.045809 0.125842 171 171 171
0.421367 0.048507 0.125888 171 171 171
0.421169 0.051206 0.125934 171 171 171
0.420993 0.053904 0.125976 171 171 171
0.421013 0.056599 0.125971 171 171 171
0.421122 0.059291 0.125945 171 171 171
0.421231 0.061983 0.125920 171 171 171
0.421302 0.064676 0.125903 171 171 171
0.421522 0.067365 0.125852 170 170 170
0.421749 0.070053 0.125798 170 170 170
0.421962 0.072741 0.125748 169 169 169
0.421851 0.075438 0.125774 169 169 169
0.421856 0.078132 0.125773 168 168 168
0.421933 0.080823 0.125755 168 168 168
0.421411 0.083534 0.125878 167 167 167
0.420829 0.086248 0.126014 166 166 166
0.420114 0.088968 0.126182 165 165 165
0.419295 0.091693 0.126374 164 164 164
0.418476 0.094420 0.126567 164 164 164
0.417589 0.097151 0.126775 163 163 163
0.416215 0.099903 0.127098 163 163 163
0.414550 0.102669 0.127488 163 163 163
0.413027 0.105433 0.127846 162 162 162
0.411296 0.108209 0.128252 161 161 161
0.409206 0.111004 0.128743 160 160 160
0.407079 0.113805 0.129242 160 160 160
0.404949 0.116610 0.129742 159 159 159
0.402940 0.119415 0.130214 159 159 159
0.401105 0.122215 0.130645 159 159 159
0.399113 0.125027 0.131112 158 158 158
0.397068 0.127846 0.131592 158 158 158
0.395178 0.130661 0.132036 159 159 159
0.393309 0.133479 0.132475 159 159 159
0.391249 0.136311 0.132958 159 159 159
0.389327 0.139140 0.133410 160 160 160
0.387662 0.141959 0.133800 160 160 160
0.385995 0.144782 0.134192 160 160 160
0.384407 0.147603 0.134564 160 160 160
0.382937 0.150421 0.134910 159 159 159
0.381592 0.153235 0.135225 159 159 159
0.380245 0.156052 0.135542 159 159 159
0.378931 0.158870 0.135850 159 159 159
0.377785 0.161680 0.136119 159 159 159
0.376544 0.164498 0.136411 159 159 159
0.375112 0.167331 0.136747 157 157 157
0.373543 0.170176 0.137115 154 154 154
0.371520 0.173055 0.137590 153 153 153
0.369386 0.175945 0.138091 154 154 154
0.366992 0.178857 0.138653 154 154 154
0.364251 0.181798 0.139296 153 153 153
0.361480 0.184748 0.139947 152 152 152
0.358629 0.187708 0.140616 152 152 152
0.356493 0.190623 0.141118 152 152 152
0.354614 0.193524 0.141559 153 153 153
0.352672 0.196433 0.142014 155 155 155
0.350615 0.199355 0.142497 156 156 156
0.348341 0.202298 0.143031 157 157 157
0.345905 0.205259 0.143603 158 158 158
0.343396 0.208230 0.144192 158 158 158
0.340662 0.211224 0.144834 159 159 159
0.338049 0.214214 0.145447 159 159 159
0.335169 0.217232 0.146123 164 164 164
0.330719 0.220386 0.147168 166 166 166
0.326887 0.223497 0.148068 168 168 168
0.323574 0.226572 0.148846 170 170 170
0.318932 0.229769 0.149935 174 174 174
0.315494 0.232870 0.150742 176 176 176
0.312649 0.235927 0.151410 177 177 177
0.310144 0.238959 0.151998 177 177 177
0.307558 0.242003 0.152605 178 178 178
0.305100 0.245042 0.153182 178 178 178
0.303346 0.248020 0.153594 178 178 178
0.301587 0.251003 0.154007 178 178 178
0.300062 0.253967 0.154365 177 177 177
0.298854 0.256904 0.154649 177 177 177
0.297653 0.259843 0.154931 177 177 177
0.296368 0.262793 0.155232 177 177 177
0.295131 0.265741 0.155523 177 177 177
0.294148 0.268666 0.155753 177 177 177
0.293076 0.271602 0.156005 177 177 177
0.291998 0.274540 0.156258 177 177 177
0.290871 0.277486 0.156523 177 177 177
0.289315 0.280480 0.156888 176 176 176
0.287756 0.283476 0.157254 176 176 176
0.286131 0.286483 0.157636 176 176 176
0.283951 0.289553 0.158147 175 175 175
0.281768 0.292628 0.158660 175 175 175
0.279594 0.295706 0.159170 173 173 173
0.276438 0.298897 0.159911 172 172 172
0.273720 0.302046 0.160549 172 172 172
0.269652 0.305352 0.161504 167 167 167
0.265960 0.308624 0.162371 165 165 165
0.261969 0.311938 0.163308 164 164 164
0.258496 0.315201 0.164123 161 161 161
0.254875 0.318488 0.164973 161 161 161
0.251253 0.321783 0.165823 161 161 161
0.247999 0.325042 0.166587 160 160 160
0.245394 0.328230 0.167199 160 160 160
0.243233 0.331370 0.167706 160 160 160
0.241398 0.334475 0.168137 162 162 162
0.239613 0.337577 0.168556 163 163 163
0.238000 0.340662 0.168935 164 164 164
0.236523 0.343733 0.169281 165 165 165
0.234805 0.346838 0.169685 166 166 166
0.233085 0.349947 0.170088 168 168 168
0.231480 0.353044 0.170465 169 169 169
0.230006 0.356128 0.170811 170 170 170
0.228191 0.359260 0.171237 172 172 172
0.226373 0.362396 0.171664 174 174 174
0.224198 0.365582 0.172175 175 175 175
0.221721 0.368814 0.172756 177 177 177
0.218675 0.372127 0.173471 180 180 180
0.214261 0.375632 0.174507 181 181 181
0.209104 0.379247 0.175718 184 184 184
0.197839 0.383713 0.178363 192 192 192
0.133718 0.395524 0.193415 172 172 172
0.128155 0.399297 0.194721 173 173 173
0.123675 0.402929 0.195773 177 177 177
0.117378 0.406828 0.197251 182 182 182
0.108859 0.411057 0.199251 185 185 185
0.094616 0.416128 0.202595 195 195 195
0.118973 -0.409528 0.193790 183 183 183
0.128658 -0.405145 0.191527 181 181 181
0.138303 -0.400788 0.189273 181 181 181
0.147464 -0.396518 0.187132 182 182 182
0.151676 -0.392953 0.186148 182 182 182
0.155424 -0.389461 0.185272 183 183 183
0.158745 -0.386035 0.184496 186 186 186
0.211285 -0.375955 0.172218 189 189 189
0.220596 -0.371790 0.170042 184 184 184
0.228053 -0.367891 0.168300 181 181 181
0.234718 -0.364113 0.166742 178 178 178
0.238924 -0.360672 0.165760 180 180 180
0.242637 -0.357303 0.164892 180 180 180
0.246155 -0.353968 0.164070 179 179 179
0.249483 -0.350664 0.163292 177 177 177
0.252490 -0.347408 0.162590 175 175 175
0.255147 -0.344202 0.161969 176 176 176
0.257722 -0.341012 0.161367 177 177 177
0.260292 -0.337828 0.160766 177 177 177
0.262831 -0.334654 0.160173 177 177 177
0.265538 -0.331464 0.159540 178 178 178
0.268321 -0.328271 0.158890 178 178 178
0.272269 -0.324944 0.157968 179 179 179
0.277015 -0.321531 0.156859 181 181 181
0.283901 -0.317876 0.155250 181 181 181
0.290943 -0.314218 0.153604 182 182 182
0.296986 -0.310690 0.152192 182 182 182
0.302594 -0.307224 0.150881 180 180 180
0.307868 -0.303807 0.149649 178 178 178
0.310926 -0.300651 0.148934 177 177 177
0.313977 -0.297502 0.148221 176 176 176
0.316143 -0.294456 0.147715 175 175 175
0.317586 -0.291495 0.147378 175 175 175
0.319010 -0.288538 0.147045 175 175 175
0.320280 -0.285601 0.146748 174 174 174
0.321626 -0.282658 0.146434 174 174 174
0.323026 -0.279712 0.146107 173 173 173
0.324403 -0.276772 0.145785 173 173 173
0.325777 -0.273835 0.145464 173 173 173
0.327151 -0.270901 0.145143 172 172 172
0.328823 -0.267940 0.144752 172 172 172
0.330686 -0.264963 0.144317 172 172 172
0.332585 -0.261986 0.143873 172 172 172
0.334481 -0.259014 0.143430 172 172 172
0.336316 -0.256052 0.143001 171 171 171
0.338918 -0.253020 0.142393 172 172 172
0.341527 -0.249993 0.141783 172 172 172
0.344158 -0.246970 0.141169 173 173 173
0.347232 -0.243911 0.140450 173 173 173
0.350714 -0.240821 0.139637 173 173 173
0.354376 -0.237723 0.138781 174 174 174
0.358530 -0.234588 0.137810 174 174 174
0.362988 -0.231435 0.136769 175 175 175
0.366601 -0.228365 0.135924 175 175 175
0.370163 -0.225307 0.135092 176 176 176
0.373318 -0.222292 0.134355 177 177 177
0.376503 -0.219280 0.133610 179 179 179
0.379248 -0.216311 0.132969 181 181 181
0.382790 -0.213283 0.132141 179 179 179
0.386658 -0.210236 0.131237 180 180 180
0.389993 -0.207240 0.130458 181 181 181
0.392706 -0.204299 0.129824 182 182 182
0.395471 -0.201361 0.129178 182 182 182
0.398259 -0.198426 0.128526 182 182 182
0.401195 -0.195486 0.127840 181 181 181
0.404129 -0.192552 0.127155 181 181 181
0.407011 -0.189628 0.126481 180 180 180
0.409590 -0.186733 0.125879 180 180 180
0.412488 -0.183819 0.125201 180 180 180
0.415378 -0.180913 0.124526 178 178 178
0.417562 -0.178061 0.124016 177 177 177
0.419777 -0.175212 0.123498 176 176 176
0.421989 -0.172368 0.122981 175 175 175
0.423851 -0.169552 0.122546 174 174 174
0.425306 -0.166766 0.122206 175 175 175
0.426553 -0.163996 0.121915 175 175 175
0.427378 -0.161255 0.121722 175 175 175
0.428202 -0.158517 0.121529 175 175 175
0.429080 -0.155777 0.121324 174 174 174
0.429832 -0.153046 0.121148 172 172 172
0.430391 -0.150328 0.121018 172 172 172
0.430695 -0.147626 0.120947 173 173 173
0.430998 -0.144924 0.120876 173 173 173
0.431510 -0.142212 0.120756 174 174 174
0.432173 -0.139492 0.120601 176 176 176
0.432634 -0.136785 0.120494 176 176 176
0.433473 -0.134059 0.120298 175 175 175
0.434141 -0.131343 0.120142 175 175 175
0.434873 -0.128626 0.119970 174 174 174
0.435204 -0.125929 0.119893 174 174 174
0.435378 -0.123242 0.119852 174 174 174
0.435552 -0.120554 0.119812 175 175 175
0.435727 -0.117867 0.119771 175 175 175
0.435747 -0.115187 0.119766 175 175 175
0.435363 -0.112525 0.119856 175 175 175
0.434965 -0.109863 0.119949 174 174 174
0.434568 -0.107200 0.120042 173 173 173
0.434203 -0.104534 0.120127 173 173 173
0.434039 -0.101860 0.120165 172 172 172
0.433725 -0.099192 0.120239 172 172 172
0.433412 -0.096523 0.120312 172 172 172
0.433073 -0.093854 0.120391 171 171 171
0.433288 -0.091164 0.120341 171 171 171
0.433560 -0.088473 0.120277 171 171 171
0.433832 -0.085783 0.120214 171 171 171
0.434104 -0.083093 0.120150 171 171 171
0.434422 -0.080403 0.120076 171 171 171
0.434860 -0.077709 0.119974 171 171 171
0.435304 -0.075016 0.119870 171 171 171
0.435748 -0.072324 0.119766 171 171 171
0.436189 -0.069633 0.119663 171 171 171
0.436049 -0.066958 0.119696 170 170 170
0.435818 -0.064286 0.119750 168 168 168
0.435587 -0.061612 0.119804 167 167 167
0.435367 -0.058938 0.119855 166 166 166
0.434988 -0.056267 0.119944 166 166 166
0.434548 -0.053597 0.120046 166 166 166
0.434122 -0.050925 0.120146 166 166 166
0.433716 -0.048252 0.120241 166 166 166
0.433119 -0.045582 0.120380 166 166 166
0.432370 -0.042913 0.120555 166 166 166
0.431620 -0.040242 0.120731 166 166 166
0.430885 -0.037570 0.120902 166 166 166
0.430130 -0.034896 0.121079 166 166 166
0.429427 -0.032220 0.121243 166 166 166
0.428738 -0.029542 0.121404 166 166 166
0.428048 -0.026863 0.121565 166 166 166
0.427447 -0.024182 0.121706 167 167 167
0.426957 -0.021498 0.121820 167 167 167
0.426463 -0.018814 0.121936 167 167 167
0.425969 -0.016128 0.122051 167 167 167
0.425559 -0.013441 0.122147 167 167 167
0.425344 -0.010753 0.122197 167 167 167
0.425060 -0.008064 0.122264 167 167 167
0.424751 -0.005374 0.122336 167 167 167
0.424444 -0.002684 0.122408 167 167 167
0.424131 0.000007 0.122481 167 167 167
0.423801 0.002698 0.122558 167 167 167
0.423468 0.005390 0.122636 167 167 167
0.423128 0.008083 0.122715 168 168 168
0.422978 0.010776 0.122750 169 169 169
0.422873 0.013469 0.122775 169 169 169
0.422794 0.016162 0.122793 169 169 169
0.422850 0.018854 0.122780 170 170 170
0.422778 0.021547 0.122797 170 170 170
0.422700 0.024240 0.122815 171 171 171
0.422675 0.026933 0.122821 171 171 171
0.422703 0.029626 0.122815 171 171 171
0.422679 0.032318 0.122820 171 171 171
0.422553 0.035013 0.122849 171 171 171
0.422410 0.037708 0.122883 172 172 172
0.422267 0.040403 0.122916 172 172 172
0.422135 0.043098 0.122947 172 172 172
0.421979 0.045794 0.122984 172 172 172
0.421842 0.048490 0.123016 172 172 172
0.421711 0.051186 0.123046 172 172 172
0.421579 0.053883 0.123077 172 172 172
0.421575 0.056577 0.123078 171 171 171
0.421684 0.059268 0.123053 171 171 171
0.421792 0.061959 0.123027 171 171 171
0.421845 0.064651 0.123015 171 171 171
0.421984 0.067341 0.122982 170 170 170
0.422211 0.070028 0.122929 170 170 170
0.422317 0.072718 0.122905 169 169 169
0.422207 0.075415 0.122930 169 169 169
0.422130 0.078110 0.122948 168 168 168
0.421976 0.080808 0.122984 168 168 168
0.421393 0.083520 0.123121 167 167 167
0.420810 0.086234 0.123257 166 166 166
0.420174 0.088951 0.123405 163 163 163
0.419181 0.091681 0.123638 163 163 163
0.418108 0.094417 0.123888 163 163 163
0.417034 0.097155 0.124139 163 163 163
0.415839 0.099900 0.124418 163 163 163
0.414174 0.102666 0.124808 162 162 162
0.412843 0.105422 0.125119 161 161 161
0.411015 0.108202 0.125546 160 160 160
0.408997 0.110994 0.126017 160 160 160
0.406870 0.113794 0.126514 159 159 159
0.404726 0.116600 0.127015 159 159 159
0.402580 0.119411 0.127517 158 158 158
0.400728 0.122212 0.127950 158 158 158
0.398677 0.125027 0.128429 158 158 158
0.396526 0.127851 0.128932 158 158 158
0.394587 0.130668 0.129385 158 158 158
0.392717 0.133486 0.129822 158 158 158
0.390845 0.136309 0.130259 159 159 159
0.388978 0.139135 0.130695 159 159 159
0.387397 0.141949 0.131065 159 159 159
0.385814 0.144767 0.131435 159 159 159
0.384230 0.147588 0.131805 160 160 160
0.382710 0.150408 0.132160 160 160 160
0.381270 0.153228 0.132497 159 159 159
0.379844 0.156049 0.132830 158 158 158
0.378497 0.158869 0.133145 158 158 158
0.377289 0.161682 0.133427 158 158 158
0.375864 0.164512 0.133760 156 156 156
0.374292 0.167355 0.134127 155 155 155
0.372669 0.170204 0.134507 154 154 154
0.370700 0.173079 0.134967 153 153 153
0.368564 0.175970 0.135466 154 154 154
0.366050 0.178890 0.136053 153 153 153
0.363337 0.181830 0.136687 152 152 152
0.360589 0.184778 0.137329 152 152 152
0.357835 0.187733 0.137973 151 151 151
0.355529 0.190660 0.138512 151 151 151
0.353526 0.193571 0.138980 152 152 152
0.351552 0.196483 0.139441 153 153 153
0.349533 0.199403 0.139913 155 155 155
0.347367 0.202338 0.140419 156 156 156
0.345199 0.205278 0.140926 157 157 157
0.342876 0.208235 0.141469 157 157 157
0.340235 0.211222 0.142086 158 158 158
0.337625 0.214212 0.142696 160 160 160
0.335009 0.217208 0.143307 162 162 162
0.330941 0.220329 0.144257 165 165 165
0.327695 0.223391 0.145016 167 167 167
0.324501 0.226454 0.145762 170 170 170
0.320703 0.229577 0.146650 173 173 173
0.317482 0.232657 0.147403 175 175 175
0.314324 0.235738 0.148141 176 176 176
0.312021 0.238750 0.148679 177 177 177
0.309821 0.241757 0.149193 178 178 178
0.307239 0.244804 0.149796 178 178 178
0.305188 0.247807 0.150275 178 178 178
0.303444 0.250786 0.150683 178 178 178
0.301726 0.253766 0.151084 178 178 178
0.300354 0.256717 0.151405 178 178 178
0.299044 0.259664 0.151711 177 177 177
0.297760 0.262612 0.152011 177 177 177
0.296476 0.265562 0.152311 177 177 177
0.295358 0.268499 0.152573 177 177 177
0.294283 0.271433 0.152824 177 177 177
0.293207 0.274370 0.153075 177 177 177
0.292135 0.277309 0.153326 177 177 177
0.290638 0.280294 0.153675 177 177 177
0.289157 0.283280 0.154022 177 177 177
0.287691 0.286268 0.154364 177 177 177
0.285737 0.289312 0.154821 176 176 176
0.283088 0.292434 0.155440 175 175 175
0.280904 0.295512 0.155950 175 175 175
0.278194 0.298652 0.156583 173 173 173
0.274760 0.301878 0.157386 172 172 172
0.270760 0.305175 0.158321 168 168 168
0.266154 0.308549 0.159397 166 166 166
0.262018 0.311879 0.160363 164 164 164
0.258240 0.315176 0.161246 162 162 162
0.254619 0.318463 0.162092 161 161 161
0.251043 0.321752 0.162928 161 161 161
0.247960 0.324990 0.163649 161 161 161
0.245423 0.328170 0.164241 161 161 161
0.243136 0.331324 0.164776 161 161 161
0.241059 0.334458 0.165261 162 162 162
0.239461 0.337537 0.165634 163 163 163
0.237915 0.340614 0.165996 164 164 164
0.236466 0.343681 0.166335 164 164 164
0.234863 0.346771 0.166709 166 166 166
0.233234 0.349868 0.167090 168 168 168
0.231873 0.352933 0.167408 168 168 168
0.230561 0.355995 0.167714 170 170 170
0.229218 0.359064 0.168028 170 170 170
0.227631 0.362168 0.168399 172 172 172
0.225763 0.365312 0.168836 174 174 174
0.223289 0.368541 0.169414 175 175 175
0.220765 0.371782 0.170003 175 175 175
0.218138 0.375042 0.170617 176 176 176
0.213297 0.378610 0.171749 180 180 180
0.207971 0.382254 0.172993 185 185 185
0.135099 0.395265 0.190022 174 174 174
0.130165 0.398948 0.191175 174 174 174
0.125966 0.402538 0.192156 177 177 177
0.121932 0.406113 0.193099 180 180 180
0.115265 0.410072 0.194657 185 185 185
0.106200 0.414391 0.196775 188 188 188
0.091546 0.419537 0.200199 144 144 144
0.111841 -0.413493 0.192363 187 187 187
0.121783 -0.409056 0.190051 182 182 182
0.131546 -0.404666 0.187780 180 180 180
0.141278 -0.400300 0.185516 181 181 181
0.148908 -0.396248 0.183741 181 181 181
0.153611 -0.392618 0.182647 181 181 181
0.157378 -0.389126 0.181771 184 184 184
0.203672 -0.379842 0.171003 190 190 190
0.215779 -0.375282 0.168187 185 185 185
0.223665 -0.371313 0.166352 182 182 182
0.230539 -0.367497 0.164753 179 179 179
0.236507 -0.363814 0.163365 177 177 177
0.241200 -0.360311 0.162274 178 178 178
0.244755 -0.356966 0.161447 178 178 178
0.247632 -0.353716 0.160778 176 176 176
0.250191 -0.350513 0.160182 175 175 175
0.253271 -0.347249 0.159466 174 174 174
0.256070 -0.344027 0.158815 176 176 176
0.258644 -0.340839 0.158216 176 176 176
0.261199 -0.337658 0.157622 176 176 176
0.263838 -0.334472 0.157008 177 177 177
0.266642 -0.331272 0.156356 177 177 177
0.269964 -0.328016 0.155583 178 178 178
0.274432 -0.324629 0.154544 179 179 179
0.279479 -0.321183 0.153370 180 180 180
0.287081 -0.317448 0.151602 181 181 181
0.293418 -0.313875 0.150128 181 181 181
0.299313 -0.310367 0.148756 181 181 181
0.304719 -0.306928 0.147499 183 183 183
0.308764 -0.303653 0.146558 177 177 177
0.311819 -0.300499 0.145847 176 176 176
0.315151 -0.297320 0.145072 175 175 175
0.316742 -0.294340 0.144702 175 175 175
0.318129 -0.291385 0.144380 175 175 175
0.319569 -0.288428 0.144045 175 175 175
0.320862 -0.285489 0.143744 174 174 174
0.322107 -0.282558 0.143455 174 174 174
0.323478 -0.279617 0.143136 173 173 173
0.324860 -0.276677 0.142814 173 173 173
0.326237 -0.273740 0.142494 173 173 173
0.327610 -0.270807 0.142174 172 172 172
0.329221 -0.267853 0.141800 172 172 172
0.331132 -0.264873 0.141355 172 172 172
0.333029 -0.261897 0.140914 172 172 172
0.334924 -0.258926 0.140473 172 172 172
0.336794 -0.255962 0.140038 172 172 172
0.339410 -0.252930 0.139430 173 173 173
0.342054 -0.249900 0.138815 173 173 173
0.344769 -0.246870 0.138183 173 173 173
0.348159 -0.243783 0.137395 173 173 173
0.351541 -0.240704 0.136608 173 173 173
0.355250 -0.237603 0.135745 174 174 174
0.359539 -0.234458 0.134747 174 174 174
0.363662 -0.231336 0.133788 173 173 173
0.367231 -0.228271 0.132958 175 175 175
0.370940 -0.225202 0.132096 175 175 175
0.374514 -0.222152 0.131264 177 177 177
0.377679 -0.219143 0.130528 178 178 178
0.380774 -0.216147 0.129808 179 179 179
0.384644 -0.213095 0.128908 179 179 179
0.388485 -0.210052 0.128015 179 179 179
0.391933 -0.207049 0.127213 180 180 180
0.394645 -0.204112 0.126582 182 182 182
0.397405 -0.201176 0.125940 182 182 182
0.400343 -0.198232 0.125256 180 180 180
0.403273 -0.195295 0.124575 180 180 180
0.406142 -0.192369 0.123908 179 179 179
0.408452 -0.189490 0.123370 179 179 179
0.411033 -0.186596 0.122770 179 179 179
0.413928 -0.183685 0.122097 179 179 179
0.416260 -0.180820 0.121554 177 177 177
0.418314 -0.177979 0.121076 175 175 175
0.420484 -0.175134 0.120571 175 175 175
0.422612 -0.172297 0.120077 174 174 174
0.424097 -0.169506 0.119731 173 173 173
0.425588 -0.166719 0.119384 173 173 173
0.427041 -0.163937 0.119046 174 174 174
0.427952 -0.161192 0.118834 174 174 174
0.428799 -0.158453 0.118637 173 173 173
0.429534 -0.155722 0.118467 172 172 172
0.430196 -0.152997 0.118312 171 171 171
0.430830 -0.150276 0.118165 171 171 171
0.431397 -0.147560 0.118033 171 171 171
0.431766 -0.144856 0.117947 171 171 171
0.432124 -0.142153 0.117864 172 172 172
0.433005 -0.139423 0.117659 175 175 175
0.433671 -0.136706 0.117504 175 175 175
0.434188 -0.133998 0.117384 173 173 173
0.434921 -0.131280 0.117214 172 172 172
0.435653 -0.128564 0.117043 172 172 172
0.436244 -0.125856 0.116906 172 172 172
0.436418 -0.123170 0.116865 172 172 172
0.436487 -0.120489 0.116849 173 173 173
0.436548 -0.117809 0.116835 172 172 172
0.436608 -0.115128 0.116821 172 172 172
0.436287 -0.112465 0.116896 172 172 172
0.435917 -0.109803 0.116982 172 172 172
0.435548 -0.107140 0.117068 171 171 171
0.435125 -0.104479 0.117166 171 171 171
0.434785 -0.101813 0.117245 171 171 171
0.434434 -0.099147 0.117327 171 171 171
0.434083 -0.096481 0.117408 171 171 171
0.433732 -0.093813 0.117490 171 171 171
0.433680 -0.091135 0.117502 171 171 171
0.433961 -0.088444 0.117437 171 171 171
0.434242 -0.085755 0.117371 171 171 171
0.434522 -0.083065 0.117306 171 171 171
0.434808 -0.080377 0.117240 170 170 170
0.435199 -0.077685 0.117149 170 170 170
0.435586 -0.074995 0.117059 169 169 169
0.435974 -0.072305 0.116969 168 168 168
0.436039 -0.069625 0.116953 167 167 167
0.435933 -0.066950 0.116978 168 168 168
0.435703 -0.064277 0.117032 167 167 167
0.435472 -0.061604 0.117085 166 166 166
0.435259 -0.058931 0.117135 165 165 165
0.434965 -0.056258 0.117203 165 165 165
0.434525 -0.053588 0.117306 165 165 165
0.434112 -0.050917 0.117402 165 165 165
0.433707 -0.048244 0.117496 165 165 165
0.433239 -0.045572 0.117605 165 165 165
0.432490 -0.042903 0.117779 165 165 165
0.431741 -0.040233 0.117953 165 165 165
0.430957 -0.037562 0.118136 165 165 165
0.430196 -0.034889 0.118313 166 166 166
0.429605 -0.032212 0.118450 166 166 166
0.428916 -0.029535 0.118610 166 166 166
0.428227 -0.026857 0.118771 166 166 166
0.427548 -0.024177 0.118929 166 166 166
0.427059 -0.021494 0.119042 167 167 167
0.426570 -0.018810 0.119156 167 167 167
0.426080 -0.016125 0.119270 167 167 167
0.425586 -0.013439 0.119385 167 167 167
0.425335 -0.010751 0.119443 167 167 167
0.425026 -0.008062 0.119515 167 167 167
0.424717 -0.005373 0.119587 167 167 167
0.424417 -0.002684 0.119657 167 167 167
0.424106 0.000007 0.119729 168 168 168
0.423809 0.002698 0.119798 169 169 169
0.423618 0.005389 0.119843 169 169 169
0.423428 0.008081 0.119887 169 169 169
0.423281 0.010773 0.119921 169 169 169
0.423175 0.013465 0.119946 169 169 169
0.423144 0.016157 0.119953 170 170 170
0.423200 0.018848 0.119940 170 170 170
0.423200 0.021540 0.119940 171 171 171
0.423123 0.024232 0.119958 171 171 171
0.423134 0.026924 0.119955 171 171 171
0.423161 0.029615 0.119949 172 172 172
0.423189 0.032306 0.119943 172 172 172
0.423072 0.035000 0.119970 172 172 172
0.422929 0.037694 0.120003 172 172 172
0.422850 0.040387 0.120021 173 173 173
0.422764 0.043080 0.120041 173 173 173
0.422624 0.045775 0.120074 173 173 173
0.422493 0.048469 0.120104 172 172 172
0.422361 0.051164 0.120135 172 172 172
0.422229 0.053860 0.120166 172 172 172
0.422136 0.056554 0.120187 171 171 171
0.422245 0.059245 0.120162 171 171 171
0.422337 0.061935 0.120141 171 171 171
0.422388 0.064626 0.120129 171 171 171
0.422448 0.067317 0.120115 171 171 171
0.422673 0.070003 0.120063 170 170 170
0.422673 0.072696 0.120063 169 169 169
0.422562 0.075391 0.120088 169 169 169
0.422451 0.078087 0.120114 168 168 168
0.422074 0.080791 0.120202 167 167 167
0.421485 0.083503 0.120339 167 167 167
0.420766 0.086221 0.120506 166 166 166
0.420046 0.088940 0.120673 166 166 166
0.418930 0.091674 0.120933 163 163 163
0.417680 0.094416 0.121224 163 163 163
0.416479 0.097159 0.121503 163 163 163
0.415403 0.099900 0.121753 163 163 163
0.413973 0.102656 0.122086 162 162 162
0.412617 0.105413 0.122402 160 160 160
0.410734 0.108195 0.122840 160 160 160
0.408782 0.110984 0.123294 159 159 159
0.406616 0.113786 0.123797 158 158 158
0.404447 0.116593 0.124302 158 158 158
0.402273 0.119404 0.124808 158 158 158
0.400351 0.122209 0.125255 158 158 158
0.398242 0.125026 0.125745 158 158 158
0.396041 0.127852 0.126257 157 157 157
0.393995 0.130676 0.126733 157 157 157
0.392126 0.133494 0.127168 158 158 158
0.390326 0.136313 0.127587 159 159 159
0.388668 0.139127 0.127972 159 159 159
0.387182 0.141936 0.128318 159 159 159
0.385636 0.144752 0.128677 159 159 159
0.384052 0.147572 0.129046 160 160 160
0.382484 0.150396 0.129411 160 160 160
0.381044 0.153214 0.129746 159 159 159
0.379603 0.156037 0.130081 158 158 158
0.378159 0.158862 0.130417 157 157 157
0.376562 0.161699 0.130788 157 157 157
0.374954 0.164541 0.131162 156 156 156
0.373344 0.167387 0.131537 155 155 155
0.371732 0.170235 0.131912 154 154 154
0.369880 0.173103 0.132342 153 153 153
0.367705 0.175997 0.132848 153 153 153
0.365106 0.178924 0.133453 152 152 152
0.362423 0.181862 0.134077 152 152 152
0.359691 0.184810 0.134712 151 151 151
0.356968 0.187762 0.135346 151 151 151
0.354430 0.190707 0.135936 150 150 150
0.352398 0.193620 0.136409 151 151 151
0.350426 0.196533 0.136868 152 152 152
0.348445 0.199450 0.137328 153 153 153
0.346283 0.202386 0.137831 154 154 154
0.344113 0.205327 0.138336 155 155 155
0.342098 0.208260 0.138805 157 157 157
0.339736 0.211225 0.139354 159 159 159
0.337157 0.214212 0.139954 161 161 161
0.334574 0.217206 0.140555 163 163 163
0.331679 0.220230 0.141228 165 165 165
0.328458 0.223288 0.141977 167 167 167
0.325237 0.226353 0.142727 169 169 169
0.322541 0.229379 0.143354 171 171 171
0.319448 0.232446 0.144073 173 173 173
0.316315 0.235522 0.144802 175 175 175
0.313562 0.238572 0.145442 176 176 176
0.311393 0.241574 0.145947 177 177 177
0.309193 0.244584 0.146459 178 178 178
0.307017 0.247596 0.146965 178 178 178
0.305230 0.250576 0.147380 178 178 178
0.303552 0.253550 0.147771 178 178 178
0.302068 0.256509 0.148116 178 178 178
0.300692 0.259460 0.148436 178 178 178
0.299305 0.262416 0.148759 178 178 178
0.297989 0.265367 0.149065 178 178 178
0.296715 0.268317 0.149361 177 177 177
0.295626 0.271251 0.149614 178 178 178
0.294536 0.274187 0.149868 178 178 178
0.293475 0.277123 0.150115 178 178 178
0.292212 0.280082 0.150409 177 177 177
0.290670 0.283073 0.150767 177 177 177
0.289167 0.286063 0.151117 177 177 177
0.287637 0.289059 0.151473 177 177 177
0.285359 0.292139 0.152002 177 177 177
0.282571 0.295279 0.152651 175 175 175
0.280041 0.298397 0.153239 175 175 175
0.276694 0.301611 0.154018 173 173 173
0.271909 0.304993 0.155131 170 170 170
0.267385 0.308356 0.156183 167 167 167
0.262697 0.311747 0.157274 165 165 165
0.258066 0.315142 0.158351 164 164 164
0.254485 0.318424 0.159184 162 162 162
0.251151 0.321684 0.159960 162 162 162
0.248019 0.324927 0.160688 162 162 162
0.245453 0.328110 0.161285 162 162 162
0.243166 0.331264 0.161817 162 162 162
0.240906 0.334419 0.162343 163 163 163
0.239310 0.337498 0.162714 163 163 163
0.237884 0.340559 0.163045 164 164 164
0.236516 0.343616 0.163364 165 165 165
0.235042 0.346689 0.163706 166 166 166
0.233561 0.349766 0.164051 167 167 167
0.232264 0.352822 0.164353 168 168 168
0.230973 0.355881 0.164653 169 169 169
0.229630 0.358949 0.164965 170 170 170
0.228287 0.362020 0.165278 171 171 171
0.226942 0.365093 0.165591 172 172 172
0.224852 0.368269 0.166077 173 173 173
0.222393 0.371499 0.166649 173 173 173
0.219929 0.374735 0.167222 175 175 175
0.216722 0.378077 0.167968 176 176 176
0.212333 0.381589 0.168989 179 179 179
0.206264 0.385342 0.170400 186 186 186
0.132399 0.398567 0.187582 177 177 177
0.128253 0.402147 0.188546 178 178 178
0.124839 0.405631 0.189340 179 179 179
0.120029 0.409322 0.190459 182 182 182
0.114101 0.413184 0.191838 187 187 187
0.105194 0.417489 0.193910 189 189 189
0.075956 -0.421633 0.197580 139 139 139
0.115873 -0.412842 0.188337 184 184 184
0.124774 -0.408559 0.186277 181 181 181
0.134424 -0.404188 0.184042 179 179 179
0.143937 -0.399857 0.181840 180 180 180
0.150103 -0.396013 0.180412 181 181 181
0.155350 -0.392309 0.179198 183 183 183
0.159276 -0.388798 0.178288 185 185 185
0.209120 -0.379033 0.166748 184 184 184
0.218771 -0.374812 0.164514 183 183 183
0.226349 -0.370889 0.162759 180 180 180
0.233780 -0.367002 0.161039 177 177 177
0.237851 -0.363574 0.160096 175 175 175
0.242702 -0.360052 0.158973 176 176 176
0.245558 -0.356800 0.158312 176 176 176
0.248120 -0.353592 0.157719 175 175 175
0.250921 -0.350359 0.157070 174 174 174
0.253988 -0.347098 0.156360 174 174 174
0.257000 -0.343850 0.155662 175 175 175
0.259564 -0.340665 0.155069 175 175 175
0.262193 -0.337477 0.154460 175 175 175
0.264938 -0.334280 0.153825 176 176 176
0.267797 -0.331075 0.153163 176 176 176
0.271695 -0.327750 0.152260 177 177 177
0.275966 -0.324390 0.151271 179 179 179
0.282833 -0.320730 0.149681 179 179 179
0.289495 -0.317109 0.148139 180 180 180
0.295693 -0.313556 0.146704 179 179 179
0.301393 -0.310074 0.145384 179 179 179
0.306599 -0.306660 0.144179 178 178 178
0.309858 -0.303477 0.143424 176 176 176
0.313491 -0.300259 0.142583 175 175 175
0.315775 -0.297199 0.142054 175 175 175
0.317604 -0.294194 0.141631 175 175 175
0.318848 -0.291256 0.141343 175 175 175
0.320112 -0.288319 0.141050 175 175 175
0.321435 -0.285378 0.140744 174 174 174
0.322589 -0.282458 0.140477 174 174 174
0.323863 -0.279528 0.140182 174 174 174
0.325245 -0.276589 0.139862 174 174 174
0.326653 -0.273651 0.139536 173 173 173
0.328074 -0.270714 0.139207 173 173 173
0.329762 -0.267753 0.138816 173 173 173
0.331676 -0.264773 0.138373 173 173 173
0.333586 -0.261797 0.137931 173 173 173
0.335496 -0.258826 0.137488 173 173 173
0.337684 -0.255832 0.136982 173 173 173
0.340092 -0.252821 0.136424 173 173 173
0.342721 -0.249794 0.135816 173 173 173
0.345742 -0.246737 0.135116 173 173 173
0.348955 -0.243668 0.134372 173 173 173
0.352129 -0.240609 0.133637 174 174 174
0.356239 -0.237473 0.132686 173 173 173
0.360547 -0.234327 0.131688 174 174 174
0.364369 -0.231234 0.130803 174 174 174
0.368218 -0.228146 0.129912 175 175 175
0.371990 -0.225073 0.129039 175 175 175
0.375662 -0.222016 0.128189 177 177 177
0.378854 -0.219007 0.127450 178 178 178
0.382628 -0.215957 0.126576 178 178 178
0.386468 -0.212909 0.125687 178 178 178
0.390117 -0.209884 0.124842 178 178 178
0.393547 -0.206885 0.124048 179 179 179
0.396580 -0.203924 0.123346 181 181 181
0.399478 -0.200980 0.122675 180 180 180
0.402234 -0.198053 0.122037 180 180 180
0.404984 -0.195132 0.121400 179 179 179
0.407471 -0.192237 0.120824 178 178 178
0.409890 -0.189352 0.120264 178 178 178
0.412474 -0.186459 0.119666 178 178 178
0.414995 -0.183577 0.119082 176 176 176
0.417051 -0.180733 0.118606 175 175 175
0.419104 -0.177893 0.118131 174 174 174
0.421190 -0.175056 0.117648 173 173 173
0.422859 -0.172250 0.117261 173 173 173
0.424343 -0.169461 0.116918 172 172 172
0.425828 -0.166674 0.116574 171 171 171
0.427321 -0.163890 0.116228 172 172 172
0.428525 -0.161128 0.115949 172 172 172
0.429235 -0.158398 0.115785 171 171 171
0.429897 -0.155673 0.115632 171 171 171
0.430559 -0.152949 0.115478 170 170 170
0.431221 -0.150227 0.115325 170 170 170
0.431800 -0.147511 0.115191 170 170 170
0.432368 -0.144797 0.115060 170 170 170
0.432835 -0.142089 0.114951 170 170 170
0.433589 -0.139367 0.114777 173 173 173
0.434235 -0.136652 0.114627 171 171 171
0.434911 -0.133937 0.114471 171 171 171
0.435432 -0.131231 0.114350 171 171 171
0.435954 -0.128527 0.114230 170 170 170
0.436624 -0.125816 0.114074 169 169 169
0.436850 -0.123128 0.114022 169 169 169
0.436938 -0.120447 0.114002 169 169 169
0.437026 -0.117766 0.113981 169 169 169
0.437117 -0.115085 0.113960 169 169 169
0.436968 -0.112415 0.113995 169 169 169
0.436523 -0.109758 0.114098 169 169 169
0.436078 -0.107099 0.114201 169 169 169
0.435792 -0.104433 0.114267 169 169 169
0.435564 -0.101765 0.114320 170 170 170
0.435182 -0.099101 0.114408 170 170 170
0.434800 -0.096437 0.114497 170 170 170
0.434417 -0.093772 0.114585 170 170 170
0.434069 -0.091105 0.114666 170 170 170
0.434313 -0.088417 0.114609 170 170 170
0.434550 -0.085729 0.114554 169 169 169
0.434787 -0.083042 0.114500 169 169 169
0.435024 -0.080356 0.114445 168 168 168
0.435357 -0.077667 0.114368 168 168 168
0.435710 -0.074978 0.114286 167 167 167
0.435766 -0.072299 0.114273 167 167 167
0.435822 -0.069619 0.114260 166 166 166
0.435818 -0.066941 0.114261 167 167 167
0.435587 -0.064269 0.114314 166 166 166
0.435365 -0.061596 0.114366 165 165 165
0.435152 -0.058923 0.114415 165 165 165
0.434940 -0.056249 0.114464 164 164 164
0.434508 -0.053579 0.114564 164 164 164
0.434103 -0.050908 0.114658 164 164 164
0.433698 -0.048236 0.114752 164 164 164
0.433230 -0.045564 0.114860 164 164 164
0.432550 -0.042895 0.115018 164 164 164
0.431757 -0.040226 0.115201 164 164 164
0.430963 -0.037555 0.115385 165 165 165
0.430169 -0.034883 0.115569 165 165 165
0.429567 -0.032207 0.115708 166 166 166
0.429021 -0.029529 0.115835 166 166 166
0.428405 -0.026850 0.115977 166 166 166
0.427716 -0.024171 0.116137 166 166 166
0.427161 -0.021489 0.116265 166 166 166
0.426672 -0.018806 0.116378 167 167 167
0.426183 -0.016121 0.116492 167 167 167
0.425695 -0.013436 0.116605 167 167 167
0.425312 -0.010749 0.116693 168 168 168
0.425023 -0.008061 0.116760 168 168 168
0.424733 -0.005372 0.116827 170 170 170
0.424530 -0.002683 0.116874 170 170 170
0.424365 0.000007 0.116913 170 170 170
0.424147 0.002697 0.116963 170 170 170
0.423957 0.005388 0.117007 170 170 170
0.423766 0.008079 0.117051 170 170 170
0.423583 0.010770 0.117094 170 170 170
0.423479 0.013461 0.117118 170 170 170
0.423494 0.016152 0.117114 170 170 170
0.423550 0.018842 0.117101 171 171 171
0.423606 0.021533 0.117089 171 171 171
0.423564 0.024224 0.117098 171 171 171
0.423592 0.026914 0.117092 172 172 172
0.423619 0.029605 0.117085 172 172 172
0.423729 0.032294 0.117060 173 173 173
0.423757 0.034984 0.117054 173 173 173
0.423657 0.037676 0.117077 173 173 173
0.423556 0.040369 0.117100 173 173 173
0.423457 0.043061 0.117123 173 173 173
0.423344 0.045754 0.117149 173 173 173
0.423171 0.048448 0.117189 172 172 172
0.423011 0.051143 0.117226 172 172 172
0.422879 0.053837 0.117257 172 172 172
0.422747 0.056531 0.117287 172 172 172
0.422806 0.059221 0.117274 171 171 171
0.422879 0.061911 0.117257 171 171 171
0.422930 0.064602 0.117245 171 171 171
0.422981 0.067292 0.117233 171 171 171
0.423134 0.069979 0.117198 170 170 170
0.423027 0.072673 0.117222 169 169 169
0.422905 0.075368 0.117251 168 168 168
0.422771 0.078064 0.117282 168 168 168
0.422209 0.080773 0.117412 167 167 167
0.421310 0.083494 0.117620 166 166 166
0.420591 0.086212 0.117786 166 166 166
0.419872 0.088930 0.117953 165 165 165
0.418948 0.091658 0.118167 163 163 163
0.417698 0.094399 0.118456 163 163 163
0.416447 0.097144 0.118746 163 163 163
0.415146 0.099892 0.119047 163 163 163
0.413791 0.102646 0.119361 161 161 161
0.412335 0.105407 0.119698 160 160 160
0.410433 0.108189 0.120138 159 159 159
0.408518 0.110976 0.120582 159 159 159
0.406345 0.113778 0.121085 158 158 158
0.404167 0.116585 0.121589 158 158 158
0.401994 0.119397 0.122092 158 158 158
0.399974 0.122205 0.122560 158 158 158
0.397806 0.125026 0.123062 157 157 157
0.395605 0.127852 0.123572 157 157 157
0.393392 0.130683 0.124084 158 158 158
0.391675 0.133494 0.124482 159 159 159
0.389988 0.136307 0.124872 159 159 159
0.388344 0.139121 0.125253 159 159 159
0.386915 0.141926 0.125583 159 159 159
0.385381 0.144741 0.125939 159 159 159
0.383845 0.147559 0.126294 160 160 160
0.382288 0.150381 0.126655 160 160 160
0.380819 0.153201 0.126995 159 159 159
0.379257 0.156030 0.127357 159 159 159
0.377675 0.158864 0.127723 158 158 158
0.376034 0.161704 0.128103 157 157 157
0.374153 0.164563 0.128538 156 156 156
0.372396 0.167418 0.128945 155 155 155
0.370783 0.170268 0.129319 154 154 154
0.369012 0.173131 0.129729 153 153 153
0.366761 0.176030 0.130250 152 152 152
0.364198 0.178955 0.130843 152 152 152
0.361572 0.181890 0.131451 151 151 151
0.358828 0.184838 0.132086 151 151 151
0.356103 0.187792 0.132717 150 150 150
0.353446 0.190745 0.133333 150 150 150
0.351274 0.193669 0.133836 150 150 150
0.349294 0.196583 0.134294 151 151 151
0.347319 0.199501 0.134751 152 152 152
0.345351 0.202423 0.135207 154 154 154
0.343353 0.205350 0.135669 155 155 155
0.341352 0.208283 0.136133 157 157 157
0.339137 0.211236 0.136646 158 158 158
0.336557 0.214224 0.137243 160 160 160
0.334080 0.217209 0.137816 162 162 162
0.331977 0.220168 0.138303 164 164 164
0.329117 0.223194 0.138966 167 167 167
0.326320 0.226222 0.139613 169 169 169
0.323566 0.229252 0.140251 171 171 171
0.320992 0.232271 0.140847 172 172 172
0.318371 0.235301 0.141454 173 173 173
0.315182 0.238386 0.142192 174 174 174
0.312960 0.241391 0.142706 177 177 177
0.310843 0.244391 0.143197 177 177 177
0.308859 0.247383 0.143656 178 178 178
0.306995 0.250368 0.144088 178 178 178
0.305376 0.253334 0.144462 178 178 178
0.303828 0.256296 0.144821 178 178 178
0.302414 0.259249 0.145148 178 178 178
0.301029 0.262202 0.145469 178 178 178
0.299643 0.265158 0.145790 178 178 178
0.298256 0.268117 0.146111 178 178 178
0.297092 0.271057 0.146380 178 178 178
0.296061 0.273985 0.146619 178 178 178
0.295028 0.276916 0.146858 178 178 178
0.293995 0.279848 0.147097 178 178 178
0.292549 0.282827 0.147432 177 177 177
0.291008 0.285818 0.147789 177 177 177
0.289434 0.288817 0.148154 177 177 177
0.287317 0.291877 0.148643 177 177 177
0.284968 0.294967 0.149187 177 177 177
0.281975 0.298132 0.149880 176 176 176
0.278677 0.301338 0.150644 174 174 174
0.274077 0.304697 0.151709 172 172 172
0.268605 0.308165 0.152976 168 168 168
0.263932 0.311552 0.154058 163 163 163
0.258979 0.314982 0.155205 165 165 165
0.254588 0.318357 0.156221 164 164 164
0.251258 0.321616 0.156992 163 163 163
0.248166 0.324854 0.157708 163 163 163
0.245483 0.328049 0.158329 163 163 163
0.243230 0.331199 0.158851 164 164 164
0.241174 0.334329 0.159327 165 165 165
0.239452 0.337422 0.159726 164 164 164
0.238050 0.340480 0.160050 165 165 165
0.236643 0.343541 0.160376 165 165 165
0.235241 0.346604 0.160701 166 166 166
0.233952 0.349656 0.160999 167 167 167
0.232656 0.352711 0.161299 167 167 167
0.231358 0.355770 0.161600 168 168 168
0.230044 0.358833 0.161904 171 171 171
0.228714 0.361901 0.162212 170 170 170
0.227455 0.364963 0.162503 170 170 170
0.226086 0.368042 0.162821 171 171 171
0.224064 0.371211 0.163289 172 172 172
0.221622 0.374441 0.163854 173 173 173
0.219019 0.377699 0.164457 174 174 174
0.215304 0.381115 0.165317 176 176 176
0.211029 0.384616 0.166307 179 179 179
0.199519 0.389135 0.168971 184 184 184
0.130490 0.401763 0.184954 178 178 178
0.127221 0.405224 0.185711 179 179 179
0.123514 0.408754 0.186569 181 181 181
0.119628 0.412318 0.187469 183 183 183
0.113067 0.416277 0.188988 187 187 187
0.103707 0.420659 0.191155 192 192 192
0.103830 -0.417527 0.188026 190 190 190
0.117065 -0.412600 0.184976 181 181 181
0.127555 -0.408092 0.182559 179 179 179
0.137287 -0.403714 0.180316 179 179 179
0.145445 -0.399577 0.178436 180 180 180
0.151298 -0.395778 0.177087 181 181 181
0.156648 -0.392062 0.175854 184 184 184
0.193435 -0.384038 0.167376 195 195 195
0.210898 -0.378726 0.163352 182 182 182
0.221531 -0.374374 0.160901 179 179 179
0.229555 -0.370395 0.159052 177 177 177
0.235256 -0.366742 0.157738 175 175 175
0.239192 -0.363334 0.156831 173 173 173
0.243254 -0.359918 0.155895 175 175 175
0.246046 -0.356675 0.155252 174 174 174
0.248607 -0.353469 0.154662 173 173 173
0.251688 -0.350201 0.153952 172 172 172
0.254704 -0.346947 0.153256 173 173 173
0.257714 -0.343701 0.152563 174 174 174
0.260556 -0.340482 0.151908 174 174 174
0.263232 -0.337290 0.151291 175 175 175
0.266096 -0.334080 0.150631 175 175 175
0.269540 -0.330806 0.149838 175 175 175
0.273298 -0.327501 0.148971 177 177 177
0.278568 -0.324023 0.147757 178 178 178
0.285574 -0.320350 0.146142 179 179 179
0.291798 -0.316784 0.144708 178 178 178
0.297487 -0.313293 0.143397 178 178 178
0.303227 -0.309809 0.142074 179 179 179
0.307965 -0.306451 0.140982 176 176 176
0.311696 -0.303217 0.140122 175 175 175
0.314556 -0.300088 0.139463 175 175 175
0.316364 -0.297083 0.139047 175 175 175
0.318170 -0.294081 0.138630 175 175 175
0.319678 -0.291116 0.138283 175 175 175
0.320846 -0.288190 0.138014 174 174 174
0.322056 -0.285263 0.137735 174 174 174
0.323251 -0.282340 0.137460 174 174 174
0.324460 -0.279417 0.137181 174 174 174
0.325869 -0.276477 0.136856 174 174 174
0.327277 -0.273539 0.136532 174 174 174
0.328909 -0.270582 0.136156 174 174 174
0.330567 -0.267625 0.135774 174 174 174
0.332381 -0.264657 0.135355 173 173 173
0.334291 -0.261683 0.134915 173 173 173
0.336410 -0.258692 0.134427 173 173 173
0.338693 -0.255690 0.133901 173 173 173
0.340972 -0.252693 0.133376 173 173 173
0.343710 -0.249658 0.132745 174 174 174
0.346846 -0.246591 0.132022 174 174 174
0.349837 -0.243545 0.131333 174 174 174
0.353291 -0.240462 0.130537 174 174 174
0.356785 -0.237383 0.129731 173 173 173
0.361068 -0.234240 0.128744 174 174 174
0.365141 -0.231126 0.127806 174 174 174
0.369242 -0.228017 0.126861 174 174 174
0.373108 -0.224938 0.125970 175 175 175
0.376797 -0.221881 0.125120 177 177 177
0.380613 -0.218822 0.124240 177 177 177
0.384447 -0.215769 0.123357 178 178 178
0.388150 -0.212734 0.122503 178 178 178
0.391729 -0.209718 0.121679 178 178 178
0.395147 -0.206722 0.120891 179 179 179
0.398269 -0.203756 0.120171 180 180 180
0.401070 -0.200822 0.119526 180 180 180
0.403822 -0.197897 0.118892 179 179 179
0.406382 -0.194993 0.118302 177 177 177
0.408800 -0.192105 0.117744 177 177 177
0.411267 -0.189218 0.117176 177 177 177
0.413729 -0.186336 0.116608 177 177 177
0.415787 -0.183489 0.116134 176 176 176
0.417812 -0.180648 0.115667 174 174 174
0.419820 -0.177813 0.115205 173 173 173
0.421556 -0.175001 0.114805 172 172 172
0.423113 -0.172204 0.114446 171 171 171
0.424588 -0.169415 0.114106 170 170 170
0.426070 -0.166630 0.113764 170 170 170
0.427561 -0.163847 0.113421 170 170 170
0.428749 -0.161086 0.113147 169 169 169
0.429460 -0.158357 0.112983 169 169 169
0.430168 -0.155630 0.112820 169 169 169
0.430876 -0.152904 0.112657 169 169 169
0.431583 -0.150180 0.112494 168 168 168
0.432199 -0.147462 0.112352 169 169 169
0.432648 -0.144756 0.112248 168 168 168
0.433094 -0.142050 0.112146 168 168 168
0.433565 -0.139344 0.112037 169 169 169
0.434138 -0.136634 0.111905 169 169 169
0.434662 -0.133927 0.111784 169 169 169
0.435184 -0.131222 0.111664 168 168 168
0.435705 -0.128517 0.111544 168 168 168
0.436555 -0.125798 0.111348 167 167 167
0.437101 -0.123095 0.111222 167 167 167
0.437189 -0.120414 0.111202 167 167 167
0.437291 -0.117734 0.111178 167 167 167
0.437397 -0.115053 0.111154 167 167 167
0.437475 -0.112374 0.111136 168 168 168
0.437030 -0.109717 0.111239 168 168 168
0.436660 -0.107056 0.111324 168 168 168
0.436482 -0.104387 0.111365 168 168 168
0.436305 -0.101717 0.111406 168 168 168
0.435961 -0.099054 0.111485 168 168 168
0.435502 -0.096394 0.111591 168 168 168
0.434995 -0.093735 0.111708 169 169 169
0.434487 -0.091074 0.111825 169 169 169
0.434467 -0.088396 0.111829 168 168 168
0.434721 -0.085709 0.111771 168 168 168
0.434975 -0.083022 0.111712 167 167 167
0.435230 -0.080336 0.111653 167 167 167
0.435436 -0.077651 0.111606 166 166 166
0.435492 -0.074972 0.111593 166 166 166
0.435548 -0.072292 0.111580 166 166 166
0.435604 -0.069613 0.111567 165 165 165
0.435659 -0.066934 0.111555 166 166 166
0.435472 -0.064261 0.111598 165 165 165
0.435257 -0.061588 0.111647 164 164 164
0.435044 -0.058915 0.111696 164 164 164
0.434832 -0.056242 0.111745 163 163 163
0.434437 -0.053571 0.111836 163 163 163
0.433888 -0.050903 0.111963 163 163 163
0.433339 -0.048234 0.112089 163 163 163
0.432804 -0.045564 0.112213 163 163 163
0.432263 -0.042892 0.112337 164 164 164
0.431693 -0.040220 0.112469 164 164 164
0.430970 -0.037549 0.112635 164 164 164
0.430176 -0.034877 0.112818 165 165 165
0.429482 -0.032202 0.112978 165 165 165
0.428937 -0.029525 0.113104 165 165 165
0.428392 -0.026846 0.113229 166 166 166
0.427847 -0.024166 0.113355 166 166 166
0.427262 -0.021485 0.113490 166 166 166
0.426760 -0.018802 0.113605 167 167 167
0.426243 -0.016118 0.113725 168 168 168
0.425784 -0.013433 0.113830 169 169 169
0.425351 -0.010747 0.113930 170 170 170
0.425197 -0.008059 0.113966 171 171 171
0.425071 -0.005371 0.113995 170 170 170
0.424944 -0.002682 0.114024 170 170 170
0.424818 0.000007 0.114053 171 171 171
0.424584 0.002696 0.114107 171 171 171
0.424336 0.005386 0.114164 170 170 170
0.424104 0.008076 0.114218 170 170 170
0.423914 0.010767 0.114261 170 170 170
0.423787 0.013457 0.114291 171 171 171
0.423843 0.016147 0.114278 171 171 171
0.423899 0.018837 0.114265 171 171 171
0.423982 0.021526 0.114246 172 172 172
0.424149 0.024214 0.114207 172 172 172
0.424283 0.026902 0.114176 173 173 173
0.424380 0.029591 0.114154 173 173 173
0.424444 0.032280 0.114139 173 173 173
0.424508 0.034968 0.114125 173 173 173
0.424366 0.037659 0.114157 173 173 173
0.424249 0.040351 0.114184 173 173 173
0.424149 0.043042 0.114207 173 173 173
0.424049 0.045734 0.114230 173 173 173
0.423896 0.048426 0.114266 172 172 172
0.423723 0.051120 0.114305 172 172 172
0.423551 0.053813 0.114345 172 172 172
0.423397 0.056507 0.114381 172 172 172
0.423366 0.059198 0.114388 172 172 172
0.423421 0.061888 0.114375 172 172 172
0.423471 0.064577 0.114363 171 171 171
0.423491 0.067267 0.114359 171 171 171
0.423447 0.069958 0.114369 170 170 170
0.423318 0.072652 0.114399 169 169 169
0.423184 0.075347 0.114430 168 168 168
0.423015 0.078043 0.114469 168 168 168
0.422637 0.080745 0.114556 167 167 167
0.421608 0.083470 0.114793 166 166 166
0.420535 0.086199 0.115040 165 165 165
0.419697 0.088921 0.115233 165 165 165
0.418965 0.091642 0.115402 164 164 164
0.417716 0.094383 0.115690 163 163 163
0.416405 0.097128 0.115992 163 163 163
0.414992 0.099881 0.116318 162 162 162
0.413562 0.102637 0.116647 161 161 161
0.412058 0.105400 0.116994 160 160 160
0.410117 0.108184 0.117441 159 159 159
0.408212 0.110970 0.117880 159 159 159
0.406091 0.113770 0.118369 158 158 158
0.403907 0.116577 0.118872 158 158 158
0.401721 0.119389 0.119376 158 158 158
0.399568 0.122203 0.119872 157 157 157
0.397350 0.125026 0.120383 158 158 158
0.395121 0.127854 0.120897 158 158 158
0.392962 0.130682 0.121395 159 159 159
0.391333 0.133489 0.121770 159 159 159
0.389651 0.136301 0.122158 159 159 159
0.388020 0.139114 0.122533 160 160 160
0.386648 0.141916 0.122850 160 160 160
0.385114 0.144731 0.123203 160 160 160
0.383578 0.147548 0.123557 160 160 160
0.382085 0.150367 0.123901 160 160 160
0.380424 0.153198 0.124284 160 160 160
0.378734 0.156035 0.124673 159 159 159
0.377151 0.158868 0.125038 159 159 159
