ply
format ascii 1.0
element vertex 1188
property float x
property float y
property float z
property uchar red
property uchar green
property uchar blue
end_header
0.227480 0.099155 -0.381285 138 138 138
0.225807 0.101403 -0.381273 138 138 138
0.223863 0.103491 -0.381251 139 139 139
0.221919 0.105581 -0.381229 140 140 140
0.219973 0.107672 -0.381207 140 140 140
0.217998 0.109747 -0.381183 140 140 140
0.216091 0.111863 -0.381162 140 140 140
0.214060 0.113908 -0.381137 141 141 141
0.212027 0.115955 -0.381111 141 141 141
0.210024 0.118019 -0.381087 141 141 141
0.208031 0.120092 -0.381063 141 141 141
0.206094 0.122199 -0.381041 141 141 141
0.204275 0.124374 -0.381024 142 142 142
0.202484 0.126568 -0.381008 141 141 141
0.200696 0.128763 -0.380992 141 141 141
0.198933 0.130974 -0.380978 141 141 141
0.197340 0.133283 -0.380970 140 140 140
0.195752 0.135595 -0.380962 140 140 140
0.194164 0.137907 -0.380954 140 140 140
0.192576 0.140221 -0.380947 140 140 140
0.190932 0.142503 -0.380937 140 140 140
0.189327 0.144807 -0.380929 140 140 140
0.187726 0.147115 -0.380921 140 140 140
0.186124 0.149423 -0.380912 139 139 139
0.184522 0.151731 -0.380904 139 139 139
0.182803 0.153974 -0.380891 138 138 138
0.180807 0.156064 -0.380868 138 138 138
0.178795 0.158147 -0.380843 138 138 138
0.176477 0.160062 -0.380807 138 138 138
0.173936 0.161857 -0.380761 138 138 138
0.171105 0.163495 -0.380704 138 138 138
0.168496 0.165259 -0.380656 138 138 138
0.165886 0.167025 -0.380608 138 138 138
0.162633 0.168443 -0.380535 138 138 138
0.159223 0.169780 -0.380455 138 138 138
0.155337 0.170864 -0.380357 138 138 138
0.151714 0.172097 -0.380269 138 138 138
0.148287 0.173442 -0.380189 138 138 138
0.144864 0.174794 -0.380109 138 138 138
0.141763 0.176325 -0.380042 138 138 138
0.138910 0.177994 -0.379985 138 138 138
0.136406 0.179854 -0.379942 138 138 138
0.134533 0.182053 -0.379924 138 138 138
0.132658 0.184254 -0.379905 138 138 138
0.130782 0.186455 -0.379887 138 138 138
0.128906 0.188656 -0.379869 138 138 138
0.127206 0.190953 -0.379858 138 138 138
0.125612 0.193306 -0.379851 138 138 138
0.124018 0.195659 -0.379843 138 138 138
0.122066 0.197826 -0.379822 138 138 138
0.120070 0.199970 -0.379799 138 138 138
0.118031 0.202093 -0.379775 138 138 138
0.115990 0.204217 -0.379750 138 138 138
0.113896 0.206315 -0.379724 138 138 138
0.111866 0.208447 -0.379700 138 138 138
0.109618 0.210469 -0.379667 138 138 138
0.107212 0.212410 -0.379628 138 138 138
0.104757 0.214330 -0.379587 138 138 138
0.102243 0.216221 -0.379545 138 138 138
0.099727 0.218115 -0.379502 138 138 138
0.096830 0.219816 -0.379444 138 138 138
0.093460 0.221279 -0.379368 138 138 138
0.089447 0.222421 -0.379266 138 138 138
0.085079 0.223389 -0.379151 138 138 138
0.080324 0.224168 -0.379021 138 138 138
0.074177 0.224252 -0.378837 138 138 138
0.067879 0.224272 -0.378647 138 138 138
0.061783 0.224407 -0.378466 138 138 138
0.055921 0.224670 -0.378293 138 138 138
0.050493 0.225161 -0.378138 138 138 138
0.045001 0.225631 -0.377981 138 138 138
0.039345 0.226030 -0.377817 138 138 138
0.033777 0.226482 -0.377657 138 138 138
0.026940 0.226318 -0.377447 138 138 138
0.019319 0.225779 -0.377208 138 138 138
-0.044976 0.197341 -0.374771 138 138 138
0.092703 -0.200556 -0.375025 140 140 140
0.099589 -0.192208 -0.375368 139 139 139
0.111683 -0.180362 -0.375923 138 138 138
0.182633 -0.128845 -0.378874 138 138 138
0.190170 -0.120235 -0.379241 138 138 138
0.195260 -0.113295 -0.379508 138 138 138
0.198336 -0.107724 -0.379692 138 138 138
0.200846 -0.102544 -0.379853 138 138 138
0.203497 -0.097282 -0.380020 138 138 138
0.206164 -0.092022 -0.380187 138 138 138
0.207922 -0.087378 -0.380318 138 138 138
0.209817 -0.082652 -0.380453 138 138 138
0.211726 -0.077927 -0.380589 138 138 138
0.213718 -0.073156 -0.380728 138 138 138
0.216223 -0.068058 -0.380888 138 138 138
0.218795 -0.062927 -0.381050 138 138 138
0.220746 -0.058215 -0.381187 138 138 138
0.222536 -0.053618 -0.381317 138 138 138
0.224589 -0.048859 -0.381458 138 138 138
0.226142 -0.044436 -0.381578 138 138 138
0.227460 -0.040174 -0.381689 138 138 138
0.228732 -0.035949 -0.381798 138 138 138
0.229658 -0.031957 -0.381893 138 138 138
0.231102 -0.027636 -0.382008 138 138 138
0.232082 -0.023623 -0.382105 140 140 140
0.233242 -0.019501 -0.382209 141 141 141
0.234319 -0.015439 -0.382309 142 142 142
0.235324 -0.011431 -0.382406 143 143 143
0.236494 -0.007324 -0.382510 144 144 144
0.237601 -0.003266 -0.382611 144 144 144
0.238163 0.000440 -0.382690 144 144 144
0.238608 0.004066 -0.382765 144 144 144
0.239052 0.007685 -0.382839 143 143 143
0.239335 0.011198 -0.382907 143 143 143
0.239145 0.014409 -0.382956 142 142 142
0.238956 0.017615 -0.383004 140 140 140
0.238738 0.020802 -0.383052 140 140 140
0.238398 0.023907 -0.383094 140 140 140
0.238006 0.026978 -0.383135 140 140 140
0.237686 0.030090 -0.383178 139 139 139
0.237406 0.033224 -0.383223 138 138 138
0.237338 0.036487 -0.383276 138 138 138
0.237263 0.039741 -0.383329 138 138 138
0.237188 0.042992 -0.383382 138 138 138
0.237187 0.046284 -0.383438 138 138 138
0.237373 0.049688 -0.383501 138 138 138
0.237579 0.053099 -0.383565 138 138 138
0.237704 0.056457 -0.383625 138 138 138
0.237558 0.059644 -0.383675 138 138 138
0.237397 0.062820 -0.383724 138 138 138
0.237240 0.065994 -0.383773 138 138 138
0.236899 0.069053 -0.383815 138 138 138
0.236347 0.071982 -0.383848 138 138 138
0.235796 0.074908 -0.383881 138 138 138
0.235245 0.077833 -0.383915 138 138 138
0.234637 0.080720 -0.383946 138 138 138
0.233756 0.083443 -0.383966 138 138 138
0.232867 0.086159 -0.383986 138 138 138
0.231978 0.088873 -0.384006 138 138 138
0.230966 0.091513 -0.384021 138 138 138
0.229521 0.093895 -0.384019 138 138 138
0.228078 0.096278 -0.384017 138 138 138
0.226606 0.098644 -0.384014 138 138 138
0.225119 0.101002 -0.384010 138 138 138
0.223233 0.103125 -0.383991 139 139 139
0.221259 0.105198 -0.383968 139 139 139
0.219269 0.107263 -0.383944 140 140 140
0.217364 0.109379 -0.383924 140 140 140
0.215584 0.111569 -0.383909 141 141 141
0.213558 0.113618 -0.383885 141 141 141
0.211535 0.115670 -0.383860 141 141 141
0.209543 0.117742 -0.383837 141 141 141
0.207574 0.119829 -0.383814 141 141 141
0.205658 0.121947 -0.383794 141 141 141
0.203844 0.124126 -0.383778 141 141 141
0.202053 0.126319 -0.383762 141 141 141
0.200270 0.128517 -0.383747 141 141 141
0.198507 0.130728 -0.383733 141 141 141
0.196827 0.132988 -0.383722 140 140 140
0.195239 0.135300 -0.383715 140 140 140
0.193627 0.137599 -0.383706 140 140 140
0.192002 0.139891 -0.383697 140 140 140
0.190376 0.142184 -0.383689 140 140 140
0.188697 0.144447 -0.383678 140 140 140
0.187014 0.146709 -0.383667 140 140 140
0.185331 0.148971 -0.383656 139 139 139
0.183658 0.151240 -0.383645 139 139 139
0.181989 0.153512 -0.383634 138 138 138
0.179920 0.155563 -0.383608 138 138 138
0.177626 0.157490 -0.383574 138 138 138
0.175096 0.159289 -0.383530 138 138 138
0.172564 0.161089 -0.383486 138 138 138
0.169935 0.162840 -0.383439 138 138 138
0.167099 0.164480 -0.383384 138 138 138
0.164141 0.166057 -0.383324 138 138 138
0.160930 0.167500 -0.383254 138 138 138
0.157138 0.168630 -0.383162 138 138 138
0.153117 0.169643 -0.383061 138 138 138
0.149293 0.170769 -0.382968 138 138 138
0.145966 0.172171 -0.382894 138 138 138
0.143115 0.173835 -0.382839 138 138 138
0.140243 0.175491 -0.382783 138 138 138
0.137368 0.177149 -0.382726 138 138 138
0.134941 0.179051 -0.382687 138 138 138
0.133067 0.181252 -0.382670 138 138 138
0.131213 0.183465 -0.382653 138 138 138
0.129511 0.185760 -0.382642 138 138 138
0.127902 0.188105 -0.382634 138 138 138
0.126297 0.190452 -0.382627 138 138 138
0.124702 0.192805 -0.382620 138 138 138
0.122998 0.195102 -0.382609 138 138 138
0.121020 0.197255 -0.382587 138 138 138
0.119041 0.199409 -0.382566 138 138 138
0.117029 0.201547 -0.382543 138 138 138
0.115158 0.203760 -0.382526 138 138 138
0.113267 0.205964 -0.382508 138 138 138
0.111250 0.208104 -0.382485 138 138 138
0.109201 0.210229 -0.382461 138 138 138
0.106794 0.212170 -0.382423 138 138 138
0.104304 0.214071 -0.382382 138 138 138
0.101769 0.215952 -0.382340 138 138 138
0.099143 0.217789 -0.382294 138 138 138
0.096512 0.219627 -0.382248 138 138 138
0.092997 0.221016 -0.382168 138 138 138
0.088638 0.221981 -0.382057 138 138 138
0.084320 0.222975 -0.381947 138 138 138
0.078336 0.223132 -0.381774 138 138 138
0.071951 0.223098 -0.381586 138 138 138
0.065722 0.223155 -0.381405 138 138 138
0.059710 0.223334 -0.381232 138 138 138
0.054096 0.223724 -0.381074 138 138 138
0.048639 0.224203 -0.380922 138 138 138
0.043104 0.224653 -0.380767 138 138 138
0.037585 0.225121 -0.380613 138 138 138
0.032159 0.225646 -0.380463 138 138 138
0.025135 0.225390 -0.380253 138 138 138
0.016875 0.224537 -0.379996 138 138 138
-0.048566 0.195537 -0.377587 138 138 138
0.088006 -0.203702 -0.377870 139 139 139
0.095839 -0.194706 -0.378241 141 141 141
0.102971 -0.186211 -0.378583 139 139 139
0.171922 -0.136031 -0.381368 138 138 138
0.186409 -0.122727 -0.381999 138 138 138
0.191901 -0.115511 -0.382273 138 138 138
0.195776 -0.109401 -0.382484 138 138 138
0.198139 -0.104317 -0.382635 138 138 138
0.200433 -0.099290 -0.382782 138 138 138
0.203090 -0.094033 -0.382944 138 138 138
0.204971 -0.089303 -0.383075 138 138 138
0.206800 -0.084617 -0.383204 138 138 138
0.208647 -0.079929 -0.383334 138 138 138
0.210557 -0.075209 -0.383466 138 138 138
0.212536 -0.070453 -0.383600 138 138 138
0.214802 -0.065519 -0.383746 138 138 138
0.217188 -0.060516 -0.383896 138 138 138
0.219085 -0.055845 -0.384026 138 138 138
0.221213 -0.051033 -0.384166 138 138 138
0.223240 -0.046296 -0.384301 138 138 138
0.224872 -0.041826 -0.384421 138 138 138
0.226424 -0.037417 -0.384538 138 138 138
0.227505 -0.033321 -0.384636 138 138 138
0.229007 -0.028961 -0.384750 138 138 138
0.230477 -0.024630 -0.384863 138 138 138
0.231493 -0.020599 -0.384958 138 138 138
0.232661 -0.016477 -0.385059 139 139 139
0.233801 -0.012381 -0.385158 140 140 140
0.234944 -0.008290 -0.385258 141 141 141
0.236023 -0.004247 -0.385355 142 142 142
0.236664 -0.000490 -0.385435 143 143 143
0.237030 0.003088 -0.385504 142 142 142
0.237390 0.006656 -0.385573 142 142 142
0.237766 0.010230 -0.385643 142 142 142
0.237781 0.013570 -0.385698 141 141 141
0.237592 0.016779 -0.385745 140 140 140
0.237359 0.019957 -0.385791 140 140 140
0.237113 0.023122 -0.385836 140 140 140
0.236694 0.026177 -0.385874 140 140 140
0.236275 0.029229 -0.385912 140 140 140
0.235921 0.032319 -0.385953 139 139 139
0.235698 0.035487 -0.385999 138 138 138
0.235714 0.038799 -0.386053 138 138 138
0.235730 0.042108 -0.386108 138 138 138
0.235677 0.045370 -0.386160 138 138 138
0.235810 0.048742 -0.386219 138 138 138
0.236017 0.052156 -0.386281 138 138 138
0.236083 0.055479 -0.386338 138 138 138
0.236043 0.058733 -0.386390 138 138 138
0.235860 0.061896 -0.386437 138 138 138
0.235680 0.065058 -0.386484 138 138 138
0.235482 0.068205 -0.386530 138 138 138
0.234980 0.071165 -0.386564 138 138 138
0.234429 0.074093 -0.386596 138 138 138
0.233843 0.076999 -0.386627 138 138 138
0.233248 0.079896 -0.386658 138 138 138
0.232443 0.082665 -0.386681 138 138 138
0.231558 0.085384 -0.386700 138 138 138
0.230669 0.088100 -0.386719 138 138 138
0.229780 0.090815 -0.386739 138 138 138
0.228525 0.093310 -0.386744 138 138 138
0.227081 0.095693 -0.386742 138 138 138
0.225637 0.098077 -0.386740 138 138 138
0.224194 0.100461 -0.386738 138 138 138
0.222542 0.102723 -0.386728 139 139 139
0.220552 0.104787 -0.386706 139 139 139
0.218561 0.106851 -0.386683 140 140 140
0.216729 0.109011 -0.386666 140 140 140
0.214949 0.111202 -0.386652 141 141 141
0.213057 0.113329 -0.386633 141 141 141
0.211055 0.115393 -0.386610 141 141 141
0.209139 0.117508 -0.386590 141 141 141
0.207224 0.119626 -0.386570 141 141 141
0.205308 0.121745 -0.386551 141 141 141
0.203423 0.123883 -0.386532 141 141 141
0.201622 0.126070 -0.386517 141 141 141
0.199844 0.128271 -0.386502 141 141 141
0.198081 0.130483 -0.386489 141 141 141
0.196353 0.132715 -0.386476 140 140 140
0.194671 0.134973 -0.386465 140 140 140
0.193046 0.137265 -0.386457 140 140 140
0.191421 0.139558 -0.386448 139 139 139
0.189795 0.141851 -0.386440 139 139 139
0.188144 0.144130 -0.386430 139 139 139
0.186462 0.146393 -0.386419 139 139 139
0.184778 0.148655 -0.386409 139 139 139
0.182921 0.150821 -0.386391 138 138 138
0.180967 0.152935 -0.386370 138 138 138
0.178775 0.154917 -0.386341 138 138 138
0.176246 0.156715 -0.386298 138 138 138
0.173714 0.158515 -0.386256 138 138 138
0.171196 0.160324 -0.386214 138 138 138
0.168717 0.162159 -0.386174 138 138 138
0.165657 0.163677 -0.386111 138 138 138
0.162520 0.165157 -0.386047 138 138 138
0.159010 0.166438 -0.385968 138 138 138
0.155049 0.167479 -0.385872 138 138 138
0.151066 0.168514 -0.385776 138 138 138
0.147552 0.169811 -0.385697 138 138 138
0.144410 0.171314 -0.385633 138 138 138
0.141540 0.172969 -0.385578 138 138 138
0.138666 0.174626 -0.385524 138 138 138
0.135912 0.176351 -0.385474 138 138 138
0.133634 0.178334 -0.385441 138 138 138
0.131848 0.180583 -0.385427 138 138 138
0.130220 0.182918 -0.385419 138 138 138
0.128611 0.185263 -0.385412 138 138 138
0.127001 0.187608 -0.385405 138 138 138
0.125390 0.189953 -0.385398 138 138 138
0.123792 0.192305 -0.385391 138 138 138
0.121952 0.194530 -0.385375 138 138 138
0.119973 0.196684 -0.385354 138 138 138
0.118185 0.198939 -0.385340 139 139 139
0.116390 0.201191 -0.385326 139 139 139
0.114446 0.203366 -0.385307 138 138 138
0.112573 0.205580 -0.385290 138 138 138
0.110612 0.207749 -0.385270 138 138 138
0.108600 0.209893 -0.385248 138 138 138
0.106362 0.211922 -0.385217 139 139 139
0.103777 0.213775 -0.385174 138 138 138
0.101153 0.215610 -0.385130 138 138 138
0.098539 0.217453 -0.385086 138 138 138
0.095937 0.219306 -0.385042 138 138 138
0.092393 0.220681 -0.384964 138 138 138
0.088171 0.221716 -0.384861 138 138 138
0.082936 0.222244 -0.384720 138 138 138
0.076385 0.222115 -0.384532 138 138 138
0.069723 0.221943 -0.384340 138 138 138
0.063706 0.222109 -0.384171 138 138 138
0.057970 0.222429 -0.384013 138 138 138
0.052378 0.222831 -0.383861 138 138 138
0.046830 0.223266 -0.383710 138 138 138
0.041386 0.223764 -0.383564 138 138 138
0.036001 0.224300 -0.383419 138 138 138
0.030419 0.224749 -0.383268 138 138 138
0.023352 0.224473 -0.383062 138 138 138
0.009951 0.221083 -0.382625 138 138 138
0.083601 -0.206649 -0.380737 100 100 100
0.092608 -0.196851 -0.381142 141 141 141
0.099428 -0.188564 -0.381461 142 142 142
0.107981 -0.179131 -0.381847 139 139 139
0.182573 -0.125269 -0.384761 138 138 138
0.189276 -0.117236 -0.385074 138 138 138
0.193211 -0.111081 -0.385280 138 138 138
0.195793 -0.105848 -0.385435 138 138 138
0.197570 -0.101164 -0.385558 138 138 138
0.200009 -0.096047 -0.385707 138 138 138
0.201945 -0.091278 -0.385836 138 138 138
0.203850 -0.086538 -0.385964 138 138 138
0.205678 -0.081858 -0.386089 138 138 138
0.207501 -0.077192 -0.386214 138 138 138
0.209293 -0.072556 -0.386337 138 138 138
0.211353 -0.067753 -0.386470 138 138 138
0.213422 -0.062954 -0.386604 138 138 138
0.215561 -0.058119 -0.386740 138 138 138
0.217709 -0.053289 -0.386876 138 138 138
0.219973 -0.048394 -0.387016 138 138 138
0.221891 -0.043734 -0.387143 138 138 138
0.223697 -0.039157 -0.387266 138 138 138
0.225298 -0.034721 -0.387380 138 138 138
0.226709 -0.030417 -0.387488 138 138 138
0.228116 -0.026124 -0.387595 138 138 138
0.229290 -0.021989 -0.387693 138 138 138
0.230327 -0.017948 -0.387786 138 138 138
0.231415 -0.013882 -0.387881 138 138 138
0.232874 -0.009587 -0.387989 138 138 138
0.233966 -0.005533 -0.388084 139 139 139
0.234866 -0.001609 -0.388171 140 140 140
0.235353 0.002047 -0.388243 141 141 141
0.235714 0.005618 -0.388310 140 140 140
0.236100 0.009199 -0.388377 141 141 141
0.236416 0.012732 -0.388442 141 141 141
0.236219 0.015937 -0.388488 140 140 140
0.235979 0.019111 -0.388532 140 140 140
0.235739 0.022282 -0.388576 140 140 140
0.235409 0.025394 -0.388616 140 140 140
0.235010 0.028460 -0.388654 140 140 140
0.234614 0.031524 -0.388692 140 140 140
0.234392 0.034694 -0.388736 139 139 139
0.234359 0.037978 -0.388788 138 138 138
0.234376 0.041288 -0.388841 138 138 138
0.234281 0.044525 -0.388890 138 138 138
0.234245 0.047795 -0.388941 138 138 138
0.234444 0.051206 -0.389000 138 138 138
0.234460 0.054500 -0.389053 138 138 138
0.234475 0.057789 -0.389106 138 138 138
0.234345 0.060986 -0.389153 138 138 138
0.234164 0.064149 -0.389199 138 138 138
0.234009 0.067324 -0.389245 138 138 138
0.233586 0.070333 -0.389281 138 138 138
0.232947 0.073210 -0.389309 138 138 138
0.232352 0.076110 -0.389339 138 138 138
0.231757 0.079009 -0.389369 138 138 138
0.231116 0.081878 -0.389397 138 138 138
0.230233 0.084600 -0.389416 138 138 138
0.229350 0.087321 -0.389435 138 138 138
0.228467 0.090040 -0.389454 138 138 138
0.227528 0.092725 -0.389471 138 138 138
0.226085 0.095110 -0.389469 138 138 138
0.224644 0.097496 -0.389467 138 138 138
0.223203 0.099882 -0.389465 138 138 138
0.221714 0.102240 -0.389462 138 138 138
0.219844 0.104375 -0.389444 139 139 139
0.217873 0.106452 -0.389423 139 139 139
0.216094 0.108643 -0.389409 140 140 140
0.214314 0.110834 -0.389395 141 141 141
0.212511 0.113013 -0.389380 141 141 141
0.210678 0.115175 -0.389363 141 141 141
0.208788 0.117306 -0.389345 141 141 141
0.206873 0.119424 -0.389326 141 141 141
0.204957 0.121542 -0.389307 141 141 141
0.203046 0.123665 -0.389288 141 141 141
0.201191 0.125821 -0.389271 141 141 141
0.199435 0.128035 -0.389258 141 141 141
0.197748 0.130290 -0.389248 141 141 141
0.196059 0.132544 -0.389237 140 140 140
0.194361 0.134794 -0.389226 140 140 140
0.192656 0.137041 -0.389215 139 139 139
0.190952 0.139288 -0.389203 139 139 139
0.189246 0.141536 -0.389192 139 139 139
0.187587 0.143811 -0.389183 139 139 139
0.185788 0.146008 -0.389168 139 139 139
0.183866 0.148137 -0.389149 138 138 138
0.181949 0.150271 -0.389130 138 138 138
0.180029 0.152404 -0.389111 138 138 138
0.177844 0.154391 -0.389082 138 138 138
0.175371 0.156221 -0.389043 138 138 138
0.172895 0.158052 -0.389004 138 138 138
0.170328 0.159835 -0.388962 138 138 138
0.167582 0.161523 -0.388913 138 138 138
0.164126 0.162825 -0.388838 138 138 138
0.160635 0.164112 -0.388763 138 138 138
0.156981 0.165317 -0.388681 138 138 138
0.153017 0.166358 -0.388588 138 138 138
0.149588 0.167696 -0.388515 138 138 138
0.146295 0.169115 -0.388447 138 138 138
0.143019 0.170547 -0.388379 138 138 138
0.139964 0.172103 -0.388320 138 138 138
0.137137 0.173786 -0.388269 138 138 138
0.134691 0.175679 -0.388232 138 138 138
0.132817 0.177880 -0.388215 138 138 138
0.131200 0.180220 -0.388208 139 139 139
0.129517 0.182525 -0.388198 139 139 139
0.127843 0.184836 -0.388188 139 139 139
0.126169 0.187147 -0.388179 139 139 139
0.124494 0.189459 -0.388170 139 139 139
0.122881 0.191804 -0.388163 139 139 139
0.121053 0.194036 -0.388148 140 140 140
0.119296 0.196307 -0.388135 140 140 140
0.117539 0.198578 -0.388123 139 139 139
0.115781 0.200850 -0.388111 139 139 139
0.113879 0.203048 -0.388093 139 139 139
0.111900 0.205207 -0.388073 139 139 139
0.109966 0.207390 -0.388055 139 139 139
0.107958 0.209537 -0.388033 139 139 139
0.105883 0.211650 -0.388010 138 138 138
0.103297 0.213502 -0.387968 138 138 138
0.100699 0.215351 -0.387926 138 138 138
0.098099 0.217201 -0.387884 138 138 138
0.095215 0.218910 -0.387831 138 138 138
0.091859 0.220381 -0.387762 138 138 138
0.086702 0.220941 -0.387629 138 138 138
0.081421 0.221446 -0.387491 138 138 138
0.074683 0.221224 -0.387302 138 138 138
0.067804 0.220944 -0.387108 138 138 138
0.061969 0.221204 -0.386951 138 138 138
0.056228 0.221523 -0.386798 138 138 138
0.050658 0.221938 -0.386651 138 138 138
0.045253 0.222446 -0.386510 138 138 138
0.039858 0.222969 -0.386370 138 138 138
0.034416 0.223479 -0.386228 138 138 138
0.028642 0.223834 -0.386074 138 138 138
0.020611 0.223082 -0.385841 138 138 138
-0.038750 0.196998 -0.383789 138 138 138
0.089739 -0.198752 -0.384063 140 140 140
0.096467 -0.190523 -0.384369 142 142 142
0.104072 -0.181727 -0.384708 139 139 139
0.111259 -0.173238 -0.385030 138 138 138
0.186130 -0.119310 -0.387861 138 138 138
0.190404 -0.112924 -0.388073 138 138 138
0.193266 -0.107500 -0.388233 138 138 138
0.195285 -0.102651 -0.388362 138 138 138
0.196865 -0.098104 -0.388474 138 138 138
0.198646 -0.093434 -0.388594 138 138 138
0.200506 -0.088720 -0.388716 138 138 138
0.202333 -0.084036 -0.388837 138 138 138
0.204072 -0.079421 -0.388955 138 138 138
0.205887 -0.074766 -0.389075 138 138 138
0.207631 -0.070166 -0.389192 138 138 138
0.209663 -0.065387 -0.389320 138 138 138
0.211624 -0.060663 -0.389445 138 138 138
0.213646 -0.055911 -0.389573 138 138 138
0.215886 -0.051026 -0.389708 138 138 138
0.217914 -0.046289 -0.389835 138 138 138
0.219862 -0.041615 -0.389959 138 138 138
0.221764 -0.036980 -0.390081 138 138 138
0.223655 -0.032361 -0.390203 138 138 138
0.225265 -0.027934 -0.390314 138 138 138
0.226673 -0.023644 -0.390418 138 138 138
0.227761 -0.019568 -0.390510 138 138 138
0.228920 -0.015454 -0.390604 138 138 138
0.230492 -0.011083 -0.390713 138 138 138
0.231853 -0.006855 -0.390815 138 138 138
0.232983 -0.002782 -0.390908 138 138 138
0.233656 0.000994 -0.390984 139 139 139
0.234042 0.004582 -0.391050 139 139 139
0.234433 0.008169 -0.391115 139 139 139
0.234824 0.011750 -0.391181 139 139 139
0.234834 0.015086 -0.391233 139 139 139
0.234520 0.018216 -0.391272 139 139 139
0.234207 0.021343 -0.391312 139 139 139
0.234113 0.024603 -0.391360 140 140 140
0.233779 0.027711 -0.391399 140 140 140
0.233380 0.030775 -0.391436 140 140 140
0.233154 0.033943 -0.391478 140 140 140
0.233003 0.037155 -0.391524 139 139 139
0.233001 0.040455 -0.391575 139 139 139
0.232884 0.043680 -0.391621 139 139 139
0.232766 0.046902 -0.391668 139 139 139
0.232819 0.050224 -0.391720 139 139 139
0.232835 0.053520 -0.391772 138 138 138
0.232942 0.056867 -0.391826 138 138 138
0.232904 0.060121 -0.391875 138 138 138
0.232764 0.063310 -0.391921 138 138 138
0.232610 0.066487 -0.391966 138 138 138
0.232168 0.069487 -0.392000 138 138 138
0.231577 0.072394 -0.392029 138 138 138
0.230929 0.075264 -0.392056 138 138 138
0.230281 0.078132 -0.392083 138 138 138
0.229670 0.081020 -0.392111 138 138 138
0.228905 0.083814 -0.392134 138 138 138
0.228022 0.086536 -0.392152 138 138 138
0.227120 0.089246 -0.392170 138 138 138
0.226216 0.091952 -0.392187 138 138 138
0.225058 0.094507 -0.392196 138 138 138
0.223652 0.096915 -0.392195 138 138 138
0.222211 0.099302 -0.392194 138 138 138
0.220765 0.101686 -0.392192 138 138 138
0.219135 0.103963 -0.392183 139 139 139
0.217239 0.106084 -0.392166 139 139 139
0.215413 0.108247 -0.392150 140 140 140
0.213533 0.110381 -0.392133 140 140 140
0.211779 0.112588 -0.392120 141 141 141
0.210053 0.114813 -0.392108 140 140 140
0.208200 0.116966 -0.392092 140 140 140
0.206347 0.119120 -0.392076 140 140 140
0.204493 0.121274 -0.392059 140 140 140
0.202638 0.123429 -0.392043 140 140 140
0.200858 0.125629 -0.392029 140 140 140
0.199139 0.127864 -0.392018 141 141 141
0.197453 0.130119 -0.392008 140 140 140
0.195765 0.132374 -0.391997 140 140 140
0.194072 0.134626 -0.391987 139 139 139
0.192367 0.136872 -0.391976 139 139 139
0.190663 0.139120 -0.391965 139 139 139
0.188911 0.141342 -0.391953 139 139 139
0.186956 0.143450 -0.391933 139 139 139
0.184918 0.145514 -0.391910 138 138 138
0.183002 0.147647 -0.391892 138 138 138
0.181085 0.149781 -0.391874 138 138 138
0.179042 0.151846 -0.391851 138 138 138
0.176917 0.153868 -0.391826 138 138 138
0.174584 0.155776 -0.391793 138 138 138
0.171926 0.157506 -0.391748 138 138 138
0.169265 0.159238 -0.391704 138 138 138
0.166241 0.160774 -0.391647 138 138 138
0.162697 0.162029 -0.391572 138 138 138
0.158804 0.163098 -0.391484 138 138 138
0.155153 0.164305 -0.391405 138 138 138
0.151726 0.165641 -0.391334 138 138 138
0.148294 0.166979 -0.391263 138 138 138
0.145010 0.168403 -0.391198 138 138 138
0.141741 0.169840 -0.391133 138 138 138
0.138467 0.171280 -0.391067 138 138 138
0.136277 0.173308 -0.391040 138 138 138
0.134214 0.175406 -0.391017 138 138 138
0.132285 0.177578 -0.390999 139 139 139
0.130537 0.179848 -0.390988 140 140 140
0.128860 0.182157 -0.390979 140 140 140
0.127186 0.184468 -0.390969 141 141 141
0.125511 0.186779 -0.390960 141 141 141
0.123915 0.189133 -0.390954 140 140 140
0.122313 0.191484 -0.390948 140 140 140
0.120546 0.193749 -0.390935 141 141 141
0.118720 0.195983 -0.390921 141 141 141
0.116894 0.198219 -0.390907 140 140 140
0.115134 0.200490 -0.390895 140 140 140
0.113346 0.202747 -0.390882 140 140 140
0.111367 0.204906 -0.390862 140 140 140
0.109343 0.207043 -0.390841 140 140 140
0.107334 0.209189 -0.390821 139 139 139
0.105260 0.211304 -0.390798 139 139 139
0.102857 0.213251 -0.390764 138 138 138
0.100259 0.215099 -0.390723 138 138 138
0.097484 0.216860 -0.390676 138 138 138
0.094352 0.218442 -0.390617 138 138 138
0.090933 0.219881 -0.390547 138 138 138
0.085437 0.220269 -0.390407 138 138 138
0.079906 0.220649 -0.390265 138 138 138
0.073060 0.220373 -0.390078 138 138 138
0.066417 0.220214 -0.389898 138 138 138
0.060402 0.220384 -0.389740 138 138 138
0.054484 0.220615 -0.389586 138 138 138
0.049101 0.221126 -0.389450 138 138 138
0.043789 0.221682 -0.389317 138 138 138
0.038382 0.222200 -0.389180 138 138 138
0.032894 0.222689 -0.389041 138 138 138
0.026325 0.222650 -0.388865 138 138 138
0.017426 0.221471 -0.388609 138 138 138
-0.047819 0.192483 -0.386421 100 100 100
0.085550 -0.201547 -0.386942 139 139 139
0.093622 -0.192404 -0.387287 142 142 142
0.100459 -0.184122 -0.387587 139 139 139
0.107297 -0.175864 -0.387887 139 139 139
0.176361 -0.125832 -0.390417 138 138 138
0.186347 -0.115605 -0.390827 138 138 138
0.190046 -0.109616 -0.391012 138 138 138
0.192281 -0.104618 -0.391144 138 138 138
0.193980 -0.099989 -0.391257 138 138 138
0.195304 -0.095618 -0.391356 138 138 138
0.196776 -0.091157 -0.391461 138 138 138
0.198329 -0.086650 -0.391568 138 138 138
0.200158 -0.081971 -0.391685 138 138 138
0.202057 -0.077255 -0.391805 138 138 138
0.203939 -0.072559 -0.391923 138 138 138
0.205692 -0.067958 -0.392037 138 138 138
0.207681 -0.063212 -0.392159 138 138 138
0.209597 -0.058523 -0.392279 138 138 138
0.211690 -0.053729 -0.392404 138 138 138
0.213855 -0.048898 -0.392532 138 138 138
0.215811 -0.044213 -0.392652 138 138 138
0.217965 -0.039410 -0.392780 138 138 138
0.219902 -0.034756 -0.392899 138 138 138
0.221859 -0.030100 -0.393019 138 138 138
0.223810 -0.025457 -0.393139 138 138 138
0.225155 -0.021214 -0.393237 138 138 138
0.226419 -0.017028 -0.393332 138 138 138
0.227996 -0.012652 -0.393438 138 138 138
0.229478 -0.008344 -0.393540 138 138 138
0.230833 -0.004125 -0.393638 138 138 138
0.231790 -0.000167 -0.393722 138 138 138
0.232302 0.003503 -0.393790 138 138 138
0.232622 0.007047 -0.393851 138 138 138
0.232941 0.010585 -0.393912 138 138 138
0.233227 0.014097 -0.393972 139 139 139
0.232914 0.017229 -0.394010 139 139 139
0.232606 0.020361 -0.394049 139 139 139
0.232606 0.023681 -0.394099 139 139 139
0.232485 0.026923 -0.394144 140 140 140
0.232148 0.030027 -0.394181 140 140 140
0.231888 0.033176 -0.394222 140 140 140
0.231694 0.036362 -0.394264 140 140 140
0.231601 0.039607 -0.394310 140 140 140
0.231509 0.042849 -0.394356 139 139 139
0.231480 0.046126 -0.394404 139 139 139
0.231421 0.049381 -0.394451 139 139 139
0.231533 0.052737 -0.394504 139 139 139
0.231645 0.056088 -0.394557 139 139 139
0.231520 0.059291 -0.394602 138 138 138
0.231376 0.062479 -0.394645 138 138 138
0.231154 0.065616 -0.394686 138 138 138
0.230712 0.068617 -0.394720 138 138 138
0.230220 0.071585 -0.394751 138 138 138
0.229568 0.074455 -0.394777 138 138 138
0.228920 0.077324 -0.394803 138 138 138
0.228277 0.080194 -0.394830 138 138 138
0.227598 0.083041 -0.394854 138 138 138
0.226642 0.085720 -0.394870 138 138 138
0.225738 0.088430 -0.394887 138 138 138
0.224834 0.091138 -0.394904 138 138 138
0.223931 0.093845 -0.394921 138 138 138
0.222565 0.096278 -0.394922 138 138 138
0.221174 0.098695 -0.394922 138 138 138
0.219776 0.101109 -0.394922 138 138 138
0.218222 0.103431 -0.394916 138 138 138
0.216480 0.105643 -0.394904 139 139 139
0.214601 0.107776 -0.394888 140 140 140
0.212720 0.109909 -0.394871 140 140 140
0.211046 0.112164 -0.394861 140 140 140
0.209394 0.114432 -0.394852 140 140 140
0.207573 0.116604 -0.394838 140 140 140
0.205720 0.118758 -0.394822 140 140 140
0.203975 0.120975 -0.394810 140 140 140
0.202278 0.123221 -0.394800 140 140 140
0.200560 0.125456 -0.394789 140 140 140
0.198817 0.127678 -0.394777 140 140 140
0.197154 0.129946 -0.394768 140 140 140
0.195471 0.132203 -0.394758 140 140 140
0.193779 0.134455 -0.394748 139 139 139
0.192078 0.136704 -0.394737 139 139 139
0.190157 0.138829 -0.394719 139 139 139
0.188221 0.140947 -0.394701 139 139 139
0.186205 0.143022 -0.394680 138 138 138
0.184095 0.145045 -0.394655 138 138 138
0.182138 0.147156 -0.394636 138 138 138
0.180174 0.149264 -0.394617 138 138 138
0.178054 0.151287 -0.394592 138 138 138
0.175809 0.153243 -0.394564 138 138 138
0.173487 0.155158 -0.394532 138 138 138
0.170864 0.156909 -0.394491 138 138 138
0.168201 0.158641 -0.394448 138 138 138
0.164880 0.160014 -0.394382 138 138 138
0.161191 0.161190 -0.394305 138 138 138
0.157616 0.162435 -0.394231 138 138 138
0.153930 0.163624 -0.394153 138 138 138
0.150435 0.164924 -0.394083 138 138 138
0.147000 0.166262 -0.394014 138 138 138
0.143723 0.167691 -0.393950 138 138 138
0.140733 0.169280 -0.393897 138 138 138
0.138199 0.171120 -0.393859 138 138 138
0.135801 0.173035 -0.393826 138 138 138
0.133737 0.175134 -0.393804 139 139 139
0.131829 0.177317 -0.393787 140 140 140
0.129937 0.179510 -0.393771 141 141 141
0.128213 0.181794 -0.393760 142 142 142
0.126583 0.184129 -0.393753 142 142 142
0.125066 0.186524 -0.393749 141 141 141
0.123484 0.188886 -0.393744 141 141 141
0.121850 0.191220 -0.393736 141 141 141
0.120174 0.193533 -0.393728 141 141 141
0.118348 0.195767 -0.393714 141 141 141
0.116522 0.198003 -0.393700 141 141 141
0.114695 0.200239 -0.393686 141 141 141
0.112792 0.202436 -0.393670 140 140 140
0.110759 0.204567 -0.393649 140 140 140
0.108733 0.206703 -0.393628 140 140 140
0.106709 0.208842 -0.393608 139 139 139
0.104636 0.210957 -0.393586 139 139 139
0.102374 0.212976 -0.393558 138 138 138
0.099750 0.214812 -0.393517 138 138 138
0.096571 0.216366 -0.393458 138 138 138
0.093363 0.217909 -0.393399 138 138 138
0.090005 0.219381 -0.393334 138 138 138
0.084423 0.219725 -0.393195 138 138 138
0.078592 0.219953 -0.393048 138 138 138
0.071692 0.219651 -0.392865 138 138 138
0.065028 0.219483 -0.392690 138 138 138
0.059096 0.219696 -0.392540 138 138 138
0.053356 0.220018 -0.392397 138 138 138
0.047644 0.220364 -0.392254 138 138 138
0.042325 0.220918 -0.392125 138 138 138
0.036903 0.221430 -0.391993 138 138 138
0.030751 0.221589 -0.391836 138 138 138
0.022703 0.220819 -0.391617 138 138 138
-0.027878 0.199005 -0.389985 138 138 138
0.080971 -0.204606 -0.389817 100 100 100
0.091467 -0.193818 -0.390235 141 141 141
0.097411 -0.186137 -0.390494 140 140 140
0.103868 -0.178132 -0.390770 139 139 139
0.109115 -0.170963 -0.391004 139 139 139
0.181699 -0.118681 -0.393569 138 138 138
0.186060 -0.112243 -0.393771 138 138 138
0.189094 -0.106708 -0.393926 138 138 138
0.191053 -0.101901 -0.394044 138 138 138
0.192330 -0.097557 -0.394139 138 138 138
0.193744 -0.093131 -0.394238 138 138 138
0.195212 -0.088677 -0.394339 138 138 138
0.196666 -0.084242 -0.394439 138 138 138
0.198378 -0.079644 -0.394548 138 138 138
0.200118 -0.075038 -0.394658 138 138 138
0.201945 -0.070383 -0.394770 138 138 138
0.203731 -0.065764 -0.394881 138 138 138
0.205609 -0.061096 -0.394996 138 138 138
0.207634 -0.056341 -0.395115 138 138 138
0.209743 -0.051541 -0.395236 138 138 138
0.211762 -0.046810 -0.395355 138 138 138
0.213889 -0.042019 -0.395477 138 138 138
0.216038 -0.037223 -0.395600 138 138 138
0.218048 -0.032528 -0.395718 138 138 138
0.219993 -0.027885 -0.395833 138 138 138
0.222074 -0.023163 -0.395953 138 138 138
0.223689 -0.018750 -0.396057 138 138 138
0.225220 -0.014400 -0.396158 138 138 138
0.226784 -0.010036 -0.396260 138 138 138
0.228152 -0.005806 -0.396355 138 138 138
0.229419 -0.001647 -0.396446 138 138 138
0.230109 0.002138 -0.396518 138 138 138
0.230575 0.005776 -0.396582 138 138 138
0.230975 0.009367 -0.396644 138 138 138
0.231295 0.012903 -0.396703 138 138 138
0.231307 0.016241 -0.396751 138 138 138
0.231097 0.019436 -0.396792 138 138 138
0.231097 0.022758 -0.396840 139 139 139
0.231097 0.026077 -0.396888 140 140 140
0.230852 0.029240 -0.396927 141 141 141
0.230647 0.032423 -0.396968 141 141 141
0.230517 0.035650 -0.397011 140 140 140
0.230419 0.038893 -0.397055 140 140 140
0.230390 0.042175 -0.397102 140 140 140
0.230361 0.045454 -0.397148 140 140 140
0.230194 0.048643 -0.397190 140 140 140
0.230233 0.051956 -0.397239 139 139 139
0.230288 0.055273 -0.397288 139 139 139
0.230137 0.058461 -0.397330 139 139 139
0.229988 0.061648 -0.397372 138 138 138
0.229697 0.064744 -0.397410 138 138 138
0.229256 0.067747 -0.397442 138 138 138
0.228814 0.070747 -0.397474 138 138 138
0.228215 0.073650 -0.397501 138 138 138
0.227575 0.076525 -0.397527 138 138 138
0.226929 0.079395 -0.397552 138 138 138
0.226230 0.082231 -0.397575 138 138 138
0.225409 0.084993 -0.397595 138 138 138
0.224451 0.087671 -0.397609 138 138 138
0.223493 0.090349 -0.397624 138 138 138
0.222547 0.093032 -0.397639 138 138 138
0.221462 0.095632 -0.397649 138 138 138
0.220079 0.098055 -0.397650 138 138 138
0.218710 0.100486 -0.397651 138 138 138
0.217243 0.102860 -0.397648 138 138 138
0.215652 0.105161 -0.397642 139 139 139
0.213788 0.107304 -0.397626 139 139 139
0.211965 0.109471 -0.397612 140 140 140
0.210312 0.111739 -0.397603 140 140 140
0.208660 0.114008 -0.397595 140 140 140
0.207017 0.116282 -0.397586 140 140 140
0.205321 0.118527 -0.397576 140 140 140
0.203624 0.120773 -0.397566 140 140 140
0.201927 0.123019 -0.397556 140 140 140
0.200230 0.125265 -0.397546 140 140 140
0.198495 0.127491 -0.397535 140 140 140
0.196832 0.129759 -0.397526 139 139 139
0.195168 0.132027 -0.397518 139 139 139
0.193329 0.134196 -0.397503 139 139 139
0.191403 0.136317 -0.397485 139 139 139
0.189466 0.138434 -0.397468 139 139 139
0.187529 0.140552 -0.397450 139 139 139
0.185453 0.142593 -0.397427 138 138 138
0.183342 0.144616 -0.397404 138 138 138
0.181273 0.146665 -0.397382 138 138 138
0.179163 0.148692 -0.397358 138 138 138
0.176993 0.150688 -0.397333 138 138 138
0.174755 0.152648 -0.397305 138 138 138
0.172241 0.154458 -0.397269 138 138 138
0.169801 0.156311 -0.397234 138 138 138
0.167013 0.157975 -0.397189 138 138 138
0.163424 0.159202 -0.397117 138 138 138
0.160145 0.160604 -0.397055 138 138 138
0.156683 0.161912 -0.396988 138 138 138
0.152947 0.163074 -0.396911 138 138 138
0.149230 0.164254 -0.396835 138 138 138
0.145705 0.165544 -0.396766 138 138 138
0.143035 0.167303 -0.396725 138 138 138
0.140503 0.169141 -0.396688 138 138 138
0.137968 0.170980 -0.396651 138 138 138
0.135432 0.172821 -0.396615 138 138 138
0.133262 0.174862 -0.396590 140 140 140
0.131372 0.177055 -0.396574 140 140 140
0.129502 0.179260 -0.396559 141 141 141
0.127799 0.181556 -0.396550 142 142 142
0.126217 0.183916 -0.396544 142 142 142
0.124655 0.186287 -0.396540 141 141 141
0.123020 0.188621 -0.396532 142 142 142
0.121386 0.190955 -0.396525 142 142 142
0.119751 0.193289 -0.396518 142 142 142
0.117978 0.195551 -0.396506 142 142 142
0.116109 0.197765 -0.396492 142 142 142
0.114168 0.199941 -0.396475 141 141 141
0.112226 0.202118 -0.396458 140 140 140
0.110268 0.204288 -0.396440 140 140 140
0.108171 0.206388 -0.396418 140 140 140
0.106096 0.208500 -0.396397 140 140 140
0.104012 0.210610 -0.396375 139 139 139
0.101761 0.212636 -0.396348 138 138 138
0.098963 0.214382 -0.396303 138 138 138
0.095584 0.215833 -0.396240 138 138 138
0.092374 0.217377 -0.396182 138 138 138
0.089078 0.218880 -0.396121 138 138 138
0.083357 0.219154 -0.395983 138 138 138
0.077756 0.219500 -0.395848 138 138 138
0.070951 0.219248 -0.395674 138 138 138
0.064138 0.219004 -0.395501 138 138 138
0.058265 0.219248 -0.395358 138 138 138
0.052528 0.219571 -0.395219 138 138 138
0.046810 0.219915 -0.395081 138 138 138
0.041078 0.220262 -0.394943 138 138 138
0.034556 0.220227 -0.394780 138 138 138
0.027819 0.220097 -0.394610 138 138 138
0.018290 0.218595 -0.394351 138 138 138
-0.032941 0.196464 -0.392753 138 138 138
0.089508 -0.195099 -0.393193 140 140 140
0.095486 -0.187393 -0.393444 140 140 140
0.101168 -0.179908 -0.393685 139 139 139
0.106131 -0.172926 -0.393902 139 139 139
0.111224 -0.165877 -0.394123 140 140 140
0.182428 -0.114634 -0.396550 138 138 138
0.185774 -0.108886 -0.396711 138 138 138
0.187913 -0.103955 -0.396831 138 138 138
0.189522 -0.099387 -0.396933 138 138 138
0.190755 -0.095077 -0.397023 138 138 138
0.192252 -0.090601 -0.397121 138 138 138
0.193746 -0.086135 -0.397219 138 138 138
0.195299 -0.081638 -0.397319 138 138 138
0.197060 -0.077014 -0.397426 138 138 138
0.198772 -0.072431 -0.397531 138 138 138
0.200502 -0.067846 -0.397636 138 138 138
0.202190 -0.063297 -0.397740 138 138 138
0.203967 -0.058699 -0.397847 138 138 138
0.206097 -0.053881 -0.397965 138 138 138
0.208061 -0.049181 -0.398078 138 138 138
0.210052 -0.044473 -0.398191 138 138 138
0.212076 -0.039754 -0.398305 138 138 138
0.214094 -0.035048 -0.398419 138 138 138
0.216316 -0.030221 -0.398540 138 138 138
0.218531 -0.025410 -0.398660 138 138 138
0.220652 -0.020668 -0.398777 138 138 138
0.222242 -0.016276 -0.398877 138 138 138
0.223812 -0.011906 -0.398975 138 138 138
0.225403 -0.007530 -0.399074 138 138 138
0.226677 -0.003364 -0.399163 138 138 138
0.227818 0.000711 -0.399247 138 138 138
0.228385 0.004415 -0.399312 138 138 138
0.228822 0.008032 -0.399373 138 138 138
0.229257 0.011643 -0.399434 138 138 138
0.229650 0.015222 -0.399493 138 138 138
0.229586 0.018510 -0.399537 138 138 138
0.229616 0.021853 -0.399584 139 139 139
0.229662 0.025202 -0.399632 140 140 140
0.229600 0.028479 -0.399676 140 140 140
0.229474 0.031713 -0.399718 141 141 141
0.229444 0.035003 -0.399763 141 141 141
0.229315 0.038228 -0.399805 141 141 141
0.229271 0.041502 -0.399849 141 141 141
0.229197 0.044753 -0.399893 140 140 140
0.229030 0.047943 -0.399933 140 140 140
0.228933 0.051174 -0.399976 140 140 140
0.228903 0.054441 -0.400020 140 140 140
0.228753 0.057631 -0.400061 139 139 139
0.228606 0.060820 -0.400102 139 139 139
0.228229 0.063866 -0.400135 138 138 138
0.227779 0.066865 -0.400166 138 138 138
0.227330 0.069862 -0.400197 138 138 138
0.226881 0.072856 -0.400228 138 138 138
0.226233 0.075729 -0.400252 138 138 138
0.225552 0.078579 -0.400275 138 138 138
0.224854 0.081417 -0.400298 138 138 138
0.224156 0.084253 -0.400321 138 138 138
0.223219 0.086946 -0.400336 138 138 138
0.222262 0.089624 -0.400350 138 138 138
0.221315 0.092308 -0.400364 138 138 138
0.220320 0.094962 -0.400377 138 138 138
0.219024 0.097437 -0.400380 138 138 138
0.217655 0.099870 -0.400381 138 138 138
0.216223 0.102265 -0.400380 138 138 138
0.214669 0.104589 -0.400375 138 138 138
0.212975 0.106832 -0.400365 139 139 139
0.211231 0.109046 -0.400354 139 139 139
0.209603 0.111328 -0.400347 140 140 140
0.208024 0.113640 -0.400341 140 140 140
0.206445 0.115952 -0.400335 140 140 140
0.204819 0.118238 -0.400328 140 140 140
0.203179 0.120516 -0.400320 139 139 139
0.201540 0.122795 -0.400312 139 139 139
0.199879 0.125063 -0.400303 139 139 139
0.198173 0.127305 -0.400294 139 139 139
0.196411 0.129516 -0.400282 139 139 139
0.194520 0.131655 -0.400266 139 139 139
0.192625 0.133793 -0.400250 139 139 139
0.190708 0.135919 -0.400234 139 139 139
0.188776 0.138039 -0.400216 139 139 139
0.186811 0.140142 -0.400198 138 138 138
0.184701 0.142164 -0.400176 138 138 138
0.182553 0.144167 -0.400152 138 138 138
0.180263 0.146092 -0.400123 138 138 138
0.178090 0.148085 -0.400099 138 138 138
0.175918 0.150081 -0.400074 138 138 138
0.173699 0.152053 -0.400048 138 138 138
0.171184 0.153863 -0.400013 138 138 138
0.168667 0.155674 -0.399977 138 138 138
0.165757 0.157271 -0.399930 138 138 138
0.162481 0.158672 -0.399870 138 138 138
0.159200 0.160074 -0.399811 138 138 138
0.155701 0.161362 -0.399744 138 138 138
0.151963 0.162524 -0.399670 138 138 138
0.148309 0.163739 -0.399599 138 138 138
0.145318 0.165320 -0.399549 138 138 138
0.142672 0.167092 -0.399510 138 138 138
0.140185 0.168954 -0.399476 138 138 138
0.137695 0.170818 -0.399442 139 139 139
0.135201 0.172681 -0.399408 140 140 140
0.132806 0.174601 -0.399377 141 141 141
0.131070 0.176876 -0.399367 140 140 140
0.129364 0.179170 -0.399358 140 140 140
0.127658 0.181463 -0.399348 141 141 141
0.125918 0.183739 -0.399338 141 141 141
0.124189 0.186021 -0.399328 142 142 142
0.122554 0.188355 -0.399321 142 142 142
0.120919 0.190689 -0.399314 142 142 142
0.119286 0.193024 -0.399307 142 142 142
0.117545 0.195303 -0.399297 142 142 142
0.115557 0.197454 -0.399279 142 142 142
0.113602 0.199623 -0.399262 141 141 141
0.111659 0.201800 -0.399246 141 141 141
0.109716 0.203978 -0.399229 140 140 140
0.107683 0.206111 -0.399210 140 140 140
0.105585 0.208212 -0.399189 140 140 140
0.103423 0.210281 -0.399165 139 139 139
0.101199 0.212321 -0.399140 138 138 138
0.098574 0.214156 -0.399102 138 138 138
0.095242 0.215632 -0.399043 138 138 138
0.091709 0.217010 -0.398977 138 138 138
0.088107 0.218358 -0.398909 138 138 138
0.082523 0.218702 -0.398779 138 138 138
0.076919 0.219048 -0.398649 138 138 138
0.070210 0.218843 -0.398484 138 138 138
0.063879 0.218844 -0.398332 138 138 138
0.057831 0.218999 -0.398189 138 138 138
0.051700 0.219124 -0.398043 138 138 138
0.045973 0.219464 -0.397909 138 138 138
0.039451 0.219417 -0.397752 138 138 138
0.031835 0.218837 -0.397560 138 138 138
0.024246 0.218286 -0.397370 138 138 138
-0.021193 0.198961 -0.396007 138 138 138
-0.038358 0.193747 -0.395521 100 100 100
0.084927 -0.198154 -0.396071 100 100 100
0.094073 -0.188304 -0.396415 140 140 140
0.099585 -0.180932 -0.396642 138 138 138
0.104726 -0.173830 -0.396856 138 138 138
0.109049 -0.167295 -0.397044 140 140 140
0.115017 -0.159677 -0.397285 142 142 142
0.180765 -0.112191 -0.399448 138 138 138
0.184377 -0.106273 -0.399611 138 138 138
0.186571 -0.101312 -0.399728 138 138 138
0.187936 -0.096911 -0.399819 138 138 138
0.189401 -0.092452 -0.399913 138 138 138
0.190958 -0.087941 -0.400009 138 138 138
0.192452 -0.083480 -0.400104 138 138 138
0.194118 -0.078914 -0.400204 138 138 138
0.195813 -0.074339 -0.400304 138 138 138
0.197433 -0.069822 -0.400402 138 138 138
0.198957 -0.065376 -0.400497 138 138 138
0.200681 -0.060809 -0.400599 138 138 138
0.202441 -0.056227 -0.400701 138 138 138
0.204418 -0.051514 -0.400810 138 138 138
0.206372 -0.046825 -0.400918 138 138 138
0.208342 -0.042136 -0.401027 138 138 138
0.210548 -0.037305 -0.401143 138 138 138
0.212834 -0.032433 -0.401261 138 138 138
0.215010 -0.027642 -0.401376 138 138 138
0.217195 -0.022855 -0.401491 138 138 138
0.219155 -0.018222 -0.401598 138 138 138
0.220832 -0.013779 -0.401697 138 138 138
0.222525 -0.009335 -0.401796 138 138 138
0.223930 -0.005083 -0.401885 138 138 138
0.225162 -0.000948 -0.401969 138 138 138
0.226133 0.003015 -0.402045 138 138 138
0.226651 0.006686 -0.402106 138 138 138
0.227118 0.010319 -0.402166 138 138 138
0.227583 0.013946 -0.402225 138 138 138
0.228131 0.017619 -0.402287 138 138 138
0.228260 0.021025 -0.402336 138 138 138
0.228307 0.024376 -0.402382 139 139 139
0.228354 0.027722 -0.402428 140 140 140
0.228225 0.030956 -0.402468 140 140 140
0.228237 0.034273 -0.402513 141 141 141
0.228242 0.037582 -0.402557 141 141 141
0.228151 0.040827 -0.402599 141 141 141
0.228032 0.044052 -0.402639 141 141 141
0.227865 0.047244 -0.402678 141 141 141
0.227696 0.050431 -0.402717 140 140 140
0.227597 0.053657 -0.402758 140 140 140
0.227512 0.056888 -0.402799 139 139 139
0.227403 0.060102 -0.402840 139 139 139
0.226987 0.063125 -0.402870 138 138 138
0.226472 0.066086 -0.402898 138 138 138
0.225957 0.069044 -0.402926 138 138 138
0.225442 0.072000 -0.402954 138 138 138
0.224873 0.074921 -0.402979 138 138 138
0.224178 0.077764 -0.403001 138 138 138
0.223483 0.080605 -0.403023 138 138 138
0.222789 0.083445 -0.403045 138 138 138
0.222005 0.086230 -0.403064 138 138 138
0.221063 0.088919 -0.403079 138 138 138
0.220122 0.091607 -0.403093 138 138 138
0.219077 0.094232 -0.403104 138 138 138
0.217932 0.096798 -0.403112 138 138 138
0.216598 0.099252 -0.403113 138 138 138
0.215201 0.101669 -0.403113 138 138 138
0.213647 0.103994 -0.403109 138 138 138
0.212099 0.106322 -0.403104 139 139 139
0.210586 0.108672 -0.403100 139 139 139
0.209007 0.110983 -0.403094 139 139 139
0.207428 0.113295 -0.403089 139 139 139
0.205849 0.115608 -0.403083 139 139 139
0.204252 0.117911 -0.403077 139 139 139
0.202613 0.120189 -0.403069 139 139 139
0.200974 0.122469 -0.403062 139 139 139
0.199288 0.124722 -0.403053 139 139 139
0.197496 0.126916 -0.403041 139 139 139
0.195683 0.129098 -0.403028 139 139 139
0.193798 0.131241 -0.403013 138 138 138
0.191906 0.133380 -0.402998 138 138 138
0.189999 0.135514 -0.402982 138 138 138
0.188085 0.137643 -0.402966 139 139 139
0.186060 0.139713 -0.402947 138 138 138
0.183761 0.141629 -0.402919 138 138 138
0.181425 0.143527 -0.402890 138 138 138
0.179195 0.145487 -0.402865 138 138 138
0.177030 0.147486 -0.402841 138 138 138
0.174846 0.149476 -0.402817 138 138 138
0.172644 0.151458 -0.402793 138 138 138
0.170123 0.153265 -0.402758 138 138 138
0.167530 0.155035 -0.402722 138 138 138
0.164790 0.156728 -0.402681 138 138 138
0.161537 0.158141 -0.402625 138 138 138
0.158255 0.159544 -0.402567 138 138 138
0.154719 0.160812 -0.402502 138 138 138
0.151249 0.162122 -0.402439 138 138 138
0.148170 0.163650 -0.402388 138 138 138
0.145087 0.165181 -0.402337 138 138 138
0.142238 0.166843 -0.402293 138 138 138
0.139750 0.168705 -0.402260 140 140 140
0.137260 0.170568 -0.402228 141 141 141
0.134863 0.172484 -0.402198 141 141 141
0.132688 0.174522 -0.402174 141 141 141
0.130911 0.176775 -0.402163 141 141 141
0.129205 0.179067 -0.402154 140 140 140
0.127498 0.181360 -0.402146 140 140 140
0.125618 0.183561 -0.402131 141 141 141
0.123745 0.185767 -0.402117 142 142 142
0.122084 0.188086 -0.402110 142 142 142
0.120456 0.190424 -0.402104 142 142 142
0.118828 0.192762 -0.402097 142 142 142
0.117138 0.195068 -0.402089 142 142 142
0.115205 0.197248 -0.402073 141 141 141
0.113216 0.199399 -0.402056 141 141 141
0.111226 0.201552 -0.402038 140 140 140
0.109236 0.203705 -0.402021 140 140 140
0.107193 0.205833 -0.402002 140 140 140
0.105001 0.207885 -0.401979 140 140 140
0.102837 0.209954 -0.401956 139 139 139
0.100637 0.212006 -0.401933 139 139 139
0.097990 0.213830 -0.401896 138 138 138
0.095047 0.215506 -0.401850 138 138 138
0.091483 0.216868 -0.401785 138 138 138
0.087766 0.218157 -0.401716 138 138 138
0.081917 0.218366 -0.401583 138 138 138
0.076082 0.218594 -0.401451 138 138 138
0.069822 0.218618 -0.401306 138 138 138
0.063841 0.218795 -0.401170 138 138 138
0.057781 0.218944 -0.401031 138 138 138
0.051326 0.218906 -0.400880 138 138 138
0.044377 0.218633 -0.400716 138 138 138
0.037635 0.218477 -0.400557 138 138 138
0.029108 0.217444 -0.400345 138 138 138
-0.015103 0.198670 -0.399067 138 138 138
-0.026608 0.196239 -0.398767 138 138 138
0.092643 -0.189226 -0.399388 140 140 140
0.098055 -0.181920 -0.399603 138 138 138
0.103614 -0.174536 -0.399822 138 138 138
0.107470 -0.168313 -0.399989 140 140 140
0.113467 -0.160674 -0.400221 141 141 141
0.170869 -0.118757 -0.402045 138 138 138
0.179122 -0.109735 -0.402345 138 138 138
0.182834 -0.103758 -0.402505 138 138 138
0.185217 -0.098677 -0.402624 138 138 138
0.186434 -0.094380 -0.402707 138 138 138
0.188044 -0.089830 -0.402801 138 138 138
0.189649 -0.085292 -0.402896 138 138 138
0.191179 -0.080812 -0.402988 138 138 138
0.192847 -0.076251 -0.403084 138 138 138
0.194444 -0.071745 -0.403178 138 138 138
0.195975 -0.067291 -0.403269 138 138 138
0.197383 -0.062926 -0.403357 138 138 138
0.198927 -0.058481 -0.403449 138 138 138
0.200852 -0.053797 -0.403552 138 138 138
0.202876 -0.049059 -0.403659 138 138 138
0.204890 -0.044337 -0.403765 138 138 138
0.207231 -0.039414 -0.403881 138 138 138
0.209565 -0.034507 -0.403996 138 138 138
0.211733 -0.029717 -0.404106 138 138 138
0.213934 -0.024916 -0.404217 138 138 138
0.216129 -0.020129 -0.404328 138 138 138
0.217997 -0.015561 -0.404429 138 138 138
