ply
format ascii 1.0
element vertex 1191
property float x
property float y
property float z
property uchar red
property uchar green
property uchar blue
end_header
0.357090 0.170209 -0.013395 147 147 147
0.355405 0.173102 -0.013685 146 146 146
0.353701 0.175947 -0.013965 146 146 146
0.351992 0.178774 -0.014243 146 146 146
0.350243 0.181507 -0.014502 146 146 146
0.348454 0.184151 -0.014745 147 147 147
0.346730 0.186924 -0.015013 147 147 147
0.344967 0.189606 -0.015264 147 147 147
0.343096 0.192059 -0.015471 146 146 146
0.341283 0.194626 -0.015700 146 146 146
0.339475 0.197196 -0.015930 146 146 146
0.337649 0.199724 -0.016152 148 148 148
0.335817 0.202234 -0.016371 150 150 150
0.334116 0.205005 -0.016640 151 151 151
0.332428 0.207797 -0.016914 152 152 152
0.330728 0.210555 -0.017182 153 153 153
0.328938 0.213125 -0.017414 154 154 154
0.327241 0.215876 -0.017681 156 156 156
0.325586 0.218707 -0.017963 157 157 157
0.323938 0.221543 -0.018247 158 158 158
0.322336 0.224463 -0.018548 160 160 160
0.320735 0.227378 -0.018848 161 161 161
0.319136 0.230290 -0.019148 162 162 162
0.317725 0.233569 -0.019520 162 162 162
0.316472 0.237154 -0.019951 163 163 163
0.315223 0.240735 -0.020382 163 163 163
0.313957 0.244273 -0.020805 164 164 164
0.312610 0.247636 -0.021195 164 164 164
0.311265 0.250994 -0.021584 164 164 164
0.309913 0.254329 -0.021969 164 164 164
0.308550 0.257632 -0.022348 163 163 163
0.307170 0.260891 -0.022719 163 163 163
0.305778 0.264118 -0.023084 162 162 162
0.304406 0.267372 -0.023455 161 161 161
0.303055 0.270659 -0.023833 161 161 161
0.301510 0.273560 -0.024136 160 160 160
0.299956 0.276435 -0.024434 159 159 159
0.298351 0.279204 -0.024712 158 158 158
0.296713 0.281902 -0.024976 158 158 158
0.295077 0.284597 -0.025240 157 157 157
0.293443 0.287290 -0.025503 156 156 156
0.291851 0.290055 -0.025782 156 156 156
0.290297 0.292887 -0.026073 156 156 156
0.288746 0.295716 -0.026365 155 155 155
0.287197 0.298541 -0.026656 155 155 155
0.285649 0.301361 -0.026946 156 156 156
0.284099 0.304171 -0.027235 156 156 156
0.282524 0.306924 -0.027513 156 156 156
0.280872 0.309526 -0.027761 156 156 156
0.278978 0.311669 -0.027919 156 156 156
0.277074 0.313791 -0.028073 155 155 155
0.275301 0.316151 -0.028275 155 155 155
0.273529 0.318510 -0.028476 155 155 155
0.271760 0.320866 -0.028677 156 156 156
0.269830 0.322922 -0.028819 153 153 153
0.267868 0.324914 -0.028949 155 155 155
0.265906 0.326905 -0.029078 155 155 155
0.263946 0.328894 -0.029207 155 155 155
0.261987 0.330882 -0.029336 155 155 155
0.259981 0.332781 -0.029448 155 155 155
0.257942 0.334617 -0.029547 154 154 154
0.255848 0.336352 -0.029627 153 153 153
0.253755 0.338086 -0.029706 153 153 153
0.251635 0.339769 -0.029775 152 152 152
0.249423 0.341284 -0.029811 151 151 151
0.247117 0.342628 -0.029813 150 150 150
0.244810 0.343972 -0.029815 149 149 149
0.242503 0.345315 -0.029816 148 148 148
0.240173 0.346617 -0.029810 148 148 148
0.237830 0.347895 -0.029799 147 147 147
0.235450 0.349110 -0.029774 147 147 147
0.232993 0.350186 -0.029723 147 147 147
0.230643 0.351454 -0.029709 146 146 146
0.228292 0.352722 -0.029696 144 144 144
0.226006 0.354103 -0.029705 144 144 144
0.223814 0.355649 -0.029747 144 144 144
0.221685 0.357305 -0.029812 144 144 144
0.219591 0.359020 -0.029888 145 145 145
0.217619 0.360946 -0.030007 146 146 146
0.215688 0.362942 -0.030140 147 147 147
0.213786 0.364984 -0.030282 148 148 148
0.211924 0.367092 -0.030438 148 148 148
0.210063 0.369199 -0.030593 148 148 148
0.208354 0.371562 -0.030801 147 147 147
0.206699 0.374014 -0.031026 145 145 145
0.205072 0.376509 -0.031261 144 144 144
0.203516 0.379121 -0.031519 144 144 144
0.201895 0.381615 -0.031754 144 144 144
0.200277 0.384107 -0.031989 144 144 144
0.198614 0.386520 -0.032208 144 144 144
0.196938 0.388903 -0.032421 144 144 144
0.195196 0.391172 -0.032611 143 143 143
0.193560 0.393613 -0.032837 141 141 141
0.191900 0.396010 -0.033054 140 140 140
0.190133 0.398222 -0.033233 138 138 138
0.188368 0.400432 -0.033413 138 138 138
0.186610 0.402651 -0.033594 138 138 138
0.184714 0.404635 -0.033728 138 138 138
0.182835 0.406644 -0.033868 138 138 138
0.180957 0.408652 -0.034007 138 138 138
0.179062 0.410627 -0.034140 138 138 138
0.177026 0.412368 -0.034225 138 138 138
0.174724 0.413668 -0.034221 138 138 138
0.172262 0.414705 -0.034163 138 138 138
0.169797 0.415739 -0.034104 138 138 138
0.167332 0.416773 -0.034045 138 138 138
0.164866 0.417807 -0.033986 138 138 138
0.162061 0.418292 -0.033815 138 138 138
0.158919 0.418232 -0.033533 138 138 138
0.155657 0.417982 -0.033211 138 138 138
0.152251 0.417508 -0.032844 138 138 138
0.147853 0.415443 -0.032150 138 138 138
0.143465 0.413408 -0.031461 138 138 138
0.138908 0.411118 -0.030719 138 138 138
0.134666 0.409349 -0.030084 138 138 138
0.130615 0.407900 -0.029513 138 138 138
0.126926 0.407041 -0.029062 138 138 138
0.123345 0.406363 -0.028648 138 138 138
0.119878 0.405878 -0.028274 138 138 138
0.116930 0.406222 -0.028069 138 138 138
0.114122 0.406791 -0.027910 138 138 138
0.111311 0.407360 -0.027751 138 138 138
0.108498 0.407929 -0.027592 138 138 138
0.105810 0.408697 -0.027474 138 138 138
0.103156 0.409522 -0.027368 138 138 138
0.100600 0.410503 -0.027293 138 138 138
0.098028 0.411459 -0.027213 138 138 138
0.095563 0.412584 -0.027169 138 138 138
0.093126 0.413753 -0.027132 138 138 138
0.090790 0.415080 -0.027129 138 138 138
0.088455 0.416408 -0.027126 138 138 138
0.086111 0.417723 -0.027120 138 138 138
0.083823 0.419123 -0.027132 138 138 138
0.081600 0.420624 -0.027165 138 138 138
0.079439 0.422218 -0.027217 138 138 138
0.077298 0.423842 -0.027276 138 138 138
0.074935 0.425126 -0.027264 138 138 138
0.072584 0.426429 -0.027255 138 138 138
0.070284 0.427808 -0.027263 138 138 138
0.067659 0.428696 -0.027169 138 138 138
0.065033 0.429584 -0.027074 138 138 138
0.062304 0.430320 -0.026947 138 138 138
0.059085 0.430321 -0.026667 138 138 138
0.055877 0.430345 -0.026392 138 138 138
0.052664 0.430368 -0.026116 138 138 138
0.049198 0.430018 -0.025761 138 138 138
0.045167 0.428834 -0.025232 138 138 138
0.041143 0.427672 -0.024707 138 138 138
0.037184 0.426617 -0.024203 138 138 138
0.033109 0.425402 -0.023666 138 138 138
0.029083 0.424270 -0.023145 138 138 138
0.025366 0.423605 -0.022721 138 138 138
0.021679 0.422993 -0.022308 138 138 138
0.017989 0.422384 -0.021895 138 138 138
0.014559 0.422165 -0.021563 138 138 138
0.011160 0.421999 -0.021243 138 138 138
0.007757 0.421833 -0.020921 138 138 138
0.004513 0.421906 -0.020650 138 138 138
0.001406 0.422183 -0.020422 138 138 138
-0.001701 0.422464 -0.020194 138 138 138
-0.004812 0.422746 -0.019965 138 138 138
-0.008315 0.422467 -0.019618 138 138 138
-0.011938 0.422021 -0.019236 138 138 138
-0.015532 0.421626 -0.018864 138 138 138
-0.019026 0.421381 -0.018523 138 138 138
-0.022813 0.420726 -0.018094 138 138 138
-0.026637 0.420025 -0.017656 138 138 138
-0.030516 0.419257 -0.017203 138 138 138
-0.034358 0.418550 -0.016762 138 138 138
-0.038207 0.417842 -0.016320 138 138 138
-0.042036 0.417171 -0.015886 138 138 138
-0.045799 0.416602 -0.015472 138 138 138
-0.049560 0.416045 -0.015061 138 138 138
-0.053364 0.415436 -0.014638 138 138 138
-0.057188 0.414807 -0.014211 138 138 138
-0.061204 0.413919 -0.013728 138 138 138
-0.065068 0.413252 -0.013291 138 138 138
-0.069244 0.412162 -0.012763 138 138 138
-0.073485 0.410989 -0.012217 138 138 138
-0.077766 0.409775 -0.011662 138 138 138
-0.082519 0.407917 -0.010968 138 138 138
-0.087359 0.405954 -0.010251 138 138 138
-0.092228 0.403965 -0.009527 138 138 138
-0.097236 0.401800 -0.008765 138 138 138
-0.102011 0.399971 -0.008074 138 138 138
-0.106839 0.398082 -0.007369 138 138 138
-0.111676 0.396196 -0.006664 138 138 138
-0.116624 0.394172 -0.005928 138 138 138
-0.122223 0.391277 -0.005005 138 138 138
-0.127543 0.388780 -0.004166 138 138 138
-0.133626 0.385268 -0.003107 138 138 138
-0.139991 0.381396 -0.001969 138 138 138
-0.145543 0.378642 -0.001071 138 138 138
-0.150943 0.376108 -0.000219 138 138 138
-0.156043 0.373996 0.000543 138 138 138
-0.160610 0.372612 0.001149 138 138 138
-0.165318 0.371052 0.001794 138 138 138
-0.170021 0.369510 0.002435 138 138 138
-0.174361 0.368465 0.002971 138 138 138
-0.178931 0.367125 0.003570 138 138 138
-0.183990 0.365149 0.004308 138 138 138
-0.188938 0.363335 0.005012 138 138 138
-0.194863 0.360244 0.005994 138 138 138
-0.202025 0.355546 0.007325 138 138 138
-0.214049 0.344487 0.010038 138 138 138
-0.230216 0.328052 0.013922 138 138 138
-0.234983 0.326601 0.014556 138 138 138
-0.239624 0.325329 0.015152 138 138 138
-0.244999 0.323110 0.015954 138 138 138
-0.250384 0.320895 0.016756 138 138 138
-0.256901 0.317228 0.017876 138 138 138
-0.264523 0.312151 0.019305 138 138 138
-0.272512 0.306629 0.020832 138 138 138
-0.279983 0.301804 0.022209 138 138 138
-0.286608 0.298094 0.023345 138 138 138
-0.292648 0.295155 0.024314 138 138 138
-0.298219 0.292836 0.025148 138 138 138
-0.303582 0.290798 0.025922 138 138 138
-0.309075 0.288611 0.026730 138 138 138
-0.315797 0.284873 0.027878 138 138 138
-0.326471 0.276140 0.030123 100 100 100
0.425659 -0.118036 0.021048 180 180 180
0.426557 -0.107734 0.019427 176 176 176
0.426499 -0.099889 0.018257 174 174 174
0.426692 -0.091456 0.016976 172 172 172
0.426634 -0.083690 0.015818 170 170 170
0.426685 -0.075688 0.014615 168 168 168
0.427195 -0.066583 0.013207 169 169 169
0.427431 -0.058202 0.011931 168 168 168
0.427354 -0.050638 0.010804 166 166 166
0.427302 -0.043046 0.009671 166 166 166
0.427140 -0.035760 0.008594 165 165 165
0.426661 -0.029285 0.007665 164 164 164
0.426186 -0.022831 0.006740 165 165 165
0.425849 -0.016069 0.005756 165 165 165
0.425365 -0.009696 0.004843 164 164 164
0.424771 -0.003617 0.003983 164 164 164
0.423663 0.001195 0.003358 162 162 162
0.422565 0.006010 0.002732 161 161 161
0.421394 0.010631 0.002141 160 160 160
0.420085 0.014901 0.001615 161 161 161
0.418746 0.019085 0.001103 161 161 161
0.417451 0.023359 0.000575 160 160 160
0.416287 0.027926 -0.000008 159 159 159
0.415496 0.033359 -0.000754 160 160 160
0.414846 0.039100 -0.001558 159 159 159
0.414207 0.044846 -0.002363 159 159 159
0.413334 0.050016 -0.003062 159 159 159
0.412732 0.055801 -0.003877 159 159 159
0.411725 0.060615 -0.004511 158 158 158
0.410666 0.065287 -0.005119 158 158 158
0.409883 0.070582 -0.005845 158 158 158
0.409328 0.076384 -0.006666 158 158 158
0.408667 0.081917 -0.007438 156 156 156
0.407656 0.086621 -0.008055 155 155 155
0.406585 0.091168 -0.008643 153 153 153
0.405122 0.094800 -0.009061 152 152 152
0.403617 0.098325 -0.009459 151 151 151
0.402115 0.101844 -0.009856 151 151 151
0.400512 0.105122 -0.010209 149 149 149
0.398773 0.108081 -0.010502 149 149 149
0.397044 0.111055 -0.010798 149 149 149
0.395369 0.114142 -0.011115 149 149 149
0.393547 0.116890 -0.011369 149 149 149
0.391759 0.119705 -0.011636 149 149 149
0.389975 0.122522 -0.011904 148 148 148
0.388161 0.125266 -0.012158 149 149 149
0.386247 0.127779 -0.012369 149 149 149
0.384320 0.130257 -0.012574 149 149 149
0.382395 0.132733 -0.012778 149 149 149
0.380471 0.135207 -0.012982 149 149 149
0.378609 0.137809 -0.013211 149 149 149
0.376751 0.140414 -0.013440 149 149 149
0.374894 0.143016 -0.013670 148 148 148
0.372979 0.145483 -0.013874 149 149 149
0.371009 0.147825 -0.014054 148 148 148
0.369106 0.150310 -0.014262 148 148 148
0.367197 0.152774 -0.014466 147 147 147
0.365407 0.155486 -0.014717 147 147 147
0.363670 0.158308 -0.014990 147 147 147
0.361827 0.160896 -0.015218 146 146 146
0.359952 0.163407 -0.015432 146 146 146
0.358196 0.166166 -0.015694 146 146 146
0.356494 0.169033 -0.015976 145 145 145
0.354809 0.171928 -0.016264 145 145 145
0.353126 0.174819 -0.016551 145 145 145
0.351391 0.177591 -0.016816 146 146 146
0.349648 0.180341 -0.017078 146 146 146
0.347859 0.182986 -0.017319 146 146 146
0.346142 0.185774 -0.017588 147 147 147
0.344467 0.188644 -0.017873 147 147 147
0.342656 0.191222 -0.018103 146 146 146
0.340849 0.193802 -0.018333 146 146 146
0.339050 0.196392 -0.018566 148 148 148
0.337252 0.198979 -0.018798 150 150 150
0.335488 0.201630 -0.019042 151 151 151
0.333798 0.204424 -0.019315 152 152 152
0.332108 0.207212 -0.019586 153 153 153
0.330453 0.210065 -0.019870 154 154 154
0.328796 0.212905 -0.020153 155 155 155
0.327099 0.215656 -0.020418 156 156 156
0.325474 0.218546 -0.020710 159 159 159
0.323819 0.221368 -0.020990 159 159 159
0.322204 0.224261 -0.021284 161 161 161
0.320615 0.227200 -0.021587 162 162 162
0.319088 0.230255 -0.021912 162 162 162
0.317693 0.233566 -0.022288 163 163 163
0.316434 0.237138 -0.022714 163 163 163
0.315177 0.240702 -0.023139 163 163 163
0.313927 0.244270 -0.023565 164 164 164
0.312589 0.247651 -0.023956 164 164 164
0.311229 0.250978 -0.024337 164 164 164
0.309884 0.254326 -0.024722 163 163 163
0.308545 0.257674 -0.025108 163 163 163
0.307168 0.260939 -0.025478 162 162 162
0.305794 0.264197 -0.025847 161 161 161
0.304384 0.267378 -0.026202 161 161 161
0.302817 0.270243 -0.026496 160 160 160
0.301261 0.273123 -0.026792 159 159 159
0.299708 0.275999 -0.027089 158 158 158
0.298144 0.278848 -0.027380 157 157 157
0.296506 0.281547 -0.027643 156 156 156
0.294870 0.284242 -0.027905 156 156 156
0.293170 0.286807 -0.028143 155 155 155
0.291469 0.289364 -0.028378 154 154 154
0.289947 0.292257 -0.028680 154 154 154
0.288427 0.295147 -0.028982 154 154 154
0.286910 0.298033 -0.029283 154 154 154
0.285363 0.300855 -0.029572 154 154 154
0.283757 0.303559 -0.029838 154 154 154
0.282117 0.306191 -0.030090 154 154 154
0.280478 0.308819 -0.030342 154 154 154
0.278835 0.311433 -0.030592 154 154 154
0.277024 0.313728 -0.030779 154 154 154
0.275215 0.316020 -0.030966 154 154 154
0.273405 0.318307 -0.031152 153 153 153
0.271565 0.320532 -0.031326 154 154 154
0.269752 0.322804 -0.031510 155 155 155
0.267796 0.324807 -0.031641 154 154 154
0.265841 0.326809 -0.031771 154 154 154
0.263888 0.328810 -0.031902 154 154 154
0.261936 0.330810 -0.032033 154 154 154
0.259955 0.332755 -0.032153 154 154 154
0.257898 0.334557 -0.032245 154 154 154
0.255839 0.336353 -0.032336 153 153 153
0.253746 0.338086 -0.032415 153 153 153
0.251616 0.339751 -0.032480 152 152 152
0.249408 0.341273 -0.032517 151 151 151
0.247154 0.342711 -0.032537 150 150 150
0.244838 0.344036 -0.032536 149 149 149
0.242483 0.345292 -0.032520 149 149 149
0.240129 0.346551 -0.032505 148 148 148
0.237786 0.347829 -0.032494 148 148 148
0.235400 0.349031 -0.032468 147 147 147
0.232942 0.350105 -0.032416 147 147 147
0.230512 0.351230 -0.032374 147 147 147
0.228161 0.352498 -0.032361 146 146 146
0.225887 0.353900 -0.032374 146 146 146
0.223709 0.355470 -0.032421 146 146 146
0.221580 0.357126 -0.032485 146 146 146
0.219490 0.358847 -0.032562 147 147 147
0.217446 0.360649 -0.032655 148 148 148
0.215516 0.362644 -0.032787 149 149 149
0.213647 0.364744 -0.032940 150 150 150
0.211785 0.366851 -0.033095 149 149 149
0.209923 0.368956 -0.033249 148 148 148
0.208089 0.371104 -0.033412 148 148 148
0.206445 0.373575 -0.033640 146 146 146
0.204771 0.375990 -0.033857 145 145 145
0.203113 0.378427 -0.034079 144 144 144
0.201503 0.380940 -0.034316 144 144 144
0.199823 0.383329 -0.034529 144 144 144
0.198147 0.385719 -0.034742 144 144 144
0.196461 0.388087 -0.034950 144 144 144
0.194719 0.390356 -0.035140 143 143 143
0.192993 0.392647 -0.035334 141 141 141
0.191316 0.395016 -0.035544 140 140 140
0.189562 0.397251 -0.035727 139 139 139
0.187833 0.399524 -0.035918 138 138 138
0.186106 0.401795 -0.036109 138 138 138
0.184301 0.403932 -0.036273 138 138 138
0.182402 0.405909 -0.036404 138 138 138
0.180504 0.407885 -0.036536 138 138 138
0.178608 0.409859 -0.036668 138 138 138
0.176591 0.411632 -0.036759 138 138 138
0.174456 0.413208 -0.036811 138 138 138
0.171944 0.414163 -0.036737 138 138 138
0.169438 0.415129 -0.036664 138 138 138
0.166972 0.416163 -0.036606 138 138 138
0.164505 0.417197 -0.036548 138 138 138
0.161857 0.417936 -0.036429 138 138 138
0.158614 0.417712 -0.036115 138 138 138
0.155175 0.417177 -0.035738 138 138 138
0.151723 0.416630 -0.035357 138 138 138
0.147225 0.414404 -0.034635 138 138 138
0.142835 0.412367 -0.033950 138 138 138
0.138188 0.409934 -0.033183 138 138 138
0.133759 0.407867 -0.032490 138 138 138
0.129712 0.406427 -0.031925 138 138 138
0.126026 0.405574 -0.031478 138 138 138
0.122452 0.404911 -0.031070 138 138 138
0.119288 0.404908 -0.030795 138 138 138
0.116508 0.405520 -0.030647 138 138 138
0.113699 0.406089 -0.030489 138 138 138
0.110888 0.406658 -0.030331 138 138 138
0.108074 0.407227 -0.030173 138 138 138
0.105347 0.407935 -0.030043 138 138 138
0.102693 0.408761 -0.029937 138 138 138
0.100081 0.409654 -0.029845 138 138 138
0.097567 0.410701 -0.029785 138 138 138
0.095105 0.411833 -0.029741 138 138 138
0.092643 0.412964 -0.029698 138 138 138
0.090297 0.414275 -0.029691 138 138 138
0.087961 0.415604 -0.029688 138 138 138
0.085625 0.416932 -0.029685 138 138 138
0.083302 0.418278 -0.029686 138 138 138
0.081114 0.419834 -0.029730 138 138 138
0.078972 0.421458 -0.029788 138 138 138
0.076831 0.423083 -0.029846 138 138 138
0.074550 0.424493 -0.029860 138 138 138
0.072182 0.425770 -0.029846 138 138 138
0.069813 0.427046 -0.029833 138 138 138
0.067429 0.428299 -0.029814 138 138 138
0.064672 0.428991 -0.029679 138 138 138
0.061915 0.429684 -0.029545 138 138 138
0.058751 0.429769 -0.029284 138 138 138
0.055500 0.429729 -0.028997 138 138 138
0.052276 0.429735 -0.028719 138 138 138
0.048976 0.429634 -0.028418 138 138 138
0.044945 0.428450 -0.027892 138 138 138
0.040897 0.427252 -0.027362 138 138 138
0.036844 0.426058 -0.026833 138 138 138
0.032821 0.424920 -0.026315 138 138 138
0.028799 0.423794 -0.025798 138 138 138
0.025046 0.423075 -0.025366 138 138 138
0.021321 0.422407 -0.024944 138 138 138
0.017613 0.421774 -0.024528 138 138 138
0.014129 0.421476 -0.024182 138 138 138
0.010808 0.421425 -0.023887 138 138 138
0.007636 0.421595 -0.023638 138 138 138
0.004360 0.421622 -0.023359 138 138 138
0.001198 0.421818 -0.023115 138 138 138
-0.001968 0.422014 -0.022870 138 138 138
-0.005108 0.422253 -0.022634 138 138 138
-0.008342 0.422362 -0.022371 138 138 138
-0.011922 0.421979 -0.022004 138 138 138
-0.015339 0.421836 -0.021687 138 138 138
-0.018760 0.421694 -0.021370 138 138 138
-0.022461 0.421160 -0.020970 138 138 138
-0.026155 0.420644 -0.020573 138 138 138
-0.029948 0.419995 -0.020148 138 138 138
-0.033803 0.419266 -0.019705 138 138 138
-0.037628 0.418590 -0.019273 138 138 138
-0.041372 0.418037 -0.018866 138 138 138
-0.045178 0.417405 -0.018442 138 138 138
-0.049020 0.416732 -0.018009 138 138 138
-0.052868 0.416057 -0.017575 138 138 138
-0.056828 0.415236 -0.017110 138 138 138
-0.060825 0.414373 -0.016635 138 138 138
-0.064926 0.413374 -0.016130 138 138 138
-0.069119 0.412258 -0.015600 138 138 138
-0.073542 0.410832 -0.015004 138 138 138
-0.078322 0.408924 -0.014305 138 138 138
-0.083432 0.406575 -0.013511 138 138 138
-0.088276 0.404608 -0.012797 138 138 138
-0.093288 0.402424 -0.012037 138 138 138
-0.098275 0.400291 -0.011286 138 138 138
-0.103037 0.398481 -0.010603 138 138 138
-0.107845 0.396622 -0.009908 138 138 138
-0.112647 0.394786 -0.009218 138 138 138
-0.116978 0.393603 -0.008666 138 138 138
-0.122366 0.390997 -0.007810 138 138 138
-0.127038 0.389379 -0.007163 138 138 138
-0.132768 0.386341 -0.006213 138 138 138
-0.138520 0.383293 -0.005258 138 138 138
-0.144186 0.380379 -0.004332 138 138 138
-0.149562 0.377875 -0.003492 138 138 138
-0.154923 0.375408 -0.002658 138 138 138
-0.159855 0.373531 -0.001951 138 138 138
-0.164566 0.371964 -0.001308 138 138 138
-0.169411 0.370230 -0.000630 138 138 138
-0.174079 0.368746 -0.000004 138 138 138
-0.178538 0.367551 0.000561 138 138 138
-0.183578 0.365598 0.001290 138 138 138
-0.188922 0.363259 0.002102 138 138 138
-0.195091 0.359846 0.003147 138 138 138
-0.202312 0.355069 0.004487 138 138 138
-0.212599 0.346292 0.006692 138 138 138
-0.229235 0.329236 0.010686 138 138 138
-0.234825 0.326706 0.011549 138 138 138
-0.239755 0.325053 0.012223 138 138 138
-0.245294 0.322622 0.013066 138 138 138
-0.250558 0.320564 0.013830 138 138 138
-0.257144 0.316807 0.014962 138 138 138
-0.265484 0.310801 0.016583 138 138 138
-0.273525 0.305214 0.018116 138 138 138
-0.281148 0.300194 0.019527 138 138 138
-0.287700 0.296579 0.020635 138 138 138
-0.293721 0.293667 0.021593 138 138 138
-0.299180 0.291494 0.022390 138 138 138
-0.304583 0.289407 0.023170 138 138 138
-0.310213 0.287046 0.024011 138 138 138
-0.317849 0.282149 0.025405 138 138 138
0.423261 -0.131998 0.020298 138 138 138
0.425551 -0.118111 0.018034 177 177 177
0.426273 -0.108257 0.016504 175 175 175
0.426244 -0.100341 0.015328 172 172 172
0.426077 -0.092809 0.014221 170 170 170
0.425982 -0.085134 0.013086 169 169 169
0.426137 -0.076869 0.011843 167 167 167
0.426629 -0.067808 0.010451 167 167 167
0.426736 -0.059747 0.009242 166 166 166
0.426625 -0.052262 0.008137 165 165 165
0.426623 -0.044544 0.006988 164 164 164
0.426543 -0.037054 0.005879 164 164 164
0.426028 -0.030665 0.004972 163 163 163
0.425663 -0.023939 0.004002 164 164 164
0.425478 -0.016805 0.002956 163 163 163
0.425130 -0.010099 0.001987 162 162 162
0.424131 -0.005003 0.001314 162 162 162
0.423280 0.000431 0.000578 161 161 161
0.422194 0.005275 -0.000050 159 159 159
0.421125 0.010143 -0.000682 158 158 158
0.419763 0.014286 -0.001182 158 158 158
0.418275 0.018116 -0.001625 158 158 158
0.416855 0.022091 -0.002094 158 158 158
0.415703 0.026691 -0.002680 157 157 157
0.414879 0.032047 -0.003407 157 157 157
0.414145 0.037594 -0.004170 158 158 158
0.413386 0.043058 -0.004918 158 158 158
0.412549 0.048318 -0.005629 158 158 158
0.411938 0.054083 -0.006435 158 158 158
0.411149 0.059410 -0.007161 157 157 157
0.410081 0.064064 -0.007762 157 157 157
0.409276 0.069310 -0.008474 158 158 158
0.408750 0.075182 -0.009303 158 158 158
0.408166 0.080895 -0.010103 156 156 156
0.407149 0.085586 -0.010714 155 155 155
0.406077 0.090132 -0.011299 153 153 153
0.404639 0.093824 -0.011725 151 151 151
0.403058 0.097177 -0.012088 151 151 151
0.401494 0.100555 -0.012457 150 150 150
0.399976 0.104028 -0.012844 149 149 149
0.398266 0.107056 -0.013148 149 149 149
0.396591 0.110153 -0.013465 148 148 148
0.394918 0.113246 -0.013781 148 148 148
0.393179 0.116182 -0.014069 148 148 148
0.391389 0.118993 -0.014334 148 148 148
0.389593 0.121785 -0.014595 148 148 148
0.387774 0.124517 -0.014846 147 147 147
0.385896 0.127110 -0.015070 147 147 147
0.384003 0.129665 -0.015288 147 147 147
0.382081 0.132148 -0.015492 147 147 147
0.380157 0.134623 -0.015695 147 147 147
0.378259 0.137147 -0.015908 147 147 147
0.376382 0.139712 -0.016129 147 147 147
0.374456 0.142162 -0.016328 147 147 147
0.372541 0.144632 -0.016531 147 147 147
0.370632 0.147109 -0.016736 147 147 147
0.368701 0.149532 -0.016930 147 147 147
0.366849 0.152118 -0.017156 146 146 146
0.365032 0.154776 -0.017396 146 146 146
0.363124 0.157231 -0.017597 146 146 146
0.361244 0.159739 -0.017809 145 145 145
0.359368 0.162251 -0.018022 145 145 145
0.357622 0.165033 -0.018286 145 145 145
0.355903 0.167865 -0.018560 144 144 144
0.354213 0.170752 -0.018845 144 144 144
0.352444 0.173464 -0.019096 145 145 145
0.350678 0.176172 -0.019348 145 145 145
0.349049 0.179165 -0.019653 146 146 146
0.347264 0.181820 -0.019895 146 146 146
0.345553 0.184623 -0.020165 146 146 146
0.343878 0.187495 -0.020449 146 146 146
0.342219 0.190392 -0.020738 147 147 147
0.340416 0.192981 -0.020968 148 148 148
0.338614 0.195568 -0.021199 150 150 150
0.336815 0.198152 -0.021429 150 150 150
0.335144 0.200995 -0.021708 152 152 152
0.333464 0.203812 -0.021984 155 155 155
0.331839 0.206733 -0.022279 155 155 155
0.330260 0.209740 -0.022591 155 155 155
0.328655 0.212685 -0.022891 156 156 156
0.326972 0.215466 -0.023161 157 157 157
0.325363 0.218386 -0.023457 159 159 159
0.323708 0.221207 -0.023735 161 161 161
0.322106 0.224128 -0.024032 161 161 161
0.320577 0.227186 -0.024356 162 162 162
0.319050 0.230241 -0.024680 162 162 162
0.317676 0.233592 -0.025060 163 163 163
0.316402 0.237133 -0.025478 163 163 163
0.315146 0.240698 -0.025901 164 164 164
0.313866 0.244205 -0.026313 164 164 164
0.312553 0.247634 -0.026711 164 164 164
0.311193 0.250961 -0.027089 163 163 163
0.309856 0.254323 -0.027475 163 163 163
0.308540 0.257717 -0.027867 163 163 163
0.307164 0.260981 -0.028235 162 162 162
0.305740 0.264142 -0.028583 161 161 161
0.304176 0.267021 -0.028877 159 159 159
0.302632 0.269932 -0.029178 158 158 158
0.301053 0.272766 -0.029464 157 157 157
0.299476 0.275596 -0.029750 156 156 156
0.297907 0.278435 -0.030038 156 156 156
0.296279 0.281153 -0.030303 155 155 155
0.294574 0.283715 -0.030538 154 154 154
0.292871 0.286275 -0.030772 153 153 153
0.291170 0.288833 -0.031007 153 153 153
0.289550 0.291540 -0.031271 152 152 152
0.288031 0.294431 -0.031571 152 152 152
0.286514 0.297318 -0.031870 152 152 152
0.284926 0.300063 -0.032142 152 152 152
0.283303 0.302736 -0.032401 152 152 152
0.281658 0.305361 -0.032650 152 152 152
0.280015 0.307983 -0.032899 152 152 152
0.278425 0.310696 -0.033167 151 151 151
0.276825 0.313386 -0.033430 150 150 150
0.275016 0.315679 -0.033616 152 152 152
0.273175 0.317907 -0.033789 152 152 152
0.271335 0.320132 -0.033962 153 153 153
0.269632 0.322607 -0.034184 153 153 153
0.267708 0.324669 -0.034326 153 153 153
0.265754 0.326671 -0.034456 153 153 153
0.263800 0.328672 -0.034586 153 153 153
0.261832 0.330642 -0.034710 153 153 153
0.259858 0.332599 -0.034832 153 153 153
0.257822 0.334439 -0.034931 153 153 153
0.255799 0.336301 -0.035034 153 153 153
0.253736 0.338087 -0.035123 152 152 152
0.251597 0.339734 -0.035184 152 152 152
0.249390 0.341255 -0.035221 151 151 151
0.247189 0.342788 -0.035260 150 150 150
0.244802 0.343985 -0.035233 150 150 150
0.242447 0.345241 -0.035217 150 150 150
0.240092 0.346497 -0.035202 149 149 149
0.237743 0.347763 -0.035188 149 149 149
0.235350 0.348951 -0.035160 148 148 148
0.232891 0.350025 -0.035108 148 148 148
0.230465 0.351157 -0.035068 148 148 148
0.228151 0.352488 -0.035067 148 148 148
0.225887 0.353907 -0.035084 148 148 148
0.223624 0.355326 -0.035101 147 147 147
0.221476 0.356948 -0.035158 148 148 148
0.219388 0.358673 -0.035235 149 149 149
0.217333 0.360453 -0.035323 150 150 150
0.215371 0.362393 -0.035444 151 151 151
0.213507 0.364502 -0.035597 150 150 150
0.211645 0.366609 -0.035751 149 149 149
0.209784 0.368714 -0.035905 148 148 148
0.207924 0.370818 -0.036058 148 148 148
0.206191 0.373135 -0.036254 147 147 147
0.204517 0.375551 -0.036470 146 146 146
0.202818 0.377918 -0.036676 145 145 145
0.201051 0.380163 -0.036858 145 145 145
0.199357 0.382528 -0.037065 144 144 144
0.197680 0.384919 -0.037277 144 144 144
0.195983 0.387270 -0.037481 144 144 144
0.194241 0.389539 -0.037669 143 143 143
0.192501 0.391807 -0.037857 142 142 142
0.190766 0.394081 -0.038047 140 140 140
0.189027 0.396341 -0.038234 139 139 139
0.187298 0.398616 -0.038424 138 138 138
0.185571 0.400888 -0.038614 138 138 138
0.183845 0.403158 -0.038803 138 138 138
0.181993 0.405213 -0.038950 138 138 138
0.180095 0.407189 -0.039081 138 138 138
0.178155 0.409092 -0.039198 138 138 138
0.176144 0.410876 -0.039290 138 138 138
0.173949 0.412355 -0.039322 138 138 138
0.171782 0.413877 -0.039362 138 138 138
0.169269 0.414833 -0.039289 138 138 138
0.166756 0.415789 -0.039215 138 138 138
0.164242 0.416745 -0.039141 138 138 138
0.161592 0.417482 -0.039023 138 138 138
0.158092 0.416841 -0.038627 138 138 138
0.154645 0.416293 -0.038249 138 138 138
0.151191 0.415745 -0.037870 138 138 138
0.146600 0.413368 -0.037122 138 138 138
0.142204 0.411324 -0.036439 138 138 138
0.137467 0.408749 -0.035649 138 138 138
0.132993 0.406611 -0.034946 138 138 138
0.128809 0.404954 -0.034339 138 138 138
0.125324 0.404425 -0.033961 138 138 138
0.122038 0.404222 -0.033648 138 138 138
0.118780 0.404071 -0.033346 138 138 138
0.116000 0.404682 -0.033198 138 138 138
0.113217 0.405294 -0.033050 138 138 138
0.110432 0.405906 -0.032901 138 138 138
0.107646 0.406518 -0.032753 138 138 138
0.104885 0.407173 -0.032613 138 138 138
0.102320 0.408140 -0.032537 138 138 138
0.099754 0.409106 -0.032460 138 138 138
0.097174 0.410051 -0.032379 138 138 138
0.094647 0.411081 -0.032315 138 138 138
0.092184 0.412212 -0.032272 138 138 138
0.089803 0.413470 -0.032254 138 138 138
0.087467 0.414799 -0.032251 138 138 138
0.085168 0.416184 -0.032260 138 138 138
0.082916 0.417642 -0.032283 138 138 138
0.080672 0.419112 -0.032309 138 138 138
0.078502 0.420694 -0.032358 138 138 138
0.076364 0.422324 -0.032417 138 138 138
0.074165 0.423861 -0.032457 138 138 138
0.071797 0.425137 -0.032443 138 138 138
0.069376 0.426336 -0.032414 138 138 138
0.066827 0.427340 -0.032344 138 138 138
0.064204 0.428234 -0.032252 138 138 138
0.061490 0.428994 -0.032132 138 138 138
0.058445 0.429258 -0.031909 138 138 138
0.055194 0.429218 -0.031624 138 138 138
0.051938 0.429177 -0.031338 138 138 138
0.048685 0.429147 -0.031054 138 138 138
0.044698 0.428028 -0.030544 138 138 138
0.040628 0.426797 -0.030011 138 138 138
0.036557 0.425577 -0.029479 138 138 138
0.032537 0.424443 -0.028965 138 138 138
0.028516 0.423319 -0.028452 138 138 138
0.024725 0.422544 -0.028011 138 138 138
0.020999 0.421876 -0.027591 138 138 138
0.017267 0.421207 -0.027171 138 138 138
0.013913 0.421100 -0.026866 138 138 138
0.010744 0.421270 -0.026619 138 138 138
0.007526 0.421374 -0.026358 138 138 138
0.004247 0.421394 -0.026079 138 138 138
0.001045 0.421533 -0.025825 138 138 138
-0.002121 0.421730 -0.025582 138 138 138
-0.005290 0.421926 -0.025338 138 138 138
-0.008431 0.422169 -0.025105 138 138 138
-0.011729 0.422190 -0.024824 138 138 138
-0.015144 0.422048 -0.024509 138 138 138
-0.018565 0.421906 -0.024194 138 138 138
-0.022088 0.421625 -0.023849 138 138 138
-0.025802 0.421078 -0.023449 138 138 138
-0.029500 0.420562 -0.023054 138 138 138
-0.033249 0.419982 -0.022645 138 138 138
-0.037016 0.419386 -0.022233 138 138 138
-0.040794 0.418782 -0.021818 138 138 138
-0.044583 0.418171 -0.021401 138 138 138
-0.048415 0.417508 -0.020973 138 138 138
-0.052283 0.416805 -0.020536 138 138 138
-0.056275 0.415936 -0.020064 138 138 138
-0.060299 0.415033 -0.019583 138 138 138
-0.064665 0.413662 -0.019004 138 138 138
-0.069170 0.412109 -0.018385 138 138 138
-0.073637 0.410622 -0.017780 138 138 138
-0.078897 0.408049 -0.016944 138 138 138
-0.084345 0.405232 -0.016057 138 138 138
-0.089194 0.403261 -0.015346 138 138 138
-0.094350 0.400881 -0.014549 138 138 138
-0.099316 0.398779 -0.013809 138 138 138
-0.104075 0.396974 -0.013131 138 138 138
-0.108780 0.395259 -0.012471 138 138 138
-0.113205 0.393939 -0.011894 138 138 138
-0.117469 0.392850 -0.011365 138 138 138
-0.122356 0.390924 -0.010658 138 138 138
-0.126989 0.389357 -0.010027 138 138 138
-0.132084 0.387178 -0.009264 138 138 138
-0.137399 0.384718 -0.008441 138 138 138
-0.143036 0.381840 -0.007528 138 138 138
-0.148554 0.379141 -0.006652 138 138 138
-0.153908 0.376679 -0.005825 138 138 138
-0.159100 0.374449 -0.005047 138 138 138
-0.163815 0.372874 -0.004407 138 138 138
-0.168750 0.371018 -0.003706 138 138 138
-0.173446 0.369493 -0.003075 138 138 138
-0.178216 0.367884 -0.002426 138 138 138
-0.183457 0.365662 -0.001644 138 138 138
-0.189201 0.362792 -0.000723 138 138 138
-0.195318 0.359448 0.000301 138 138 138
-0.202599 0.354592 0.001650 138 138 138
-0.211151 0.348093 0.003352 138 138 138
-0.227449 0.331475 0.007228 138 138 138
-0.234265 0.327335 0.008430 138 138 138
-0.239546 0.325223 0.009199 138 138 138
-0.244520 0.323527 0.009879 138 138 138
-0.250159 0.320978 0.010743 138 138 138
-0.256942 0.316963 0.011924 138 138 138
-0.265633 0.310502 0.013633 138 138 138
-0.274538 0.303797 0.015397 138 138 138
-0.282300 0.298601 0.016838 138 138 138
-0.288735 0.295139 0.017907 138 138 138
-0.294685 0.292319 0.018838 138 138 138
-0.300299 0.289949 0.019674 138 138 138
-0.305718 0.287845 0.020453 138 138 138
-0.311775 0.284941 0.021406 138 138 138
-0.319887 0.279441 0.022922 138 138 138
0.422634 -0.133393 0.017511 138 138 138
0.425271 -0.118624 0.015100 175 175 175
0.425924 -0.108942 0.013611 172 172 172
0.425735 -0.101429 0.012516 171 171 171
0.425405 -0.094306 0.011490 168 168 168
0.425329 -0.086579 0.010353 168 168 168
0.425515 -0.078237 0.009103 165 165 165
0.425811 -0.069661 0.007808 165 165 165
0.426044 -0.061281 0.006548 165 165 165
0.425907 -0.053858 0.005461 163 163 163
0.425797 -0.046405 0.004368 163 163 163
0.425817 -0.038665 0.003221 162 162 162
0.425395 -0.032046 0.002277 161 161 161
0.425140 -0.025048 0.001263 162 162 162
0.425100 -0.017558 0.000158 162 162 162
0.424489 -0.011492 -0.000687 160 160 160
0.423496 -0.006377 -0.001359 159 159 159
0.422896 -0.000333 -0.002202 159 159 159
0.421822 0.004540 -0.002832 157 157 157
0.420650 0.009159 -0.003415 156 156 156
0.419272 0.013268 -0.003905 155 155 155
0.417804 0.017146 -0.004354 156 156 156
0.416320 0.020970 -0.004793 156 156 156
0.415119 0.025454 -0.005354 155 155 155
0.414247 0.030699 -0.006056 155 155 155
0.413320 0.035793 -0.006730 155 155 155
0.412541 0.041215 -0.007466 156 156 156
0.411764 0.046618 -0.008199 156 156 156
0.411140 0.052358 -0.008995 156 156 156
0.410563 0.058182 -0.009808 157 157 157
0.409490 0.062826 -0.010404 157 157 157
0.408676 0.068056 -0.011108 157 157 157
0.408155 0.073940 -0.011934 158 158 158
0.407599 0.079720 -0.012742 157 157 157
0.406655 0.084580 -0.013381 155 155 155
0.405566 0.089090 -0.013955 153 153 153
0.404229 0.093013 -0.014421 150 150 150
0.402663 0.096401 -0.014789 150 150 150
0.401085 0.099750 -0.015150 149 149 149
0.399481 0.103030 -0.015498 148 148 148
0.397828 0.106187 -0.015824 148 148 148
0.396154 0.109289 -0.016140 148 148 148
0.394483 0.112387 -0.016456 147 147 147
0.392723 0.115276 -0.016733 146 146 146
0.390956 0.118141 -0.017006 146 146 146
0.389120 0.120842 -0.017249 145 145 145
0.387265 0.123497 -0.017483 146 146 146
0.385413 0.126150 -0.017717 146 146 146
0.383522 0.128711 -0.017935 145 145 145
0.381631 0.131265 -0.018151 145 145 145
0.379742 0.133817 -0.018368 145 145 145
0.377857 0.136370 -0.018584 145 145 145
0.375942 0.138852 -0.018788 146 146 146
0.374015 0.141302 -0.018986 146 146 146
0.372104 0.143781 -0.019190 146 146 146
0.370207 0.146286 -0.019398 146 146 146
0.368296 0.148753 -0.019600 145 145 145
0.366409 0.151266 -0.019811 145 145 145
0.364471 0.153663 -0.020000 145 145 145
0.362562 0.156119 -0.020200 145 145 145
0.360660 0.158582 -0.020402 144 144 144
0.358784 0.161095 -0.020614 144 144 144
0.357047 0.163899 -0.020880 144 144 144
0.355319 0.166713 -0.021149 143 143 143
0.353510 0.169349 -0.021384 144 144 144
0.351730 0.172041 -0.021631 145 145 145
0.349964 0.174753 -0.021881 145 145 145
0.348335 0.177747 -0.022185 146 146 146
0.346668 0.180653 -0.022473 146 146 146
0.344964 0.183473 -0.022744 146 146 146
0.343324 0.186419 -0.023040 147 147 147
0.341686 0.189361 -0.023336 148 148 148
0.339975 0.192145 -0.023601 149 149 149
0.338174 0.194733 -0.023831 150 150 150
0.336426 0.197424 -0.024080 152 152 152
0.334774 0.200306 -0.024365 153 153 153
0.333184 0.203309 -0.024673 155 155 155
0.331617 0.206350 -0.024990 156 156 156
0.330061 0.209403 -0.025308 156 156 156
0.328489 0.212416 -0.025620 156 156 156
0.326874 0.215334 -0.025914 158 158 158
0.325251 0.218226 -0.026203 160 160 160
0.323651 0.221158 -0.026500 161 161 161
0.322068 0.224114 -0.026802 161 161 161
0.320539 0.227173 -0.027125 162 162 162
0.319013 0.230228 -0.027446 162 162 162
0.317665 0.233630 -0.027834 163 163 163
0.316371 0.237129 -0.028242 164 164 164
0.315076 0.240617 -0.028647 163 163 163
0.313774 0.244079 -0.029048 163 163 163
0.312484 0.247554 -0.029452 163 163 163
0.311157 0.250944 -0.029841 163 163 163
0.309827 0.254320 -0.030227 163 163 163
0.308526 0.257741 -0.030622 163 163 163
0.307083 0.260873 -0.030962 161 161 161
0.305571 0.263862 -0.031275 159 159 159
0.303968 0.266664 -0.031553 158 158 158
0.302460 0.269645 -0.031865 156 156 156
0.300882 0.272479 -0.032150 155 155 155
0.299305 0.275310 -0.032434 155 155 155
0.297647 0.277977 -0.032687 154 154 154
0.295940 0.280542 -0.032920 153 153 153
0.294250 0.283134 -0.033160 153 153 153
0.292562 0.285723 -0.033399 152 152 152
0.290871 0.288301 -0.033636 151 151 151
0.289172 0.290856 -0.033869 150 150 150
0.287621 0.293688 -0.034155 150 150 150
0.286022 0.296421 -0.034423 150 150 150
0.284425 0.299150 -0.034690 150 150 150
0.282830 0.301877 -0.034958 150 150 150
0.281189 0.304511 -0.035207 150 150 150
0.279549 0.307138 -0.035456 150 150 150
0.278008 0.309947 -0.035740 148 148 148
0.276401 0.312623 -0.035999 147 147 147
0.274755 0.315220 -0.036242 150 150 150
0.272944 0.317506 -0.036426 151 151 151
0.271104 0.319731 -0.036598 152 152 152
0.269404 0.322211 -0.036820 152 152 152
0.267620 0.324532 -0.037011 152 152 152
0.265663 0.326528 -0.037139 152 152 152
0.263687 0.328487 -0.037260 152 152 152
0.261712 0.330444 -0.037381 153 153 153
0.259738 0.332401 -0.037502 153 153 153
0.257750 0.334327 -0.037617 153 153 153
0.255719 0.336173 -0.037717 152 152 152
0.253702 0.338043 -0.037821 152 152 152
0.251584 0.339726 -0.037889 152 152 152
0.249399 0.341288 -0.037934 151 151 151
0.247209 0.342839 -0.037976 150 150 150
0.244891 0.344160 -0.037973 150 150 150
0.242487 0.345326 -0.037941 150 150 150
0.240083 0.346493 -0.037908 150 150 150
0.237702 0.347701 -0.037883 149 149 149
0.235299 0.348872 -0.037851 149 149 149
0.232916 0.350079 -0.037826 149 149 149
0.230536 0.351291 -0.037802 149 149 149
0.228157 0.352504 -0.037778 150 150 150
0.225890 0.353918 -0.037794 150 150 150
0.223624 0.355332 -0.037810 150 150 150
0.221372 0.356770 -0.037830 149 149 149
0.219287 0.358500 -0.037908 150 150 150
0.217264 0.360336 -0.038007 151 151 151
0.215273 0.362224 -0.038116 151 151 151
0.213400 0.364316 -0.038266 151 151 151
0.211528 0.366406 -0.038415 150 150 150
0.209658 0.368496 -0.038564 149 149 149
0.207789 0.370583 -0.038714 148 148 148
0.205937 0.372696 -0.038868 148 148 148
0.204216 0.375031 -0.039067 147 147 147
0.202489 0.377350 -0.039262 145 145 145
0.200691 0.379543 -0.039433 145 145 145
0.198929 0.381793 -0.039616 145 145 145
0.197213 0.384117 -0.039813 144 144 144
0.195506 0.386452 -0.040013 144 144 144
0.193771 0.388735 -0.040202 143 143 143
0.192124 0.391161 -0.040421 142 142 142
0.190431 0.393506 -0.040623 141 141 141
0.188675 0.395738 -0.040803 139 139 139
0.186905 0.397944 -0.040978 138 138 138
0.185137 0.400148 -0.041153 138 138 138
0.183370 0.402351 -0.041328 138 138 138
0.181573 0.404500 -0.041493 138 138 138
0.179621 0.406386 -0.041605 138 138 138
0.177672 0.408276 -0.041718 138 138 138
0.175724 0.410164 -0.041831 138 138 138
0.173557 0.411690 -0.041872 138 138 138
0.171348 0.413145 -0.041899 138 138 138
0.169107 0.414546 -0.041915 138 138 138
0.166581 0.415482 -0.041837 138 138 138
0.163868 0.416113 -0.041699 138 138 138
0.161153 0.416744 -0.041560 138 138 138
0.157685 0.416156 -0.041177 138 138 138
0.154114 0.415409 -0.040761 138 138 138
0.150659 0.414860 -0.040385 138 138 138
0.146224 0.412737 -0.039692 138 138 138
0.141530 0.410212 -0.038917 138 138 138
0.136762 0.407588 -0.038121 138 138 138
0.132584 0.405928 -0.037519 138 138 138
0.128604 0.404597 -0.036982 138 138 138
0.125144 0.404108 -0.036614 138 138 138
0.121787 0.403792 -0.036280 138 138 138
0.118447 0.403510 -0.035953 138 138 138
0.115559 0.403951 -0.035772 138 138 138
0.112791 0.404587 -0.035629 138 138 138
0.110022 0.405224 -0.035487 138 138 138
0.107285 0.405915 -0.035355 138 138 138
0.104564 0.406633 -0.035229 138 138 138
0.101996 0.407596 -0.035152 138 138 138
0.099427 0.408557 -0.035075 138 138 138
0.096847 0.409503 -0.034994 138 138 138
0.094266 0.410449 -0.034914 138 138 138
0.091728 0.411464 -0.034847 138 138 138
0.089317 0.412677 -0.034821 138 138 138
0.087035 0.414090 -0.034835 138 138 138
0.084774 0.415535 -0.034856 138 138 138
0.082530 0.417006 -0.034881 138 138 138
0.080286 0.418476 -0.034907 138 138 138
0.078043 0.419947 -0.034933 138 138 138
0.075887 0.421550 -0.034986 138 138 138
0.073753 0.423186 -0.035046 138 138 138
0.071314 0.424357 -0.035011 138 138 138
0.068843 0.425480 -0.034966 138 138 138
0.066220 0.426374 -0.034874 138 138 138
0.063596 0.427268 -0.034782 138 138 138
0.060971 0.428162 -0.034690 138 138 138
0.058175 0.428801 -0.034546 138 138 138
0.055000 0.428875 -0.034286 138 138 138
0.051693 0.428758 -0.033986 138 138 138
0.048297 0.428515 -0.033660 138 138 138
0.044433 0.427580 -0.033191 138 138 138
0.040355 0.426338 -0.032659 138 138 138
0.036270 0.425095 -0.032126 138 138 138
0.032254 0.423968 -0.031616 138 138 138
0.028232 0.422843 -0.031106 138 138 138
0.024392 0.421997 -0.030653 138 138 138
0.020816 0.421548 -0.030281 138 138 138
0.017320 0.421225 -0.029934 138 138 138
0.013848 0.420946 -0.029596 138 138 138
0.010680 0.421116 -0.029351 138 138 138
0.007416 0.421152 -0.029077 138 138 138
0.004136 0.421171 -0.028800 138 138 138
0.000892 0.421249 -0.028534 138 138 138
-0.002273 0.421446 -0.028293 138 138 138
-0.005367 0.421750 -0.028073 138 138 138
-0.008465 0.422054 -0.027854 138 138 138
-0.011649 0.422239 -0.027609 138 138 138
-0.015011 0.422174 -0.027312 138 138 138
-0.018377 0.422108 -0.027015 138 138 138
-0.021794 0.421977 -0.026704 138 138 138
-0.025449 0.421512 -0.026322 138 138 138
-0.029140 0.421004 -0.025932 138 138 138
-0.032833 0.420502 -0.025542 138 138 138
-0.036504 0.420040 -0.025160 138 138 138
-0.040216 0.419527 -0.024767 138 138 138
-0.043998 0.418923 -0.024355 138 138 138
-0.047812 0.418284 -0.023934 138 138 138
-0.051728 0.417510 -0.023485 138 138 138
-0.055720 0.416639 -0.023015 138 138 138
-0.059994 0.415383 -0.022464 138 138 138
-0.064322 0.414063 -0.021899 138 138 138
-0.069227 0.411953 -0.021167 138 138 138
-0.074070 0.409943 -0.020456 138 138 138
-0.079551 0.407064 -0.019562 138 138 138
-0.085141 0.404051 -0.018638 138 138 138
-0.090186 0.401812 -0.017876 138 138 138
-0.095412 0.399336 -0.017063 138 138 138
-0.100337 0.397293 -0.016340 138 138 138
-0.104993 0.395633 -0.015696 138 138 138
-0.109454 0.394252 -0.015111 138 138 138
-0.113708 0.393167 -0.014587 138 138 138
-0.117943 0.392119 -0.014070 138 138 138
-0.122369 0.390821 -0.013500 138 138 138
-0.126936 0.389342 -0.012891 138 138 138
-0.131755 0.387536 -0.012212 138 138 138
-0.136987 0.385186 -0.011417 138 138 138
-0.142130 0.382971 -0.010650 138 138 138
-0.147644 0.380273 -0.009779 138 138 138
-0.152894 0.377948 -0.008987 138 138 138
-0.158124 0.375664 -0.008202 138 138 138
-0.163065 0.373783 -0.007501 138 138 138
-0.167995 0.371930 -0.006806 138 138 138
-0.173009 0.369980 -0.006089 138 138 138
-0.178032 0.368033 -0.005372 138 138 138
-0.183736 0.365197 -0.004465 138 138 138
-0.189481 0.362325 -0.003549 138 138 138
-0.195669 0.358888 -0.002511 138 138 138
-0.202858 0.354153 -0.001197 138 138 138
-0.209911 0.349622 0.000077 138 138 138
-0.222021 0.338490 0.002759 138 138 138
-0.231958 0.330251 0.004827 138 138 138
-0.238474 0.326520 0.005936 138 138 138
-0.243359 0.324935 0.006588 138 138 138
-0.249760 0.321392 0.007659 138 138 138
-0.256508 0.317420 0.008823 138 138 138
-0.265572 0.310474 0.010626 138 138 138
-0.275552 0.302380 0.012676 138 138 138
-0.283037 0.297541 0.014032 138 138 138
-0.289422 0.294145 0.015080 138 138 138
-0.295630 0.290997 0.016076 138 138 138
-0.301337 0.288509 0.016932 138 138 138
-0.306854 0.286281 0.017733 138 138 138
-0.313585 0.282520 0.018865 138 138 138
-0.322969 0.275404 0.020720 100 100 100
0.421830 -0.135234 0.014802 139 139 139
0.424990 -0.119138 0.012166 174 174 174
0.425442 -0.109965 0.010779 170 170 170
0.425113 -0.102803 0.009753 169 169 169
0.424732 -0.095803 0.008756 166 166 166
0.424658 -0.088070 0.007625 165 165 165
0.424643 -0.080226 0.006473 151 151 151
0.424992 -0.071515 0.005162 163 163 163
0.425314 -0.062912 0.003870 164 164 164
0.425189 -0.055455 0.002783 162 162 162
0.424922 -0.048385 0.001766 161 161 161
0.424935 -0.040658 0.000629 161 161 161
0.424761 -0.033427 -0.000420 159 159 159
0.424541 -0.026341 -0.001444 158 158 158
0.424301 -0.019336 -0.002453 158 158 158
0.423802 -0.012995 -0.003344 157 157 157
0.422860 -0.007753 -0.004035 157 157 157
0.422388 -0.001400 -0.004929 156 156 156
0.421289 0.003416 -0.005544 155 155 155
0.419877 0.007462 -0.006019 154 154 154
0.418471 0.011505 -0.006494 152 152 152
0.417111 0.015646 -0.006988 152 152 152
0.415755 0.019777 -0.007480 152 152 152
0.414491 0.024113 -0.008011 152 152 152
0.413494 0.029066 -0.008654 153 153 153
0.412476 0.033950 -0.009286 153 153 153
0.411682 0.039339 -0.010011 153 153 153
0.410945 0.044840 -0.010758 154 154 154
0.410339 0.050625 -0.011557 155 155 155
0.409810 0.056566 -0.012386 156 156 156
0.408898 0.061588 -0.013047 156 156 156
0.408099 0.066853 -0.013754 157 157 157
0.407510 0.072582 -0.014546 158 158 158
0.406939 0.078328 -0.015343 157 157 157
0.406152 0.083554 -0.016045 154 154 154
0.405047 0.088028 -0.016609 152 152 152
0.403710 0.091953 -0.017073 150 150 150
0.402268 0.095626 -0.017490 149 149 149
0.400652 0.098889 -0.017833 148 148 148
0.399024 0.102116 -0.018169 148 148 148
0.397398 0.105337 -0.018505 147 147 147
0.395725 0.108441 -0.018819 147 147 147
0.394024 0.111472 -0.019121 146 146 146
0.392244 0.114318 -0.019388 145 145 145
0.390470 0.117169 -0.019657 144 144 144
0.388614 0.119829 -0.019890 144 144 144
0.386756 0.122477 -0.020122 144 144 144
0.384903 0.125130 -0.020355 144 144 144
0.383041 0.127757 -0.020583 144 144 144
0.381150 0.130312 -0.020798 144 144 144
0.379262 0.132867 -0.021014 144 144 144
0.377378 0.135425 -0.021230 144 144 144
0.375501 0.137991 -0.021448 144 144 144
0.373574 0.140442 -0.021645 145 145 145
0.371666 0.142931 -0.021849 145 145 145
0.369769 0.145435 -0.022056 144 144 144
0.367840 0.147864 -0.022250 144 144 144
0.365868 0.150195 -0.022425 144 144 144
0.363912 0.152556 -0.022606 144 144 144
0.362002 0.155010 -0.022805 144 144 144
0.360094 0.157462 -0.023003 143 143 143
0.358200 0.159939 -0.023207 143 143 143
0.356444 0.162704 -0.023465 143 143 143
0.354643 0.165366 -0.023703 144 144 144
0.352828 0.167992 -0.023935 144 144 144
0.351016 0.170617 -0.024167 144 144 144
0.349250 0.173332 -0.024417 145 145 145
0.347621 0.176329 -0.024719 146 146 146
0.346021 0.179379 -0.025032 146 146 146
0.344428 0.182433 -0.025346 147 147 147
0.342777 0.185358 -0.025636 148 148 148
0.341138 0.188301 -0.025930 149 149 149
0.339502 0.191241 -0.026223 150 150 150
0.337733 0.193897 -0.026463 151 151 151
0.336068 0.196760 -0.026743 153 153 153
0.334499 0.199814 -0.027059 154 154 154
0.332931 0.202863 -0.027374 155 155 155
0.331357 0.205888 -0.027685 156 156 156
0.329801 0.208942 -0.028002 157 157 157
0.328257 0.212013 -0.028323 157 157 157
0.326754 0.215157 -0.028658 160 160 160
0.325201 0.218191 -0.028972 160 160 160
0.323631 0.221181 -0.029279 161 161 161
0.322047 0.224136 -0.029579 161 161 161
0.320502 0.227160 -0.029892 162 162 162
0.318986 0.230236 -0.030216 163 163 163
0.317651 0.233664 -0.030607 163 163 163
0.316288 0.237023 -0.030985 163 163 163
0.314983 0.240490 -0.031384 163 163 163
0.313682 0.243953 -0.031783 163 163 163
0.312383 0.247409 -0.032181 163 163 163
0.311121 0.250927 -0.032591 163 163 163
0.309787 0.254293 -0.032973 162 162 162
0.308391 0.257527 -0.033330 161 161 161
0.306960 0.260683 -0.033673 160 160 160
0.305361 0.263501 -0.033951 158 158 158
0.303760 0.266307 -0.034228 157 157 157
0.302263 0.269309 -0.034542 155 155 155
0.300710 0.272193 -0.034835 153 153 153
0.299007 0.274778 -0.035070 153 153 153
0.297296 0.277343 -0.035302 152 152 152
0.295586 0.279904 -0.035534 152 152 152
0.293888 0.282481 -0.035769 151 151 151
0.292200 0.285072 -0.036006 150 150 150
0.290514 0.287659 -0.036244 149 149 149
0.288798 0.290183 -0.036469 149 149 149
0.287097 0.292729 -0.036699 148 148 148
0.285511 0.295489 -0.036970 148 148 148
0.283923 0.298237 -0.037240 148 148 148
0.282328 0.300964 -0.037505 148 148 148
0.280720 0.303661 -0.037765 147 147 147
0.279124 0.306373 -0.038029 146 146 146
0.277447 0.308927 -0.038262 146 146 146
0.275824 0.311575 -0.038514 146 146 146
0.274292 0.314387 -0.038797 148 148 148
0.272688 0.317057 -0.039054 150 150 150
0.270874 0.319331 -0.039234 151 151 151
0.269176 0.321815 -0.039455 151 151 151
0.267438 0.324221 -0.039662 151 151 151
0.265518 0.326286 -0.039802 152 152 152
0.263560 0.328276 -0.039929 152 152 152
0.261592 0.330246 -0.040051 152 152 152
