ply
format ascii 1.0
element vertex 1211
property float x
property float y
property float z
property uchar red
property uchar green
property uchar blue
end_header
-0.207413 0.359258 0.174482 138 138 138
-0.210315 0.357548 0.174906 138 138 138
-0.213229 0.355734 0.175355 138 138 138
-0.216174 0.353597 0.175885 138 138 138
-0.219119 0.351498 0.176404 138 138 138
-0.222058 0.349539 0.176890 138 138 138
-0.225008 0.347491 0.177397 138 138 138
-0.227963 0.345430 0.177907 138 138 138
-0.230925 0.343348 0.178423 138 138 138
-0.233872 0.341477 0.178886 138 138 138
-0.236827 0.339567 0.179360 138 138 138
-0.239792 0.337588 0.179850 138 138 138
-0.242774 0.335470 0.180374 138 138 138
-0.245771 0.333238 0.180927 138 138 138
-0.248755 0.331196 0.181433 138 138 138
-0.251736 0.329233 0.181919 138 138 138
-0.254710 0.327385 0.182377 138 138 138
-0.257646 0.325966 0.182729 138 138 138
-0.260530 0.325112 0.182940 138 138 138
-0.263515 0.323245 0.183402 138 138 138
-0.266426 0.322172 0.183668 138 138 138
-0.269299 0.321494 0.183836 138 138 138
-0.272204 0.320517 0.184078 139 139 139
-0.275116 0.319484 0.184334 140 140 140
-0.278045 0.318311 0.184624 141 141 141
-0.280985 0.317065 0.184933 143 143 143
-0.283996 0.315165 0.185404 144 144 144
-0.287044 0.312963 0.185949 145 145 145
-0.290235 0.309485 0.186811 145 145 145
-0.293759 0.303025 0.188411 144 144 144
-0.297506 0.294672 0.190480 145 145 145
-0.301620 0.283189 0.193324 138 138 138
-0.305411 0.274779 0.195407 138 138 138
-0.308881 0.269362 0.196749 138 138 138
-0.312193 0.265411 0.197727 138 138 138
-0.315478 0.261775 0.198628 138 138 138
-0.318745 0.258357 0.199475 138 138 138
-0.321925 0.255742 0.200122 138 138 138
-0.325068 0.253478 0.200683 138 138 138
-0.328221 0.251172 0.201254 138 138 138
-0.331386 0.248807 0.201840 138 138 138
-0.334545 0.246530 0.202404 138 138 138
-0.337732 0.244070 0.203013 138 138 138
-0.340949 0.241405 0.203673 138 138 138
-0.344168 0.238767 0.204327 138 138 138
-0.347673 0.233917 0.205528 138 138 138
-0.351221 0.228796 0.206796 138 138 138
-0.355931 0.214714 0.210284 138 138 138
0.384010 0.067010 0.243713 139 139 139
0.379378 0.078978 0.240762 189 189 189
0.374717 0.091359 0.237708 189 189 189
0.369550 0.107895 0.233630 189 189 189
0.365228 0.118054 0.231125 185 185 185
0.361146 0.126487 0.229046 184 184 184
0.356951 0.135956 0.226710 185 185 185
0.352374 0.148671 0.223575 187 187 187
0.347906 0.160716 0.220604 184 184 184
0.343872 0.169415 0.218459 187 187 187
0.339590 0.180310 0.215772 185 185 185
0.335505 0.189753 0.213443 184 184 184
0.331694 0.197060 0.211641 183 183 183
0.328058 0.203004 0.210176 181 181 181
0.324496 0.208432 0.208837 177 177 177
0.320954 0.213780 0.207518 175 175 175
0.317604 0.217546 0.206589 171 171 171
0.314319 0.220821 0.205782 169 169 169
0.310992 0.224519 0.204870 168 168 168
0.307609 0.228795 0.203815 168 168 168
0.304212 0.233277 0.202710 169 169 169
0.300827 0.237737 0.201610 169 169 169
0.297246 0.244092 0.200043 170 170 170
0.293647 0.250744 0.198403 172 172 172
0.289970 0.258257 0.196550 175 175 175
0.286279 0.266055 0.194627 178 178 178
0.282377 0.276039 0.192165 184 184 184
0.278653 0.284505 0.190077 182 182 182
0.275120 0.291265 0.188410 181 181 181
0.271586 0.298170 0.186707 180 180 180
0.268053 0.305220 0.184968 175 175 175
0.264627 0.311338 0.183460 176 176 176
0.261278 0.316794 0.182114 169 169 169
0.258159 0.319991 0.181326 164 164 164
0.255046 0.323201 0.180534 163 163 163
0.251920 0.326620 0.179691 163 163 163
0.248784 0.330212 0.178805 162 162 162
0.245628 0.334115 0.177842 164 164 164
0.242465 0.338173 0.176842 166 166 166
0.239277 0.342614 0.175747 167 167 167
0.235965 0.348542 0.174285 171 171 171
0.232680 0.354302 0.172864 175 175 175
0.229335 0.360888 0.171240 177 177 177
0.225972 0.367848 0.169524 179 179 179
0.222759 0.373216 0.168200 179 179 179
0.219567 0.378464 0.166906 177 177 177
0.216510 0.382221 0.165979 176 176 176
0.213486 0.385681 0.165126 175 175 175
0.210539 0.388274 0.164486 171 171 171
0.207674 0.389907 0.164084 170 170 170
0.204826 0.391362 0.163725 169 169 169
0.201987 0.392752 0.163382 168 168 168
0.199154 0.394099 0.163050 167 167 167
0.196340 0.395236 0.162770 167 167 167
0.193561 0.395932 0.162598 167 167 167
0.190795 0.396470 0.162465 167 167 167
0.188032 0.396975 0.162341 167 167 167
0.185273 0.397451 0.162223 166 166 166
0.182517 0.397894 0.162114 166 166 166
0.179763 0.398323 0.162008 167 167 167
0.177015 0.398680 0.161920 168 168 168
0.174268 0.399034 0.161833 169 169 169
0.171524 0.399339 0.161758 170 170 170
0.168782 0.399643 0.161683 171 171 171
0.166036 0.400014 0.161591 173 173 173
0.163261 0.400843 0.161387 174 174 174
0.160454 0.402236 0.161043 176 176 176
0.157649 0.403624 0.160701 178 178 178
0.154836 0.405216 0.160309 180 180 180
0.151969 0.407769 0.159679 184 184 184
0.149024 0.411753 0.158696 185 185 185
0.146048 0.416449 0.157538 183 183 183
0.143123 0.420399 0.156564 182 182 182
0.140192 0.424624 0.155522 180 180 180
0.137339 0.427548 0.154801 178 178 178
0.134503 0.430254 0.154134 177 177 177
0.131674 0.432954 0.153468 175 175 175
0.128888 0.434903 0.152987 172 172 172
0.126121 0.436553 0.152580 169 169 169
0.123362 0.438126 0.152193 164 164 164
0.120610 0.439592 0.151831 162 162 162
0.117867 0.440943 0.151498 159 159 159
0.115131 0.442212 0.151185 154 154 154
0.112414 0.443100 0.150966 153 153 153
0.109699 0.443986 0.150747 151 151 151
0.107001 0.444523 0.150615 147 147 147
0.104303 0.445074 0.150479 144 144 144
0.101604 0.445677 0.150330 144 144 144
0.098909 0.446229 0.150194 143 143 143
0.096230 0.446368 0.150160 139 139 139
0.093559 0.446305 0.150175 138 138 138
0.090889 0.446197 0.150202 138 138 138
0.088222 0.446031 0.150243 138 138 138
0.085554 0.445852 0.150287 138 138 138
0.082888 0.445600 0.150349 138 138 138
0.080225 0.445251 0.150435 138 138 138
0.077561 0.444901 0.150522 138 138 138
0.074897 0.444552 0.150608 138 138 138
0.072227 0.444361 0.150655 138 138 138
0.069556 0.444218 0.150690 139 139 139
0.066885 0.444031 0.150736 140 140 140
0.064216 0.443776 0.150799 141 141 141
0.061546 0.443521 0.150862 141 141 141
0.058876 0.443253 0.150928 143 143 143
0.056204 0.443010 0.150988 144 144 144
0.053528 0.442974 0.150997 146 146 146
0.050853 0.442870 0.151023 146 146 146
0.048180 0.442698 0.151065 146 146 146
0.045509 0.442358 0.151149 146 146 146
0.042838 0.441922 0.151257 146 146 146
0.040169 0.441380 0.151390 145 145 145
0.037502 0.440602 0.151582 143 143 143
0.034833 0.439837 0.151771 141 141 141
0.032162 0.439071 0.151959 140 140 140
0.029491 0.438246 0.152163 139 139 139
0.026818 0.437420 0.152367 138 138 138
0.024142 0.436714 0.152541 138 138 138
0.021462 0.436230 0.152660 138 138 138
0.018782 0.435746 0.152780 138 138 138
0.016101 0.435261 0.152899 138 138 138
0.013418 0.434776 0.153019 138 138 138
0.010734 0.434482 0.153091 139 139 139
0.008049 0.434208 0.153159 139 139 139
0.005363 0.433934 0.153227 140 140 140
0.002677 0.433659 0.153294 141 141 141
-0.000009 0.433390 0.153361 141 141 141
-0.002697 0.433130 0.153425 142 142 142
-0.005384 0.432871 0.153489 142 142 142
-0.008073 0.432612 0.153553 143 143 143
-0.010762 0.432352 0.153617 143 143 143
-0.013450 0.432199 0.153654 143 143 143
-0.016140 0.432052 0.153691 143 143 143
-0.018829 0.431905 0.153727 143 143 143
-0.021519 0.431758 0.153763 142 142 142
-0.024212 0.431330 0.153869 142 142 142
-0.026907 0.430728 0.154017 142 142 142
-0.029604 0.430126 0.154166 141 141 141
-0.032302 0.429524 0.154314 141 141 141
-0.035001 0.428942 0.154457 140 140 140
-0.037699 0.428457 0.154577 139 139 139
-0.040399 0.427972 0.154697 138 138 138
-0.043100 0.427486 0.154817 138 138 138
-0.045803 0.426963 0.154946 138 138 138
-0.048505 0.426499 0.155060 138 138 138
-0.051211 0.425914 0.155204 138 138 138
-0.053918 0.425328 0.155349 138 138 138
-0.056627 0.424741 0.155493 138 138 138
-0.059340 0.423979 0.155681 138 138 138
-0.062058 0.423123 0.155892 138 138 138
-0.064777 0.422286 0.156099 138 138 138
-0.067496 0.421508 0.156291 138 138 138
-0.070222 0.420532 0.156531 138 138 138
-0.072954 0.419406 0.156809 138 138 138
-0.075689 0.418277 0.157088 138 138 138
-0.078428 0.417113 0.157375 138 138 138
-0.081167 0.415984 0.157653 138 138 138
-0.083909 0.414874 0.157927 138 138 138
-0.086653 0.413763 0.158201 138 138 138
-0.089401 0.412585 0.158491 138 138 138
-0.092167 0.410993 0.158884 138 138 138
-0.094934 0.409451 0.159264 138 138 138
-0.097705 0.407907 0.159645 138 138 138
-0.100495 0.405948 0.160128 138 138 138
-0.103325 0.403091 0.160833 138 138 138
-0.106185 0.399639 0.161684 138 138 138
-0.109089 0.395321 0.162749 138 138 138
-0.112077 0.389262 0.164243 138 138 138
-0.115048 0.383891 0.165568 138 138 138
-0.117963 0.379985 0.166531 138 138 138
-0.120831 0.377284 0.167197 138 138 138
-0.123673 0.375256 0.167697 138 138 138
-0.126468 0.374301 0.167933 138 138 138
-0.129264 0.373336 0.168171 138 138 138
-0.132071 0.372219 0.168446 138 138 138
-0.134851 0.371658 0.168584 138 138 138
-0.137605 0.371613 0.168596 138 138 138
-0.140351 0.371727 0.168567 138 138 138
-0.143086 0.372028 0.168493 138 138 138
-0.145821 0.372329 0.168419 138 138 138
-0.148556 0.372618 0.168348 138 138 138
-0.151296 0.372798 0.168303 138 138 138
-0.154039 0.372928 0.168271 138 138 138
-0.156776 0.373159 0.168214 138 138 138
-0.159514 0.373368 0.168163 138 138 138
-0.162261 0.373403 0.168154 138 138 138
-0.165017 0.373323 0.168174 138 138 138
-0.167776 0.373175 0.168210 138 138 138
-0.170536 0.373027 0.168247 138 138 138
-0.173319 0.372530 0.168369 138 138 138
-0.176119 0.371812 0.168546 138 138 138
-0.178920 0.371091 0.168724 138 138 138
-0.181727 0.370304 0.168918 138 138 138
-0.184550 0.369308 0.169164 138 138 138
-0.187386 0.368165 0.169446 138 138 138
-0.190225 0.367021 0.169728 138 138 138
-0.193063 0.365921 0.169999 138 138 138
-0.195903 0.364814 0.170272 138 138 138
-0.198746 0.363705 0.170546 138 138 138
-0.201602 0.362462 0.170852 138 138 138
-0.204466 0.361143 0.171178 138 138 138
-0.207356 0.359528 0.171576 138 138 138
-0.210259 0.357798 0.172003 138 138 138
-0.213166 0.356065 0.172430 138 138 138
-0.216101 0.354029 0.172932 138 138 138
-0.219044 0.351953 0.173444 138 138 138
-0.222008 0.349681 0.174004 138 138 138
-0.224970 0.347484 0.174546 138 138 138
-0.227934 0.345316 0.175081 138 138 138
-0.230903 0.343145 0.175616 138 138 138
-0.233868 0.341072 0.176127 138 138 138
-0.236827 0.339113 0.176610 138 138 138
-0.239791 0.337148 0.177095 138 138 138
-0.242765 0.335107 0.177598 138 138 138
-0.245746 0.333053 0.178105 138 138 138
-0.248729 0.331013 0.178608 138 138 138
-0.251716 0.328982 0.179109 138 138 138
-0.254690 0.327134 0.179565 138 138 138
-0.257598 0.325999 0.179844 138 138 138
-0.260481 0.325146 0.180055 138 138 138
-0.263416 0.323786 0.180390 138 138 138
-0.266292 0.323054 0.180571 138 138 138
-0.269164 0.322365 0.180741 138 138 138
-0.272040 0.321663 0.180914 138 138 138
-0.274949 0.320645 0.181165 138 138 138
-0.277879 0.319445 0.181461 139 139 139
-0.280823 0.318142 0.181782 140 140 140
-0.283790 0.316644 0.182151 140 140 140
-0.286828 0.314519 0.182676 142 142 142
-0.289963 0.311536 0.183411 141 141 141
-0.293260 0.307127 0.184498 140 140 140
-0.296774 0.300840 0.186049 141 141 141
-0.300804 0.290035 0.188713 143 143 143
-0.304812 0.279640 0.191277 138 138 138
-0.308509 0.272163 0.193121 138 138 138
-0.312023 0.266425 0.194536 138 138 138
-0.315317 0.262694 0.195456 138 138 138
-0.318631 0.258859 0.196402 138 138 138
-0.321800 0.256326 0.197027 138 138 138
-0.324942 0.254063 0.197585 138 138 138
-0.328089 0.251796 0.198144 138 138 138
-0.331246 0.249488 0.198713 138 138 138
-0.334404 0.247214 0.199274 138 138 138
-0.337575 0.244870 0.199852 138 138 138
-0.340797 0.242156 0.200521 138 138 138
-0.344073 0.239059 0.201285 138 138 138
-0.347464 0.235095 0.202262 138 138 138
-0.351054 0.229632 0.203610 138 138 138
-0.355236 0.219648 0.206072 138 138 138
0.383185 0.072783 0.239141 190 190 190
0.378603 0.084422 0.236283 190 190 190
0.373609 0.099433 0.232598 190 190 190
0.368791 0.113311 0.229190 186 186 186
0.364676 0.121895 0.227083 184 184 184
0.360613 0.130211 0.225041 184 184 184
0.356175 0.141665 0.222229 187 187 187
0.351447 0.155653 0.218794 188 188 188
0.347230 0.165722 0.216322 187 187 187
0.342960 0.176408 0.213698 186 186 186
0.338910 0.185449 0.211478 185 185 185
0.334979 0.193659 0.209463 183 183 183
0.331296 0.199924 0.207924 181 181 181
0.327738 0.205245 0.206618 178 178 178
0.324182 0.210643 0.205293 175 175 175
0.320761 0.214972 0.204230 172 172 172
0.317449 0.218425 0.203382 170 170 170
0.314191 0.221469 0.202634 167 167 167
0.310892 0.224930 0.201785 167 167 167
0.307629 0.228142 0.200996 167 167 167
0.304222 0.232711 0.199874 167 167 167
0.300821 0.237315 0.198744 168 168 168
0.297272 0.243383 0.197254 170 170 170
0.293641 0.250327 0.195549 173 173 173
0.289807 0.259320 0.193341 177 177 177
0.286031 0.267946 0.191223 181 181 181
0.282017 0.279033 0.188501 182 182 182
0.278332 0.287150 0.186508 181 181 181
0.274791 0.294026 0.184819 180 180 180
0.271275 0.300789 0.183159 179 179 179
0.267855 0.306745 0.181697 175 175 175
0.264429 0.312874 0.180192 171 171 171
0.261265 0.316466 0.179310 167 167 167
0.258149 0.319632 0.178532 163 163 163
0.255040 0.322808 0.177753 161 161 161
0.251934 0.326009 0.176967 160 160 160
0.248817 0.329400 0.176134 162 162 162
0.245683 0.333055 0.175237 163 163 163
0.242520 0.337116 0.174240 165 165 165
0.239250 0.342457 0.172928 168 168 168
0.235918 0.348603 0.171419 172 172 172
0.232575 0.355027 0.169842 175 175 175
0.229047 0.363736 0.167704 177 177 177
0.225727 0.370231 0.166109 178 178 178
0.222496 0.375845 0.164731 177 177 177
0.219346 0.380644 0.163552 176 176 176
0.216328 0.383970 0.162736 175 175 175
0.213354 0.386834 0.162032 172 172 172
0.210380 0.389785 0.161308 168 168 168
0.207517 0.391420 0.160906 168 168 168
0.204677 0.392810 0.160565 167 167 167
0.201846 0.394116 0.160244 167 167 167
0.199018 0.395422 0.159924 167 167 167
0.196213 0.396461 0.159669 167 167 167
0.193411 0.397495 0.159415 166 166 166
0.190642 0.398101 0.159266 166 166 166
0.187875 0.398695 0.159120 167 167 167
0.185100 0.399421 0.158942 168 168 168
0.182334 0.400046 0.158789 168 168 168
0.179569 0.400671 0.158635 169 169 169
0.176821 0.401075 0.158536 170 170 170
0.174078 0.401407 0.158454 171 171 171
0.171338 0.401711 0.158380 172 172 172
0.168569 0.402454 0.158197 174 174 174
0.165774 0.403642 0.157906 175 175 175
0.162973 0.404969 0.157580 177 177 177
0.160171 0.406350 0.157241 178 178 178
0.157317 0.408620 0.156683 183 183 183
0.154408 0.411899 0.155878 184 184 184
0.151486 0.415521 0.154989 183 183 183
0.148611 0.418461 0.154267 183 183 183
0.145689 0.422328 0.153318 181 181 181
0.142854 0.424794 0.152712 179 179 179
0.139992 0.427836 0.151965 177 177 177
0.137154 0.430560 0.151297 175 175 175
0.134355 0.432628 0.150789 172 172 172
0.131577 0.434399 0.150354 169 169 169
0.128808 0.436050 0.149949 166 166 166
0.126044 0.437685 0.149547 163 163 163
0.123295 0.439071 0.149207 159 159 159
0.120551 0.440401 0.148880 154 154 154
0.117821 0.441513 0.148607 151 151 151
0.115103 0.442401 0.148389 150 150 150
0.112386 0.443288 0.148171 148 148 148
0.109672 0.444174 0.147954 146 146 146
0.106964 0.444947 0.147764 144 144 144
0.104267 0.445509 0.147626 141 141 141
0.101573 0.446029 0.147498 140 140 140
0.098892 0.446223 0.147451 139 139 139
0.096211 0.446416 0.147403 138 138 138
0.093536 0.446482 0.147387 138 138 138
0.090869 0.446315 0.147428 138 138 138
0.088202 0.446149 0.147469 138 138 138
0.085535 0.445974 0.147512 138 138 138
0.082869 0.445755 0.147566 138 138 138
0.080205 0.445441 0.147643 138 138 138
0.077542 0.445116 0.147723 138 138 138
0.074874 0.444902 0.147775 138 138 138
0.072201 0.444854 0.147787 139 139 139
0.069529 0.444758 0.147810 139 139 139
0.066858 0.444597 0.147850 140 140 140
0.064188 0.444435 0.147890 141 141 141
0.061517 0.444274 0.147929 142 142 142
0.058846 0.444112 0.147969 143 143 143
0.056174 0.443943 0.148011 144 144 144
0.053502 0.443771 0.148053 144 144 144
0.050830 0.443599 0.148095 144 144 144
0.048158 0.443427 0.148137 145 145 145
0.045485 0.443251 0.148180 145 145 145
0.042816 0.442815 0.148288 145 145 145
0.040150 0.442162 0.148448 144 144 144
0.037484 0.441384 0.148639 141 141 141
0.034816 0.440606 0.148830 139 139 139
0.032148 0.439797 0.149029 138 138 138
0.029478 0.438944 0.149238 138 138 138
0.026806 0.438089 0.149448 138 138 138
0.024131 0.437383 0.149621 138 138 138
0.021453 0.436927 0.149733 138 138 138
0.018773 0.436560 0.149823 138 138 138
0.016092 0.436193 0.149914 138 138 138
0.013411 0.435730 0.150027 138 138 138
0.010729 0.435303 0.150132 138 138 138
0.008045 0.435029 0.150199 138 138 138
0.005361 0.434770 0.150263 138 138 138
0.002676 0.434521 0.150324 138 138 138
-0.000009 0.434272 0.150385 139 139 139
-0.002695 0.434044 0.150441 139 139 139
-0.005382 0.433820 0.150496 140 140 140
-0.008068 0.433596 0.150551 140 140 140
-0.010756 0.433346 0.150612 141 141 141
-0.013443 0.433120 0.150668 141 141 141
-0.016131 0.432972 0.150704 141 141 141
-0.018821 0.432610 0.150793 141 141 141
-0.021511 0.432247 0.150882 140 140 140
-0.024202 0.431884 0.150972 140 140 140
-0.026896 0.431339 0.151105 140 140 140
-0.029591 0.430761 0.151247 139 139 139
-0.032288 0.430177 0.151391 138 138 138
-0.034986 0.429575 0.151539 138 138 138
-0.037684 0.429044 0.151669 138 138 138
-0.040383 0.428559 0.151788 138 138 138
-0.043083 0.428037 0.151916 138 138 138
-0.045785 0.427487 0.152051 138 138 138
-0.048489 0.426897 0.152196 138 138 138
-0.051196 0.426227 0.152360 138 138 138
-0.053903 0.425616 0.152511 138 138 138
-0.056610 0.425030 0.152654 138 138 138
-0.059320 0.424407 0.152807 138 138 138
-0.062037 0.423552 0.153017 138 138 138
-0.064755 0.422696 0.153228 138 138 138
-0.067475 0.421839 0.153438 138 138 138
-0.070200 0.420903 0.153668 138 138 138
-0.072933 0.419728 0.153956 138 138 138
-0.075668 0.418541 0.154248 138 138 138
-0.078407 0.417353 0.154539 138 138 138
-0.081147 0.416188 0.154825 138 138 138
-0.083888 0.415061 0.155102 138 138 138
-0.086635 0.413842 0.155401 138 138 138
-0.089384 0.412623 0.155701 138 138 138
-0.092144 0.411186 0.156054 138 138 138
-0.094915 0.409518 0.156463 138 138 138
-0.097690 0.407857 0.156871 138 138 138
-0.100463 0.406312 0.157250 138 138 138
-0.103298 0.403305 0.157989 138 138 138
-0.106156 0.399902 0.158824 138 138 138
-0.109058 0.395603 0.159880 138 138 138
-0.112048 0.389481 0.161383 138 138 138
-0.115039 0.383640 0.162817 138 138 138
-0.117946 0.379911 0.163732 138 138 138
-0.120813 0.377227 0.164392 138 138 138
-0.123682 0.374620 0.165032 138 138 138
-0.126477 0.373664 0.165266 138 138 138
-0.129273 0.372708 0.165501 138 138 138
-0.132072 0.371752 0.165736 138 138 138
-0.134864 0.370946 0.165934 138 138 138
-0.137601 0.371235 0.165863 138 138 138
-0.140337 0.371535 0.165789 138 138 138
-0.143072 0.371836 0.165715 138 138 138
-0.145807 0.372138 0.165641 138 138 138
-0.148541 0.372433 0.165569 138 138 138
-0.151282 0.372595 0.165529 138 138 138
-0.154019 0.372818 0.165474 138 138 138
-0.156756 0.373045 0.165418 138 138 138
-0.159492 0.373270 0.165363 138 138 138
-0.162235 0.373385 0.165335 138 138 138
-0.164988 0.373323 0.165350 138 138 138
-0.167747 0.373175 0.165387 138 138 138
-0.170509 0.372996 0.165431 138 138 138
-0.173277 0.372721 0.165498 138 138 138
-0.176076 0.371987 0.165678 138 138 138
-0.178883 0.371168 0.165879 138 138 138
-0.181693 0.370334 0.166084 138 138 138
-0.184508 0.369450 0.166301 138 138 138
-0.187344 0.368307 0.166582 138 138 138
-0.190181 0.367165 0.166862 138 138 138
-0.193017 0.366081 0.167128 138 138 138
-0.195856 0.364987 0.167397 138 138 138
-0.198701 0.363848 0.167676 138 138 138
-0.201557 0.362594 0.167985 138 138 138
-0.204415 0.361337 0.168293 138 138 138
-0.207301 0.359777 0.168676 138 138 138
-0.210203 0.358047 0.169101 138 138 138
-0.213113 0.356266 0.169538 138 138 138
-0.216038 0.354339 0.170011 138 138 138
-0.219006 0.351956 0.170596 138 138 138
-0.221974 0.349622 0.171170 138 138 138
-0.224968 0.347047 0.171802 138 138 138
-0.227932 0.344879 0.172334 138 138 138
-0.230901 0.342708 0.172867 138 138 138
-0.233872 0.340567 0.173393 138 138 138
-0.236831 0.338608 0.173874 138 138 138
-0.239795 0.336644 0.174356 138 138 138
-0.242768 0.334619 0.174853 138 138 138
-0.245728 0.332789 0.175302 138 138 138
-0.248703 0.330831 0.175783 138 138 138
-0.251691 0.328788 0.176285 138 138 138
-0.254669 0.326885 0.176752 138 138 138
-0.257550 0.326032 0.176961 138 138 138
-0.260433 0.325179 0.177171 138 138 138
-0.263302 0.324484 0.177342 138 138 138
-0.266162 0.323890 0.177487 138 138 138
-0.269035 0.323190 0.177659 138 138 138
-0.271908 0.322488 0.177832 138 138 138
-0.274785 0.321776 0.178007 138 138 138
-0.277714 0.320577 0.178301 138 138 138
-0.280662 0.319216 0.178635 138 138 138
-0.283620 0.317782 0.178987 138 138 138
-0.286619 0.316001 0.179425 139 139 139
-0.289738 0.313150 0.180125 138 138 138
-0.292883 0.310109 0.180871 138 138 138
-0.296273 0.304915 0.182146 138 138 138
-0.299863 0.298016 0.183840 139 139 139
-0.304091 0.285574 0.186895 138 138 138
-0.308023 0.275978 0.189251 138 138 138
-0.311846 0.267502 0.191332 138 138 138
-0.315161 0.263571 0.192298 138 138 138
-0.318478 0.259700 0.193248 138 138 138
-0.321654 0.257095 0.193888 138 138 138
-0.324783 0.254932 0.194419 138 138 138
-0.327916 0.252766 0.194951 138 138 138
-0.331127 0.250002 0.195629 138 138 138
-0.334299 0.247605 0.196218 138 138 138
-0.337468 0.245264 0.196792 138 138 138
-0.340671 0.242696 0.197423 138 138 138
-0.343986 0.239272 0.198264 138 138 138
-0.347309 0.235850 0.199104 138 138 138
-0.350899 0.230379 0.200447 138 138 138
-0.354815 0.222451 0.202394 138 138 138
-0.360782 0.198801 0.208201 100 100 100
0.387238 0.064826 0.237939 140 140 140
0.382273 0.079226 0.234419 189 189 189
0.377442 0.092829 0.231094 191 191 191
0.372286 0.109164 0.227101 188 188 188
0.368180 0.117578 0.225044 185 185 185
0.364152 0.125524 0.223102 184 184 184
0.360035 0.134301 0.220956 187 187 187
0.355360 0.147697 0.217681 188 188 188
0.350617 0.161858 0.214220 188 188 188
0.346431 0.171735 0.211805 188 188 188
0.342239 0.181836 0.209336 186 186 186
0.338362 0.189499 0.207463 184 184 184
0.334529 0.196934 0.205645 182 182 182
0.330978 0.202126 0.204376 178 178 178
0.327416 0.207499 0.203063 176 176 176
0.323965 0.212024 0.201957 173 173 173
0.320602 0.215862 0.201019 171 171 171
0.317285 0.219380 0.200158 169 169 169
0.314058 0.222160 0.199479 166 166 166
0.310869 0.224657 0.198869 165 165 165
0.307620 0.227744 0.198114 165 165 165
0.304241 0.232060 0.197059 166 166 166
0.300824 0.236814 0.195897 168 168 168
0.297352 0.242171 0.194587 170 170 170
0.293623 0.250024 0.192668 173 173 173
0.289670 0.260146 0.190193 178 178 178
0.285736 0.270283 0.187715 184 184 184
0.281660 0.281990 0.184853 183 183 183
0.278037 0.289544 0.183007 181 181 181
0.274502 0.296387 0.181334 179 179 179
0.271052 0.302538 0.179830 176 176 176
0.267649 0.308337 0.178413 172 172 172
0.264378 0.312933 0.177289 167 167 167
0.261255 0.316107 0.176514 166 166 166
0.258139 0.319273 0.175739 163 163 163
0.255031 0.322438 0.174966 160 160 160
0.251954 0.325338 0.174257 160 160 160
0.248850 0.328588 0.173462 161 161 161
0.245726 0.332131 0.172596 163 163 163
0.242532 0.336527 0.171522 165 165 165
0.239222 0.342299 0.170111 168 168 168
0.235875 0.348635 0.168562 172 172 172
0.232429 0.356231 0.166705 175 175 175
0.228880 0.365195 0.164514 178 178 178
0.225479 0.372658 0.162690 177 177 177
0.222235 0.378468 0.161269 176 176 176
0.219167 0.382314 0.160329 175 175 175
0.216205 0.385001 0.159672 172 172 172
0.213225 0.387959 0.158949 169 169 169
0.210257 0.390855 0.158241 166 166 166
0.207379 0.392702 0.157790 166 166 166
0.204537 0.394133 0.157440 167 167 167
0.201708 0.395439 0.157121 166 166 166
0.198889 0.396652 0.156824 166 166 166
0.196087 0.397685 0.156572 166 166 166
0.193286 0.398718 0.156319 166 166 166
0.190483 0.399806 0.156053 167 167 167
0.187711 0.400507 0.155882 168 168 168
0.184938 0.401241 0.155702 169 169 169
0.182167 0.401975 0.155523 170 170 170
0.179397 0.402708 0.155344 171 171 171
0.176628 0.403441 0.155165 172 172 172
0.173843 0.404452 0.154918 173 173 173
0.171052 0.405584 0.154641 175 175 175
0.168263 0.406714 0.154365 177 177 177
0.165476 0.407843 0.154089 178 178 178
0.162664 0.409427 0.153702 181 181 181
0.159797 0.411936 0.153088 184 184 184
0.156908 0.414883 0.152368 182 182 182
0.154027 0.417822 0.151649 182 182 182
0.151163 0.420570 0.150978 182 182 182
0.148299 0.423406 0.150284 180 180 180
0.145489 0.425415 0.149793 179 179 179
0.142679 0.427485 0.149287 176 176 176
0.139828 0.430394 0.148576 174 174 174
0.137040 0.432241 0.148124 169 169 169
0.134266 0.433881 0.147724 167 167 167
0.131497 0.435516 0.147324 164 164 164
0.128730 0.437149 0.146925 162 162 162
0.125976 0.438619 0.146565 159 159 159
0.123236 0.439841 0.146267 150 150 150
0.120514 0.440741 0.146047 149 149 149
0.117794 0.441641 0.145827 147 147 147
0.115076 0.442542 0.145607 146 146 146
0.112360 0.443441 0.145387 143 143 143
0.109646 0.444340 0.145167 141 141 141
0.106934 0.445238 0.144948 139 139 139
0.104245 0.445599 0.144859 138 138 138
0.101566 0.445744 0.144824 138 138 138
0.098888 0.445889 0.144788 138 138 138
0.096209 0.446033 0.144753 138 138 138
0.093525 0.446361 0.144673 138 138 138
0.090853 0.446341 0.144678 138 138 138
0.088184 0.446226 0.144706 138 138 138
0.085516 0.446096 0.144738 138 138 138
0.082850 0.445902 0.144785 138 138 138
0.080184 0.445679 0.144840 138 138 138
0.077518 0.445437 0.144899 138 138 138
0.074846 0.445401 0.144908 138 138 138
0.072174 0.445348 0.144921 139 139 139
0.069503 0.445265 0.144941 140 140 140
0.066833 0.445136 0.144972 141 141 141
0.064163 0.444975 0.145012 142 142 142
0.061491 0.444907 0.145028 143 143 143
0.058817 0.444910 0.145028 143 143 143
0.056143 0.444912 0.145027 143 143 143
0.053474 0.444676 0.145085 143 143 143
0.050805 0.444423 0.145147 143 143 143
0.048135 0.444169 0.145209 143 143 143
0.045464 0.443984 0.145254 144 144 144
0.042794 0.443708 0.145322 144 144 144
0.040130 0.442943 0.145509 142 142 142
0.037467 0.442113 0.145711 140 140 140
0.034801 0.441277 0.145916 138 138 138
0.032134 0.440451 0.146118 138 138 138
0.029465 0.439598 0.146326 138 138 138
0.026795 0.438744 0.146535 138 138 138
0.024120 0.438111 0.146690 138 138 138
0.021444 0.437507 0.146837 138 138 138
0.018765 0.437140 0.146927 138 138 138
0.016085 0.436773 0.147017 138 138 138
0.013405 0.436406 0.147107 138 138 138
0.010724 0.435990 0.147208 138 138 138
0.008041 0.435844 0.147244 138 138 138
0.005358 0.435645 0.147292 138 138 138
0.002675 0.435397 0.147353 138 138 138
-0.000009 0.435149 0.147414 138 138 138
-0.002694 0.434904 0.147474 138 138 138
-0.005379 0.434681 0.147528 138 138 138
-0.008064 0.434457 0.147583 138 138 138
-0.010750 0.434221 0.147641 138 138 138
-0.013437 0.433889 0.147722 139 139 139
-0.016125 0.433488 0.147820 139 139 139
-0.018814 0.433076 0.147921 139 139 139
-0.021503 0.432713 0.148009 139 139 139
-0.024194 0.432349 0.148098 138 138 138
-0.026885 0.431927 0.148202 138 138 138
-0.029579 0.431349 0.148343 138 138 138
-0.032275 0.430770 0.148484 138 138 138
-0.034972 0.430192 0.148626 138 138 138
-0.037670 0.429566 0.148779 138 138 138
-0.040369 0.429028 0.148910 138 138 138
-0.043069 0.428478 0.149045 138 138 138
-0.045770 0.427927 0.149179 138 138 138
-0.048472 0.427376 0.149314 138 138 138
-0.051177 0.426733 0.149471 138 138 138
-0.053884 0.426063 0.149635 138 138 138
-0.056593 0.425394 0.149799 138 138 138
-0.059302 0.424733 0.149960 138 138 138
-0.062016 0.423980 0.150144 138 138 138
-0.064737 0.422977 0.150389 138 138 138
-0.067461 0.421958 0.150638 138 138 138
-0.070187 0.420938 0.150888 138 138 138
-0.072917 0.419824 0.151160 138 138 138
-0.075652 0.418662 0.151444 138 138 138
-0.078389 0.417500 0.151728 138 138 138
-0.081129 0.416320 0.152017 138 138 138
-0.083872 0.415104 0.152314 138 138 138
-0.086619 0.413880 0.152613 138 138 138
-0.089368 0.412660 0.152911 138 138 138
-0.092120 0.411415 0.153216 138 138 138
-0.094890 0.409748 0.153623 138 138 138
-0.097665 0.408065 0.154035 138 138 138
-0.100451 0.406176 0.154496 138 138 138
-0.103274 0.403459 0.155161 138 138 138
-0.106129 0.400110 0.155979 138 138 138
-0.109036 0.395674 0.157064 138 138 138
-0.112017 0.389752 0.158511 138 138 138
-0.115009 0.383872 0.159949 138 138 138
-0.117929 0.379838 0.160935 138 138 138
-0.120796 0.377154 0.161591 138 138 138
-0.123668 0.374465 0.162248 138 138 138
-0.126485 0.373028 0.162600 138 138 138
-0.129282 0.372071 0.162833 138 138 138
-0.132066 0.371410 0.162995 138 138 138
-0.134833 0.371101 0.163071 138 138 138
-0.137579 0.371202 0.163046 138 138 138
-0.140317 0.371451 0.162985 138 138 138
-0.143055 0.371700 0.162924 138 138 138
-0.145792 0.371950 0.162863 138 138 138
-0.148526 0.372246 0.162791 138 138 138
-0.151263 0.372475 0.162735 138 138 138
-0.153999 0.372701 0.162679 138 138 138
-0.156736 0.372927 0.162624 138 138 138
-0.159472 0.373152 0.162569 138 138 138
-0.162208 0.373367 0.162517 138 138 138
-0.164960 0.373323 0.162527 138 138 138
-0.167719 0.373161 0.162567 138 138 138
-0.170483 0.372940 0.162621 138 138 138
-0.173252 0.372637 0.162695 138 138 138
-0.176045 0.372001 0.162851 138 138 138
-0.178852 0.371171 0.163053 138 138 138
-0.181662 0.370337 0.163257 138 138 138
-0.184473 0.369502 0.163462 138 138 138
-0.187301 0.368450 0.163719 138 138 138
-0.190137 0.367325 0.163994 138 138 138
-0.192972 0.366242 0.164258 138 138 138
-0.195810 0.365158 0.164523 138 138 138
-0.198657 0.363980 0.164811 138 138 138
-0.201512 0.362725 0.165118 138 138 138
-0.204374 0.361414 0.165439 138 138 138
-0.207251 0.359950 0.165797 138 138 138
-0.210158 0.358152 0.166236 138 138 138
-0.213069 0.356352 0.166676 138 138 138
-0.215992 0.354444 0.167142 138 138 138
-0.218975 0.351872 0.167771 138 138 138
-0.221949 0.349464 0.168360 138 138 138
-0.224960 0.346679 0.169041 138 138 138
-0.227930 0.344443 0.169587 138 138 138
-0.230899 0.342271 0.170118 138 138 138
-0.233873 0.340094 0.170650 138 138 138
-0.236836 0.338090 0.171140 138 138 138
-0.239805 0.336067 0.171635 138 138 138
-0.242779 0.334042 0.172130 138 138 138
-0.245744 0.332150 0.172592 138 138 138
-0.248707 0.330331 0.173037 138 138 138
-0.251674 0.328509 0.173482 138 138 138
-0.254622 0.326917 0.173871 138 138 138
-0.257505 0.326041 0.174086 138 138 138
-0.260389 0.325165 0.174300 138 138 138
-0.263232 0.324729 0.174406 138 138 138
-0.266067 0.324386 0.174490 138 138 138
-0.268924 0.323820 0.174629 138 138 138
-0.271783 0.323254 0.174767 138 138 138
-0.274651 0.322611 0.174924 138 138 138
-0.277548 0.321708 0.175145 138 138 138
-0.280500 0.320290 0.175491 138 138 138
-0.283459 0.318837 0.175847 138 138 138
-0.286427 0.317332 0.176215 138 138 138
-0.289537 0.314547 0.176895 138 138 138
-0.292674 0.311561 0.177625 138 138 138
-0.295866 0.308141 0.178461 138 138 138
-0.299273 0.302850 0.179755 138 138 138
-0.303216 0.292895 0.182188 139 139 139
-0.307401 0.280989 0.185099 138 138 138
-0.311212 0.272567 0.187157 138 138 138
-0.314857 0.265731 0.188828 138 138 138
-0.318174 0.261838 0.189780 138 138 138
-0.321449 0.258360 0.190630 138 138 138
-0.324577 0.256194 0.191160 138 138 138
-0.327728 0.253863 0.191730 138 138 138
-0.330979 0.250754 0.192490 138 138 138
-0.334169 0.248193 0.193116 138 138 138
-0.337352 0.245731 0.193717 138 138 138
-0.340560 0.243118 0.194356 138 138 138
-0.343898 0.239507 0.195239 138 138 138
-0.347243 0.235895 0.196122 138 138 138
-0.350743 0.231125 0.197288 138 138 138
-0.354620 0.223493 0.199154 138 138 138
-0.359962 0.204661 0.203757 138 138 138
0.385969 0.073904 0.232575 190 190 190
0.381184 0.087008 0.229386 190 190 190
0.376134 0.102362 0.225650 190 190 190
0.371610 0.113894 0.222843 186 186 186
0.367658 0.121159 0.221075 185 185 185
0.363571 0.129595 0.219022 185 185 185
0.359271 0.139867 0.216522 187 187 187
0.354257 0.156020 0.212591 189 189 189
0.349820 0.167800 0.209724 188 188 188
0.345575 0.178211 0.207190 187 187 187
0.341573 0.186811 0.205097 184 184 184
0.337793 0.193720 0.203416 183 183 183
0.334223 0.199001 0.202130 179 179 179
0.330655 0.204365 0.200825 177 177 177
0.327138 0.209377 0.199605 174 174 174
0.323783 0.213101 0.198699 173 173 173
0.320437 0.216815 0.197795 171 171 171
0.317142 0.220145 0.196984 169 169 169
0.313981 0.222363 0.196445 166 166 166
0.310824 0.224584 0.195904 164 164 164
0.307608 0.227374 0.195225 163 163 163
0.304251 0.231494 0.194222 165 165 165
0.300827 0.236312 0.193050 168 168 168
0.297416 0.241105 0.191883 170 170 170
0.293557 0.250167 0.189678 176 176 176
0.289582 0.260499 0.187164 180 180 180
0.285147 0.275419 0.183532 185 185 185
0.281327 0.284731 0.181266 182 182 182
0.277743 0.291933 0.179513 180 180 180
0.274251 0.298394 0.177941 177 177 177
0.270813 0.304439 0.176470 174 174 174
0.267511 0.309255 0.175298 169 169 169
0.264336 0.312895 0.174412 167 167 167
0.261215 0.316055 0.173643 164 164 164
0.258101 0.319208 0.172875 161 161 161
0.255025 0.322036 0.172187 160 160 160
0.251961 0.324801 0.171514 160 160 160
0.248879 0.327823 0.170779 160 160 160
0.245762 0.331282 0.169937 162 162 162
0.242513 0.336275 0.168722 165 165 165
0.239195 0.342143 0.167294 169 169 169
0.235808 0.348925 0.165643 173 173 173
0.232281 0.357449 0.163569 177 177 177
0.228690 0.366913 0.161265 178 178 178
0.225279 0.374525 0.159413 175 175 175
0.222061 0.380052 0.158068 174 174 174
0.219052 0.383238 0.157292 172 172 172
0.216074 0.386130 0.156588 169 169 169
0.213101 0.389024 0.155884 166 166 166
0.210149 0.391737 0.155224 164 164 164
0.207265 0.393677 0.154752 165 165 165
0.204403 0.395386 0.154336 166 166 166
0.201571 0.396759 0.154002 166 166 166
0.198761 0.397876 0.153730 166 166 166
0.195956 0.398968 0.153464 167 167 167
0.193146 0.400144 0.153178 168 168 168
0.190329 0.401463 0.152857 168 168 168
0.187527 0.402606 0.152579 169 169 169
0.184753 0.403386 0.152389 170 170 170
0.181981 0.404166 0.152199 171 171 171
0.179191 0.405226 0.151941 172 172 172
0.176389 0.406500 0.151631 173 173 173
0.173569 0.408084 0.151246 175 175 175
0.170779 0.409260 0.150959 177 177 177
0.167994 0.410388 0.150685 180 180 180
0.165142 0.412610 0.150144 182 182 182
0.162290 0.414913 0.149584 181 181 181
0.159442 0.417212 0.149024 181 181 181
0.156569 0.420012 0.148343 181 181 181
0.153726 0.422399 0.147762 181 181 181
0.150913 0.424370 0.147282 180 180 180
0.148102 0.426378 0.146793 178 178 178
0.145294 0.428402 0.146301 177 177 177
0.142488 0.430474 0.145797 173 173 173
0.139706 0.432182 0.145381 169 169 169
0.136947 0.433532 0.145052 166 166 166
0.134185 0.434980 0.144700 163 163 163
0.131417 0.436613 0.144302 161 161 161
0.128656 0.438193 0.143918 158 158 158
0.125921 0.439286 0.143652 151 151 151
0.123209 0.439971 0.143485 146 146 146
0.120493 0.440746 0.143297 146 146 146
0.117776 0.441602 0.143088 145 145 145
0.115058 0.442502 0.142869 143 143 143
0.112343 0.443401 0.142650 140 140 140
0.109630 0.444275 0.142438 138 138 138
0.106937 0.444716 0.142330 138 138 138
0.104246 0.445146 0.142226 138 138 138
0.101567 0.445291 0.142190 138 138 138
0.098888 0.445436 0.142155 138 138 138
0.096207 0.445654 0.142102 138 138 138
0.093520 0.446048 0.142006 138 138 138
0.090839 0.446278 0.141950 138 138 138
0.088173 0.446122 0.141988 138 138 138
0.085506 0.445958 0.142028 138 138 138
0.082837 0.445855 0.142053 138 138 138
0.080167 0.445790 0.142069 138 138 138
0.077490 0.445936 0.142033 138 138 138
0.074818 0.445900 0.142042 138 138 138
0.072148 0.445840 0.142057 139 139 139
0.069477 0.445758 0.142077 140 140 140
0.066805 0.445753 0.142078 141 141 141
0.064132 0.445771 0.142074 141 141 141
0.061459 0.445774 0.142073 142 142 142
0.058787 0.445776 0.142072 142 142 142
0.056114 0.445779 0.142072 143 143 143
0.053443 0.445712 0.142088 143 143 143
0.050775 0.445458 0.142150 143 143 143
0.048107 0.445205 0.142211 144 144 144
0.045440 0.444866 0.142294 143 143 143
0.042775 0.444352 0.142419 142 142 142
0.040114 0.443575 0.142608 141 141 141
0.037451 0.442740 0.142811 139 139 139
0.034787 0.441910 0.143013 138 138 138
0.032120 0.441093 0.143212 138 138 138
0.029453 0.440251 0.143417 138 138 138
0.026782 0.439464 0.143609 138 138 138
0.024109 0.438840 0.143760 138 138 138
0.021435 0.438215 0.143913 138 138 138
0.018758 0.437720 0.144033 138 138 138
0.016079 0.437295 0.144137 138 138 138
0.013400 0.436863 0.144242 138 138 138
0.010720 0.436466 0.144338 138 138 138
0.008038 0.436385 0.144358 138 138 138
0.005356 0.436228 0.144396 138 138 138
0.002673 0.436071 0.144435 138 138 138
-0.000009 0.435913 0.144473 138 138 138
-0.002693 0.435756 0.144511 138 138 138
-0.005376 0.435513 0.144570 138 138 138
-0.008060 0.435181 0.144651 138 138 138
-0.010746 0.434850 0.144732 138 138 138
-0.013431 0.434518 0.144812 138 138 138
-0.016118 0.434179 0.144895 138 138 138
-0.018806 0.433743 0.145001 138 138 138
-0.021495 0.433308 0.145107 138 138 138
-0.024184 0.432872 0.145213 138 138 138
-0.026875 0.432452 0.145315 138 138 138
-0.029568 0.431928 0.145443 138 138 138
-0.032263 0.431286 0.145599 138 138 138
-0.034959 0.430646 0.145755 138 138 138
-0.037657 0.430004 0.145911 138 138 138
-0.040356 0.429420 0.146053 138 138 138
-0.043054 0.428891 0.146182 138 138 138
-0.045754 0.428361 0.146311 138 138 138
-0.048455 0.427817 0.146443 138 138 138
-0.051158 0.427237 0.146584 138 138 138
-0.053864 0.426569 0.146747 138 138 138
-0.056573 0.425843 0.146924 138 138 138
-0.059286 0.424986 0.147132 138 138 138
-0.062002 0.424100 0.147348 138 138 138
-0.064724 0.423045 0.147605 138 138 138
-0.067448 0.421990 0.147861 138 138 138
-0.070174 0.420958 0.148113 138 138 138
-0.072902 0.419906 0.148369 138 138 138
-0.075637 0.418738 0.148653 138 138 138
-0.078374 0.417554 0.148941 138 138 138
-0.081113 0.416369 0.149229 138 138 138
-0.083856 0.415168 0.149522 138 138 138
-0.086602 0.413944 0.149820 138 138 138
-0.089352 0.412656 0.150133 138 138 138
-0.092111 0.411209 0.150485 138 138 138
-0.094886 0.409415 0.150922 138 138 138
-0.097670 0.407495 0.151389 138 138 138
-0.100456 0.405605 0.151849 138 138 138
-0.103262 0.403329 0.152403 138 138 138
-0.106132 0.399593 0.153312 138 138 138
-0.109017 0.395694 0.154261 138 138 138
-0.111971 0.390376 0.155555 138 138 138
-0.114962 0.384491 0.156988 138 138 138
-0.117912 0.379778 0.158135 138 138 138
-0.120774 0.377181 0.158767 138 138 138
-0.123641 0.374579 0.159400 138 138 138
-0.126481 0.372663 0.159866 138 138 138
-0.129261 0.372049 0.160016 138 138 138
-0.132027 0.371740 0.160091 138 138 138
-0.134793 0.371430 0.160166 138 138 138
-0.137552 0.371261 0.160207 138 138 138
-0.140290 0.371510 0.160147 138 138 138
-0.143027 0.371760 0.160086 138 138 138
-0.145763 0.372008 0.160026 138 138 138
-0.148498 0.372273 0.159961 138 138 138
-0.151241 0.372401 0.159930 138 138 138
-0.153978 0.372611 0.159879 138 138 138
-0.156715 0.372820 0.159828 138 138 138
-0.159451 0.373035 0.159776 138 138 138
-0.162186 0.373260 0.159721 138 138 138
-0.164931 0.373323 0.159706 138 138 138
-0.167697 0.373047 0.159773 138 138 138
-0.170468 0.372709 0.159855 138 138 138
-0.173240 0.372372 0.159937 138 138 138
-0.176019 0.371943 0.160042 138 138 138
-0.178824 0.371137 0.160238 138 138 138
-0.181631 0.370331 0.160434 138 138 138
-0.184441 0.369505 0.160635 138 138 138
-0.187259 0.368592 0.160857 138 138 138
-0.190093 0.367485 0.161126 138 138 138
-0.192927 0.366403 0.161390 138 138 138
-0.195770 0.365243 0.161672 138 138 138
-0.198619 0.364019 0.161970 138 138 138
-0.201479 0.362702 0.162291 138 138 138
-0.204341 0.361389 0.162610 138 138 138
-0.207206 0.360073 0.162930 138 138 138
-0.210108 0.358326 0.163356 138 138 138
-0.213019 0.356512 0.163797 138 138 138
-0.215971 0.354254 0.164347 138 138 138
-0.218944 0.351788 0.164947 138 138 138
-0.221928 0.349254 0.165563 138 138 138
-0.224939 0.346470 0.166241 138 138 138
-0.227929 0.344006 0.166841 138 138 138
-0.230898 0.341833 0.167369 138 138 138
-0.233868 0.339700 0.167889 138 138 138
-0.236835 0.337643 0.168389 138 138 138
-0.239810 0.335562 0.168896 138 138 138
-0.242789 0.333477 0.169403 138 138 138
-0.245761 0.331514 0.169881 138 138 138
-0.248715 0.329784 0.170302 138 138 138
-0.251673 0.328052 0.170723 138 138 138
-0.254580 0.326902 0.171003 138 138 138
-0.257462 0.326023 0.171217 138 138 138
-0.260343 0.325176 0.171423 138 138 138
-0.263163 0.324972 0.171473 138 138 138
-0.265981 0.324783 0.171519 138 138 138
-0.268832 0.324276 0.171642 138 138 138
-0.271690 0.323710 0.171780 138 138 138
-0.274549 0.323142 0.171918 138 138 138
-0.277412 0.322556 0.172061 138 138 138
-0.280354 0.321221 0.172386 138 138 138
-0.283316 0.319723 0.172750 138 138 138
-0.286282 0.318224 0.173115 138 138 138
-0.289337 0.315933 0.173673 138 138 138
-0.292470 0.312961 0.174396 138 138 138
-0.295625 0.309858 0.175151 138 138 138
-0.298946 0.305318 0.176256 138 138 138
-0.302395 0.299723 0.177618 138 138 138
-0.306564 0.287894 0.180497 138 138 138
-0.310607 0.277380 0.183056 138 138 138
-0.314383 0.269363 0.185007 138 138 138
-0.317866 0.264007 0.186310 138 138 138
-0.321173 0.260233 0.187229 138 138 138
-0.324371 0.257455 0.187905 138 138 138
-0.327548 0.254899 0.188527 138 138 138
-0.330801 0.251752 0.189293 138 138 138
-0.334021 0.248931 0.189979 138 138 138
-0.337214 0.246384 0.190599 138 138 138
-0.340419 0.243780 0.191233 138 138 138
-0.343777 0.239995 0.192154 138 138 138
-0.347154 0.236125 0.193096 138 138 138
-0.350588 0.231871 0.194131 138 138 138
-0.354519 0.223810 0.196093 138 138 138
-0.359562 0.207272 0.200118 138 138 138
0.389828 0.067438 0.230998 140 140 140
0.384790 0.082307 0.227396 191 191 191
0.379953 0.095886 0.224106 191 191 191
0.375074 0.110000 0.220686 188 188 188
0.370971 0.118343 0.218664 186 186 186
0.367046 0.125433 0.216947 185 185 185
0.362919 0.134234 0.214814 186 186 186
0.358111 0.148579 0.211338 189 189 189
0.353174 0.164193 0.207555 190 190 190
0.348820 0.175375 0.204846 188 188 188
0.344918 0.183068 0.202982 185 185 185
0.341020 0.190861 0.201094 183 183 183
0.337407 0.196435 0.199743 180 180 180
0.333841 0.201715 0.198464 178 178 178
0.330333 0.206596 0.197281 176 176 176
0.326828 0.211537 0.196084 172 172 172
0.323463 0.215363 0.195157 171 171 171
0.320182 0.218540 0.194387 169 169 169
0.317056 0.220416 0.193933 168 168 168
0.313904 0.222566 0.193412 165 165 165
0.310747 0.224787 0.192874 163 163 163
0.307594 0.227020 0.192333 161 161 161
0.304297 0.230601 0.191465 164 164 164
0.300876 0.235385 0.190306 167 167 167
0.297435 0.240447 0.189079 170 170 170
0.293486 0.250355 0.186679 178 178 178
0.289318 0.262517 0.183732 183 183 183
0.284678 0.279416 0.179638 185 185 185
0.280999 0.287418 0.177699 182 182 182
0.277474 0.294082 0.176084 179 179 179
0.273995 0.300438 0.174544 175 175 175
0.270694 0.305162 0.173400 170 170 170
0.267480 0.309109 0.172443 168 168 168
0.264296 0.312835 0.171540 166 166 166
0.261172 0.316030 0.170766 162 162 162
0.258081 0.318955 0.170057 160 160 160
0.255022 0.321614 0.169413 160 160 160
0.251968 0.324272 0.168769 159 159 159
0.248889 0.327257 0.168046 160 160 160
0.245748 0.330984 0.167143 162 162 162
0.242522 0.335723 0.165995 165 165 165
0.239168 0.341986 0.164477 169 169 169
0.235729 0.349351 0.162693 173 173 173
0.232134 0.358665 0.160436 177 177 177
0.228520 0.368415 0.158074 175 175 175
0.225129 0.375821 0.156279 174 174 174
0.221957 0.380828 0.155066 171 171 171
0.218925 0.384300 0.154225 169 169 169
0.215954 0.387123 0.153541 165 165 165
0.212998 0.389835 0.152884 164 164 164
0.210052 0.392490 0.152241 163 163 163
0.207159 0.394553 0.151741 164 164 164
0.204295 0.396307 0.151316 165 165 165
0.201435 0.398060 0.150891 165 165 165
0.198607 0.399438 0.150557 166 166 166
0.195786 0.400759 0.150237 167 167 167
0.192969 0.402078 0.149917 168 168 168
0.190156 0.403363 0.149606 168 168 168
0.187351 0.404583 0.149310 170 170 170
0.184537 0.405967 0.148975 171 171 171
0.181743 0.407103 0.148700 172 172 172
0.178951 0.408237 0.148425 173 173 173
0.176139 0.409715 0.148067 174 174 174
0.173319 0.411352 0.147671 176 176 176
0.170490 0.413176 0.147228 178 178 178
0.167645 0.415310 0.146711 179 179 179
0.164793 0.417607 0.146155 179 179 179
0.161947 0.419900 0.145599 179 179 179
0.159106 0.422188 0.145045 179 179 179
0.156308 0.423848 0.144643 178 178 178
0.153500 0.425724 0.144188 178 178 178
0.150704 0.427483 0.143762 177 177 177
0.147905 0.429342 0.143312 176 176 176
0.145106 0.431272 0.142844 174 174 174
0.142356 0.432406 0.142569 170 170 170
0.139601 0.433663 0.142265 167 167 167
0.136847 0.434951 0.141952 163 163 163
0.134096 0.436240 0.141640 160 160 160
0.131338 0.437709 0.141284 157 157 157
0.128611 0.438640 0.141059 152 152 152
0.125898 0.439307 0.140897 147 147 147
0.123185 0.440015 0.140725 144 144 144
0.120471 0.440786 0.140539 143 143 143
0.117757 0.441563 0.140350 142 142 142
0.115040 0.442463 0.140132 140 140 140
0.112332 0.443190 0.139956 138 138 138
0.109639 0.443632 0.139849 138 138 138
0.106946 0.444073 0.139742 138 138 138
0.104250 0.444598 0.139615 138 138 138
0.101567 0.444838 0.139557 138 138 138
0.098889 0.444983 0.139522 138 138 138
0.096202 0.445341 0.139435 138 138 138
0.093517 0.445683 0.139352 138 138 138
0.090832 0.446034 0.139267 138 138 138
0.088163 0.445959 0.139285 138 138 138
0.085497 0.445800 0.139324 138 138 138
0.082828 0.445697 0.139349 138 138 138
0.080148 0.445931 0.139292 138 138 138
0.077465 0.446316 0.139199 138 138 138
0.074791 0.446383 0.139183 139 139 139
0.072120 0.446388 0.139182 140 140 140
0.069447 0.446421 0.139174 140 140 140
0.066775 0.446469 0.139162 141 141 141
0.064101 0.446563 0.139139 141 141 141
0.061429 0.446583 0.139134 141 141 141
0.058757 0.446602 0.139130 142 142 142
0.056086 0.446622 0.139125 142 142 142
0.053414 0.446642 0.139120 143 143 143
0.050749 0.446346 0.139192 143 143 143
0.048087 0.445832 0.139316 142 142 142
0.045424 0.445317 0.139441 141 141 141
0.042760 0.444803 0.139566 140 140 140
0.040097 0.444200 0.139712 139 139 139
0.037435 0.443366 0.139914 138 138 138
0.034772 0.442542 0.140113 138 138 138
0.032107 0.441726 0.140311 138 138 138
0.029440 0.440904 0.140510 138 138 138
0.026770 0.440192 0.140683 138 138 138
0.024098 0.439531 0.140843 138 138 138
0.021426 0.438778 0.141025 138 138 138
0.018751 0.438165 0.141174 138 138 138
0.016074 0.437736 0.141278 138 138 138
0.013396 0.437305 0.141382 138 138 138
0.010716 0.436959 0.141466 138 138 138
0.008035 0.436883 0.141485 138 138 138
0.005354 0.436769 0.141512 138 138 138
0.002672 0.436612 0.141550 138 138 138
-0.000009 0.436407 0.141600 138 138 138
-0.002692 0.436059 0.141684 138 138 138
-0.005374 0.435925 0.141717 138 138 138
-0.008057 0.435687 0.141774 138 138 138
-0.010741 0.435434 0.141836 138 138 138
-0.013426 0.435146 0.141906 138 138 138
-0.016111 0.434814 0.141986 138 138 138
-0.018797 0.434433 0.142078 138 138 138
-0.021485 0.433997 0.142184 138 138 138
-0.024174 0.433494 0.142306 138 138 138
-0.026866 0.432883 0.142454 138 138 138
-0.029558 0.432278 0.142600 138 138 138
-0.032252 0.431698 0.142741 138 138 138
-0.034947 0.431088 0.142889 138 138 138
-0.037644 0.430446 0.143044 138 138 138
-0.040342 0.429805 0.143200 138 138 138
-0.043040 0.429273 0.143329 138 138 138
-0.045739 0.428744 0.143457 138 138 138
-0.048439 0.428215 0.143585 138 138 138
-0.051141 0.427643 0.143723 138 138 138
-0.053851 0.426773 0.143934 138 138 138
-0.056562 0.425906 0.144144 138 138 138
-0.059275 0.425050 0.144352 138 138 138
-0.061989 0.424192 0.144559 138 138 138
-0.064709 0.423200 0.144800 138 138 138
-0.067432 0.422145 0.145056 138 138 138
-0.070158 0.421087 0.145312 138 138 138
-0.072889 0.419923 0.145594 138 138 138
-0.075623 0.418748 0.145879 138 138 138
-0.078360 0.417569 0.146164 138 138 138
-0.081099 0.416380 0.146452 138 138 138
-0.083847 0.415004 0.146786 138 138 138
-0.086600 0.413554 0.147137 138 138 138
-0.089356 0.412107 0.147488 138 138 138
-0.092115 0.410665 0.147837 138 138 138
-0.094882 0.409096 0.148217 138 138 138
-0.097668 0.407097 0.148702 138 138 138
-0.100458 0.405095 0.149187 138 138 138
-0.103251 0.403142 0.149660 138 138 138
