ply
format ascii 1.0
element vertex 1171
property float x
property float y
property float z
property uchar red
property uchar green
property uchar blue
end_header
0.112896 0.365888 -0.170100 138 138 138
0.109153 0.366302 -0.170351 138 138 138
0.105416 0.366716 -0.170601 138 138 138
0.101685 0.367129 -0.170851 138 138 138
0.097895 0.367633 -0.171113 138 138 138
0.094095 0.368159 -0.171378 138 138 138
0.090301 0.368684 -0.171643 138 138 138
0.086507 0.369218 -0.171908 138 138 138
0.082717 0.369754 -0.172173 138 138 138
0.079456 0.369554 -0.172337 138 138 138
0.075919 0.369748 -0.172555 138 138 138
0.072699 0.369500 -0.172712 138 138 138
0.069703 0.368939 -0.172825 138 138 138
0.066733 0.368346 -0.172935 138 138 138
0.063774 0.367740 -0.173042 138 138 138
0.060931 0.366971 -0.173127 138 138 138
0.058083 0.366212 -0.173213 138 138 138
0.055236 0.365455 -0.173299 138 138 138
0.052391 0.364697 -0.173386 138 138 138
0.049658 0.363781 -0.173450 138 138 138
0.047034 0.362709 -0.173493 138 138 138
0.044411 0.361637 -0.173536 138 138 138
0.041831 0.360506 -0.173571 138 138 138
0.039271 0.359345 -0.173602 138 138 138
0.036938 0.357855 -0.173588 138 138 138
0.034658 0.356288 -0.173564 138 138 138
0.032315 0.354811 -0.173552 138 138 138
0.029811 0.353570 -0.173572 138 138 138
0.027444 0.352128 -0.173564 138 138 138
0.025019 0.350772 -0.173568 138 138 138
0.022529 0.349511 -0.173586 138 138 138
0.020028 0.348268 -0.173605 138 138 138
0.017486 0.347087 -0.173633 138 138 138
0.014870 0.346016 -0.173676 138 138 138
0.012221 0.344994 -0.173725 138 138 138
0.009549 0.344011 -0.173780 138 138 138
0.006777 0.343177 -0.173854 138 138 138
0.003909 0.342489 -0.173949 138 138 138
0.001029 0.341823 -0.174046 138 138 138
-0.001849 0.341158 -0.174143 138 138 138
-0.004727 0.340497 -0.174240 138 138 138
-0.007651 0.339907 -0.174347 138 138 138
-0.010548 0.339280 -0.174449 138 138 138
-0.013443 0.338653 -0.174551 138 138 138
-0.016404 0.338129 -0.174666 138 138 138
-0.018909 0.336916 -0.174689 138 138 138
-0.021468 0.335784 -0.174722 138 138 138
-0.024146 0.334836 -0.174781 138 138 138
-0.026823 0.333888 -0.174839 138 138 138
-0.029179 0.332449 -0.174831 138 138 138
-0.031378 0.330767 -0.174791 138 138 138
-0.033601 0.329121 -0.174756 138 138 138
-0.035612 0.327144 -0.174676 138 138 138
-0.037671 0.325240 -0.174607 138 138 138
-0.040062 0.323850 -0.174606 138 138 138
-0.042453 0.322460 -0.174605 138 138 138
-0.044913 0.321178 -0.174618 138 138 138
-0.047373 0.319897 -0.174632 138 138 138
-0.050062 0.318975 -0.174693 138 138 138
-0.052812 0.318151 -0.174768 138 138 138
-0.055553 0.317317 -0.174840 138 138 138
-0.058274 0.316453 -0.174909 138 138 138
-0.061027 0.315642 -0.174985 138 138 138
-0.063797 0.314862 -0.175065 138 138 138
-0.066613 0.314156 -0.175154 138 138 138
-0.069502 0.313571 -0.175260 138 138 138
-0.072577 0.313287 -0.175405 138 138 138
-0.075714 0.313107 -0.175564 138 138 138
-0.078847 0.312927 -0.175722 138 138 138
-0.081978 0.312747 -0.175881 138 138 138
-0.085143 0.312629 -0.176047 138 138 138
-0.088556 0.312919 -0.176267 138 138 138
-0.091642 0.312685 -0.176418 138 138 138
-0.094724 0.312450 -0.176569 138 138 138
-0.098036 0.312596 -0.176769 138 138 138
-0.101012 0.312198 -0.176897 138 138 138
-0.104117 0.312017 -0.177054 138 138 138
-0.107412 0.312154 -0.177253 138 138 138
-0.110347 0.311705 -0.177374 138 138 138
-0.113357 0.311385 -0.177512 138 138 138
-0.116445 0.311198 -0.177668 138 138 138
-0.119577 0.311088 -0.177833 138 138 138
-0.122693 0.310959 -0.177996 138 138 138
-0.125718 0.310684 -0.178139 138 138 138
-0.128799 0.310508 -0.178295 138 138 138
-0.132029 0.310586 -0.178484 138 138 138
-0.135094 0.310394 -0.178638 138 138 138
-0.138334 0.310502 -0.178830 138 138 138
-0.141459 0.310423 -0.178998 138 138 138
-0.144580 0.310344 -0.179166 138 138 138
-0.147702 0.310272 -0.179335 138 138 138
-0.150449 0.309570 -0.179421 138 138 138
-0.153185 0.308854 -0.179505 138 138 138
-0.156021 0.308310 -0.179611 138 138 138
-0.159158 0.308283 -0.179785 138 138 138
-0.161894 0.307577 -0.179870 138 138 138
-0.164485 0.306626 -0.179923 138 138 138
-0.167075 0.305675 -0.179976 138 138 138
-0.169665 0.304724 -0.180029 138 138 138
-0.172170 0.303630 -0.180063 138 138 138
-0.174448 0.302143 -0.180047 138 138 138
-0.176755 0.300707 -0.180036 138 138 138
-0.179160 0.299440 -0.180048 138 138 138
-0.181565 0.298174 -0.180060 138 138 138
-0.183787 0.296588 -0.180031 138 138 138
-0.185840 0.294706 -0.179963 138 138 138
-0.187892 0.292818 -0.179894 138 138 138
-0.189909 0.290867 -0.179818 138 138 138
-0.191837 0.288755 -0.179721 138 138 138
-0.193698 0.286521 -0.179608 138 138 138
-0.195560 0.284286 -0.179495 138 138 138
-0.197373 0.281958 -0.179370 138 138 138
-0.198878 0.279077 -0.179174 138 138 138
-0.200268 0.275983 -0.178951 138 138 138
-0.201672 0.272907 -0.178730 138 138 138
-0.203079 0.269827 -0.178510 138 138 138
-0.204502 0.266767 -0.178292 138 138 138
-0.206053 0.263930 -0.178103 138 138 138
-0.207838 0.261509 -0.177967 138 138 138
-0.209665 0.259160 -0.177841 138 138 138
-0.211494 0.256809 -0.177715 138 138 138
-0.213341 0.254486 -0.177593 138 138 138
-0.215289 0.252342 -0.177494 138 138 138
-0.217361 0.250422 -0.177423 138 138 138
-0.219416 0.248468 -0.177348 138 138 138
-0.221382 0.246348 -0.177252 138 138 138
-0.223349 0.244226 -0.177156 138 138 138
-0.225326 0.242117 -0.177062 138 138 138
-0.227247 0.239904 -0.176955 138 138 138
-0.229128 0.237610 -0.176837 138 138 138
-0.231033 0.235356 -0.176725 138 138 138
-0.232731 0.232712 -0.176563 138 138 138
-0.234487 0.230171 -0.176414 138 138 138
-0.236054 0.227268 -0.176219 138 138 138
-0.237576 0.224274 -0.176013 138 138 138
-0.239100 0.221275 -0.175807 138 138 138
-0.240613 0.218248 -0.175597 138 138 138
-0.242094 0.215152 -0.175379 138 138 138
-0.243726 0.212334 -0.175197 138 138 138
-0.245392 0.209573 -0.175021 138 138 138
-0.247122 0.206927 -0.174861 138 138 138
-0.248895 0.204359 -0.174711 138 138 138
-0.250736 0.201913 -0.174576 138 138 138
-0.252593 0.199494 -0.174445 138 138 138
-0.254451 0.197072 -0.174313 138 138 138
-0.256276 0.194581 -0.174174 138 138 138
-0.257920 0.191733 -0.173989 138 138 138
-0.259524 0.188798 -0.173793 138 138 138
-0.261170 0.185940 -0.173607 138 138 138
-0.262818 0.183078 -0.173421 138 138 138
-0.264371 0.180021 -0.173211 138 138 138
-0.265760 0.176635 -0.172959 138 138 138
-0.267308 0.173550 -0.172746 138 138 138
-0.268642 0.170037 -0.172479 138 138 138
-0.270005 0.166568 -0.172218 138 138 138
-0.271347 0.163048 -0.171950 138 138 138
-0.272609 0.159357 -0.171662 138 138 138
-0.273873 0.155660 -0.171373 138 138 138
-0.274661 0.150998 -0.170963 138 138 138
-0.275589 0.146602 -0.170588 138 138 138
-0.276534 0.142223 -0.170214 138 138 138
-0.277542 0.137955 -0.169855 138 138 138
-0.278797 0.134172 -0.169558 138 138 138
-0.280074 0.130421 -0.169264 138 138 138
-0.281561 0.127084 -0.169023 138 138 138
-0.283227 0.124103 -0.168826 138 138 138
-0.284931 0.121190 -0.168638 138 138 138
-0.286637 0.118273 -0.168450 138 138 138
-0.288380 0.115423 -0.168271 138 138 138
-0.290009 0.112332 -0.168061 138 138 138
-0.291424 0.108793 -0.167796 138 138 138
-0.292842 0.105247 -0.167531 138 138 138
-0.294263 0.101695 -0.167265 138 138 138
-0.295485 0.097720 -0.166946 138 138 138
-0.296491 0.093283 -0.166571 138 138 138
-0.297235 0.088282 -0.166126 138 138 138
-0.298082 0.083477 -0.165706 138 138 138
-0.298886 0.078564 -0.165272 138 138 138
-0.299726 0.073709 -0.164847 138 138 138
-0.300788 0.069304 -0.164478 138 138 138
-0.301936 0.065066 -0.164130 138 138 138
-0.303123 0.060894 -0.163790 138 138 138
-0.304521 0.057157 -0.163505 138 138 138
-0.305948 0.053470 -0.163226 138 138 138
-0.307443 0.049917 -0.162964 138 138 138
-0.308853 0.046171 -0.162679 138 138 138
-0.310307 0.042505 -0.162404 138 138 138
-0.312024 0.039396 -0.162197 138 138 138
-0.313453 0.035654 -0.161913 138 138 138
-0.314718 0.031546 -0.161584 138 138 138
-0.315986 0.027428 -0.161255 138 138 138
-0.317276 0.023344 -0.160930 138 138 138
-0.318426 0.018942 -0.160566 138 138 138
-0.319641 0.014665 -0.160218 138 138 138
-0.320890 0.010447 -0.159877 138 138 138
-0.322146 0.006229 -0.159537 138 138 138
-0.323441 0.002083 -0.159206 138 138 138
-0.324618 -0.002339 -0.158842 138 138 138
-0.325702 -0.006983 -0.158450 138 138 138
-0.326741 -0.011746 -0.158045 138 138 138
-0.328118 -0.015771 -0.157730 138 138 138
-0.329563 -0.019659 -0.157433 138 138 138
-0.330989 -0.023603 -0.157129 138 138 138
-0.332563 -0.027227 -0.156865 138 138 138
-0.334105 -0.030933 -0.156591 138 138 138
-0.335635 -0.034682 -0.156312 138 138 138
-0.337161 -0.038450 -0.156031 138 138 138
-0.338511 -0.042634 -0.155699 138 138 138
-0.339659 -0.047291 -0.155310 138 138 138
-0.340618 -0.052400 -0.154867 138 138 138
-0.341339 -0.058075 -0.154355 138 138 138
-0.341864 -0.064226 -0.153785 138 138 138
-0.342323 -0.070554 -0.153195 138 138 138
-0.342759 -0.076962 -0.152596 138 138 138
-0.343190 -0.083409 -0.151992 138 138 138
-0.343621 -0.089884 -0.151386 138 138 138
-0.343632 -0.097368 -0.150658 138 138 138
-0.331865 -0.132451 -0.146580 100 100 100
0.255505 0.269307 -0.155660 138 138 138
0.225384 0.304417 -0.160725 150 150 150
0.214149 0.314544 -0.162328 158 158 158
0.203950 0.323340 -0.163744 149 149 149
0.194842 0.330719 -0.164964 140 140 140
0.185301 0.338718 -0.166267 138 138 138
0.177368 0.344598 -0.167276 138 138 138
0.170501 0.349074 -0.168090 138 138 138
0.165018 0.351710 -0.168650 138 138 138
0.160016 0.353714 -0.169122 138 138 138
0.155338 0.355294 -0.169535 138 138 138
0.150850 0.356630 -0.169914 138 138 138
0.146583 0.357676 -0.170252 138 138 138
0.142460 0.358536 -0.170565 138 138 138
0.138351 0.359388 -0.170876 138 138 138
0.133693 0.361000 -0.171291 138 138 138
0.128913 0.362792 -0.171730 138 138 138
0.125099 0.363270 -0.171988 138 138 138
0.121078 0.364042 -0.172287 138 138 138
0.116931 0.364998 -0.172610 138 138 138
0.113172 0.365427 -0.172861 138 138 138
0.109428 0.365842 -0.173109 138 138 138
0.105683 0.366267 -0.173359 138 138 138
0.101993 0.366623 -0.173599 138 138 138
0.098252 0.367057 -0.173849 138 138 138
0.094416 0.367634 -0.174118 138 138 138
0.090586 0.368210 -0.174387 138 138 138
0.086763 0.368784 -0.174656 138 138 138
0.083507 0.368569 -0.174816 138 138 138
0.080310 0.368276 -0.174966 138 138 138
0.077130 0.367965 -0.175113 138 138 138
0.073598 0.368154 -0.175328 138 138 138
0.070582 0.367620 -0.175445 138 138 138
0.067620 0.367012 -0.175551 138 138 138
0.064739 0.366293 -0.175642 138 138 138
0.062007 0.365365 -0.175705 138 138 138
0.059240 0.364488 -0.175774 138 138 138
0.056391 0.363730 -0.175860 138 138 138
0.053567 0.362939 -0.175941 138 138 138
0.050800 0.362070 -0.176011 138 138 138
0.048121 0.361074 -0.176064 138 138 138
0.045497 0.360001 -0.176107 138 138 138
0.042873 0.358930 -0.176150 138 138 138
0.040243 0.357869 -0.176194 138 138 138
0.037774 0.356574 -0.176206 138 138 138
0.035498 0.354999 -0.176181 138 138 138
0.032996 0.353754 -0.176200 138 138 138
0.030491 0.352513 -0.176220 138 138 138
0.027967 0.351300 -0.176244 138 138 138
0.025419 0.350124 -0.176272 138 138 138
0.022917 0.348880 -0.176292 138 138 138
0.020416 0.347637 -0.176311 138 138 138
0.017915 0.346394 -0.176330 138 138 138
0.015309 0.345306 -0.176371 138 138 138
0.012590 0.344390 -0.176434 138 138 138
0.009819 0.343553 -0.176507 138 138 138
0.007042 0.342727 -0.176582 138 138 138
0.004198 0.342004 -0.176671 138 138 138
0.001344 0.341298 -0.176762 138 138 138
-0.001508 0.340593 -0.176853 138 138 138
-0.004381 0.339923 -0.176948 138 138 138
-0.007279 0.339294 -0.177049 138 138 138
-0.010249 0.338777 -0.177164 138 138 138
-0.013343 0.338452 -0.177305 138 138 138
-0.016189 0.337755 -0.177396 138 138 138
-0.018840 0.336763 -0.177448 138 138 138
-0.021324 0.335517 -0.177467 138 138 138
-0.023808 0.334272 -0.177485 138 138 138
-0.026291 0.333027 -0.177503 138 138 138
-0.028752 0.331748 -0.177517 138 138 138
-0.030984 0.330115 -0.177483 138 138 138
-0.033041 0.328212 -0.177414 138 138 138
-0.035043 0.326221 -0.177334 138 138 138
-0.037047 0.324229 -0.177253 138 138 138
-0.039321 0.322655 -0.177228 138 138 138
-0.041782 0.321374 -0.177242 138 138 138
-0.044243 0.320092 -0.177255 138 138 138
-0.046704 0.318810 -0.177268 138 138 138
-0.049233 0.317636 -0.177296 138 138 138
-0.051984 0.316812 -0.177370 138 138 138
-0.054747 0.316010 -0.177446 138 138 138
-0.057544 0.315265 -0.177530 138 138 138
-0.060328 0.314500 -0.177611 138 138 138
-0.063146 0.313794 -0.177700 138 138 138
-0.066054 0.313234 -0.177808 138 138 138
-0.068919 0.312609 -0.177908 138 138 138
-0.071835 0.312070 -0.178018 138 138 138
-0.074906 0.311782 -0.178161 138 138 138
-0.077992 0.311523 -0.178308 138 138 138
-0.081074 0.311264 -0.178455 138 138 138
-0.084014 0.310779 -0.178572 138 138 138
-0.087075 0.310495 -0.178715 138 138 138
-0.090126 0.310200 -0.178856 138 138 138
-0.093173 0.309905 -0.178998 138 138 138
-0.096218 0.309609 -0.179139 138 138 138
-0.099088 0.309033 -0.179243 138 138 138
-0.102062 0.308632 -0.179370 138 138 138
-0.105034 0.308231 -0.179497 138 138 138
-0.107914 0.307684 -0.179604 138 138 138
-0.110948 0.307394 -0.179745 138 138 138
-0.114061 0.307240 -0.179904 138 138 138
-0.117170 0.307085 -0.180062 138 138 138
-0.120296 0.306964 -0.180224 138 138 138
-0.123395 0.306804 -0.180382 138 138 138
-0.126494 0.306649 -0.180539 138 138 138
-0.129731 0.306730 -0.180727 138 138 138
-0.132963 0.306810 -0.180915 138 138 138
-0.136151 0.306823 -0.181094 138 138 138
-0.139399 0.306944 -0.181287 138 138 138
-0.142587 0.306971 -0.181467 138 138 138
-0.145716 0.306904 -0.181635 138 138 138
-0.148727 0.306642 -0.181777 138 138 138
-0.151483 0.305953 -0.181864 138 138 138
-0.154627 0.305928 -0.182037 138 138 138
-0.157767 0.305902 -0.182209 138 138 138
-0.160831 0.305754 -0.182365 138 138 138
-0.163424 0.304802 -0.182418 138 138 138
-0.166017 0.303851 -0.182471 138 138 138
-0.168704 0.303067 -0.182545 138 138 138
-0.171416 0.302326 -0.182624 138 138 138
-0.173754 0.300942 -0.182621 138 138 138
-0.176134 0.299630 -0.182627 138 138 138
-0.178538 0.298360 -0.182638 138 138 138
-0.180876 0.296975 -0.182635 138 138 138
-0.183012 0.295237 -0.182586 138 138 138
-0.185063 0.293348 -0.182518 138 138 138
-0.187115 0.291458 -0.182450 138 138 138
-0.189129 0.289500 -0.182374 138 138 138
-0.191100 0.287462 -0.182287 138 138 138
-0.192983 0.285265 -0.182180 138 138 138
-0.194747 0.282853 -0.182045 138 138 138
-0.196319 0.280094 -0.181867 138 138 138
-0.197804 0.277175 -0.181668 138 138 138
-0.199169 0.274033 -0.181441 138 138 138
-0.200574 0.270953 -0.181222 138 138 138
-0.201983 0.267873 -0.181003 138 138 138
-0.203461 0.264908 -0.180799 138 138 138
-0.205012 0.262068 -0.180612 138 138 138
-0.206627 0.259337 -0.180438 138 138 138
-0.208465 0.257002 -0.180315 138 138 138
-0.210315 0.254684 -0.180195 138 138 138
-0.212165 0.252364 -0.180074 138 138 138
-0.214099 0.250190 -0.179972 138 138 138
-0.216120 0.248173 -0.179890 138 138 138
-0.218128 0.246128 -0.179805 138 138 138
-0.220104 0.244021 -0.179711 138 138 138
-0.222042 0.241841 -0.179609 138 138 138
-0.223994 0.239682 -0.179509 138 138 138
-0.225938 0.237504 -0.179408 138 138 138
-0.227882 0.235324 -0.179306 138 138 138
-0.229613 0.232742 -0.179153 138 138 138
-0.231301 0.230074 -0.178990 138 138 138
-0.232912 0.227254 -0.178807 138 138 138
-0.234446 0.224285 -0.178606 138 138 138
-0.235983 0.221312 -0.178405 138 138 138
-0.237522 0.218336 -0.178204 138 138 138
-0.238903 0.215051 -0.177964 138 138 138
-0.240352 0.211887 -0.177739 138 138 138
-0.241988 0.209069 -0.177558 138 138 138
-0.243712 0.206412 -0.177398 138 138 138
-0.245513 0.203895 -0.177256 138 138 138
-0.247387 0.201513 -0.177130 138 138 138
-0.249231 0.199067 -0.176997 138 138 138
-0.251076 0.196619 -0.176863 138 138 138
-0.252922 0.194168 -0.176730 138 138 138
-0.254771 0.191716 -0.176596 138 138 138
-0.256514 0.189053 -0.176436 138 138 138
-0.258159 0.186195 -0.176252 138 138 138
-0.259806 0.183333 -0.176068 138 138 138
-0.261456 0.180467 -0.175883 138 138 138
-0.263110 0.177604 -0.175699 138 138 138
-0.264744 0.174693 -0.175509 138 138 138
-0.266274 0.171570 -0.175293 138 138 138
-0.267609 0.168052 -0.175028 138 138 138
-0.269017 0.164670 -0.174780 138 138 138
-0.270484 0.161394 -0.174546 138 138 138
-0.271661 0.157531 -0.174239 138 138 138
-0.272890 0.153759 -0.173944 138 138 138
-0.273855 0.149450 -0.173582 138 138 138
-0.274792 0.145067 -0.173211 138 138 138
-0.275674 0.140559 -0.172825 138 138 138
-0.276878 0.136683 -0.172518 138 138 138
-0.278145 0.132922 -0.172226 138 138 138
-0.279422 0.129169 -0.171935 138 138 138
-0.280835 0.125681 -0.171677 138 138 138
-0.282537 0.122768 -0.171491 138 138 138
-0.284240 0.119851 -0.171305 138 138 138
-0.285946 0.116931 -0.171118 138 138 138
-0.287640 0.113980 -0.170928 138 138 138
-0.289138 0.110618 -0.170687 138 138 138
-0.290602 0.107175 -0.170436 138 138 138
-0.292069 0.103726 -0.170185 138 138 138
-0.293443 0.100075 -0.169909 138 138 138
-0.294453 0.095658 -0.169539 138 138 138
-0.295437 0.091168 -0.169161 138 138 138
-0.296287 0.086384 -0.168747 138 138 138
-0.297160 0.081631 -0.168337 138 138 138
-0.298007 0.076805 -0.167919 138 138 138
-0.298994 0.072256 -0.167535 138 138 138
-0.300104 0.067948 -0.167181 138 138 138
-0.301231 0.063664 -0.166830 138 138 138
-0.302488 0.059639 -0.166512 138 138 138
-0.303849 0.055821 -0.166220 138 138 138
-0.305292 0.052167 -0.165947 138 138 138
-0.306719 0.048465 -0.165670 138 138 138
-0.308130 0.044717 -0.165387 138 138 138
-0.309543 0.040961 -0.165103 138 138 138
-0.310952 0.037185 -0.164817 138 138 138
-0.312245 0.033144 -0.164500 138 138 138
-0.313546 0.029109 -0.164183 138 138 138
-0.314725 0.024792 -0.163832 138 138 138
-0.315675 0.019962 -0.163419 138 138 138
-0.316843 0.015591 -0.163062 138 138 138
-0.317978 0.011131 -0.162695 138 138 138
-0.319135 0.006702 -0.162332 138 138 138
-0.320338 0.002360 -0.161980 138 138 138
-0.321488 -0.002115 -0.161613 138 138 138
-0.322598 -0.006696 -0.161233 138 138 138
-0.323668 -0.011383 -0.160840 138 138 138
-0.324982 -0.015542 -0.160512 138 138 138
-0.326352 -0.019594 -0.160197 138 138 138
-0.327775 -0.023540 -0.159896 138 138 138
-0.329464 -0.026903 -0.159666 138 138 138
-0.331173 -0.030231 -0.159440 138 138 138
-0.332815 -0.033719 -0.159195 138 138 138
-0.334307 -0.037560 -0.158907 138 138 138
-0.335653 -0.041743 -0.158579 138 138 138
-0.337003 -0.045934 -0.158250 138 138 138
-0.338280 -0.050307 -0.157899 138 138 138
-0.339158 -0.055607 -0.157436 138 138 138
-0.340041 -0.060919 -0.156973 138 138 138
-0.340744 -0.066665 -0.156458 138 138 138
-0.341364 -0.072626 -0.155918 138 138 138
-0.341685 -0.079304 -0.155291 138 138 138
-0.342180 -0.085609 -0.154710 138 138 138
-0.342281 -0.092857 -0.154017 138 138 138
-0.339154 -0.107671 -0.152413 100 100 100
0.262122 0.260439 -0.157427 138 138 138
0.227910 0.300964 -0.163188 145 145 145
0.214216 0.314359 -0.165224 158 158 158
0.203865 0.323358 -0.166655 149 149 149
0.195509 0.329735 -0.167726 140 140 140
0.187331 0.335906 -0.168767 138 138 138
0.180338 0.340519 -0.169594 138 138 138
0.173143 0.345430 -0.170460 138 138 138
0.168197 0.347336 -0.170915 138 138 138
0.163344 0.349131 -0.171355 138 138 138
0.158366 0.351108 -0.171818 138 138 138
0.154234 0.351951 -0.172127 138 138 138
0.149838 0.353164 -0.172485 138 138 138
0.145332 0.354538 -0.172865 138 138 138
0.140575 0.356267 -0.173293 138 138 138
0.135664 0.358219 -0.173751 138 138 138
0.131004 0.359842 -0.174163 138 138 138
0.126157 0.361735 -0.174611 138 138 138
0.122214 0.362397 -0.174892 138 138 138
0.117948 0.363513 -0.175234 138 138 138
0.113667 0.364661 -0.175580 138 138 138
0.109677 0.365417 -0.175873 138 138 138
0.105975 0.365782 -0.176112 138 138 138
0.102314 0.366097 -0.176344 138 138 138
0.098639 0.366440 -0.176580 138 138 138
0.094807 0.367011 -0.176846 138 138 138
0.090976 0.367587 -0.177112 138 138 138
0.087485 0.367695 -0.177315 138 138 138
0.084292 0.367390 -0.177462 138 138 138
0.081096 0.367094 -0.177610 138 138 138
0.077911 0.366787 -0.177757 138 138 138
0.074732 0.366476 -0.177902 138 138 138
0.071477 0.366279 -0.178063 138 138 138
0.068590 0.365563 -0.178154 138 138 138
0.065854 0.364634 -0.178216 138 138 138
0.063120 0.363706 -0.178278 138 138 138
0.060398 0.362761 -0.178338 138 138 138
0.057547 0.362003 -0.178423 138 138 138
0.054751 0.361169 -0.178498 138 138 138
0.051982 0.360300 -0.178567 138 138 138
0.049210 0.359436 -0.178638 138 138 138
0.046584 0.358363 -0.178680 138 138 138
0.043949 0.357305 -0.178724 138 138 138
0.041305 0.356261 -0.178771 138 138 138
0.038662 0.355218 -0.178817 138 138 138
0.036175 0.353949 -0.178833 138 138 138
0.033650 0.352735 -0.178856 138 138 138
0.031125 0.351522 -0.178879 138 138 138
0.028601 0.350309 -0.178903 138 138 138
0.026062 0.349118 -0.178929 138 138 138
0.023513 0.347943 -0.178957 138 138 138
0.020965 0.346768 -0.178986 138 138 138
0.018411 0.345601 -0.179015 138 138 138
0.015616 0.344795 -0.179092 138 138 138
0.012844 0.343957 -0.179165 138 138 138
0.010072 0.343120 -0.179238 138 138 138
0.007302 0.342283 -0.179311 138 138 138
0.004474 0.341536 -0.179396 138 138 138
0.001620 0.340831 -0.179486 138 138 138
-0.001232 0.340126 -0.179576 138 138 138
-0.004082 0.339422 -0.179666 138 138 138
-0.007055 0.338905 -0.179780 138 138 138
-0.010152 0.338580 -0.179920 138 138 138
-0.013187 0.338167 -0.180048 138 138 138
-0.015974 0.337380 -0.180127 138 138 138
-0.018760 0.336595 -0.180205 138 138 138
-0.021254 0.335364 -0.180225 138 138 138
-0.023738 0.334119 -0.180243 138 138 138
-0.026104 0.332694 -0.180238 138 138 138
-0.028357 0.331096 -0.180209 138 138 138
-0.030491 0.329312 -0.180157 138 138 138
-0.032535 0.327387 -0.180085 138 138 138
-0.034580 0.325462 -0.180014 138 138 138
-0.036626 0.323535 -0.179943 138 138 138
-0.038681 0.321619 -0.179873 138 138 138
-0.041141 0.320333 -0.179886 138 138 138
-0.043600 0.319048 -0.179899 138 138 138
-0.046164 0.317926 -0.179933 138 138 138
-0.048710 0.316777 -0.179964 138 138 138
-0.051415 0.315880 -0.180027 138 138 138
-0.054214 0.315134 -0.180111 138 138 138
-0.057003 0.314374 -0.180192 138 138 138
-0.059827 0.313673 -0.180281 138 138 138
-0.062744 0.313123 -0.180389 138 138 138
-0.065666 0.312584 -0.180499 138 138 138
-0.068473 0.311867 -0.180585 138 138 138
-0.071320 0.311215 -0.180680 138 138 138
-0.074303 0.310785 -0.180804 138 138 138
-0.077389 0.310526 -0.180949 138 138 138
-0.080373 0.310106 -0.181074 138 138 138
-0.083185 0.309414 -0.181163 138 138 138
-0.086103 0.308897 -0.181274 138 138 138
-0.089156 0.308602 -0.181414 138 138 138
-0.092206 0.308307 -0.181555 138 138 138
-0.095027 0.307644 -0.181647 138 138 138
-0.097510 0.306433 -0.181668 138 138 138
-0.100488 0.306032 -0.181794 138 138 138
-0.103385 0.305505 -0.181904 138 138 138
-0.106130 0.304729 -0.181981 138 138 138
-0.108981 0.304131 -0.182081 138 138 138
-0.112085 0.303957 -0.182236 138 138 138
-0.115199 0.303803 -0.182393 138 138 138
-0.118186 0.303444 -0.182523 138 138 138
-0.120989 0.302783 -0.182615 138 138 138
-0.123968 0.302421 -0.182745 138 138 138
-0.127160 0.302419 -0.182921 138 138 138
-0.130405 0.302510 -0.183108 138 138 138
-0.133682 0.302664 -0.183304 138 138 138
-0.137089 0.303045 -0.183528 138 138 138
-0.140373 0.303223 -0.183727 138 138 138
-0.143636 0.303376 -0.183921 138 138 138
-0.146833 0.303422 -0.184102 138 138 138
-0.150082 0.303565 -0.184295 138 138 138
-0.153230 0.303541 -0.184466 138 138 138
-0.156373 0.303517 -0.184638 138 138 138
-0.159513 0.303492 -0.184808 138 138 138
-0.162362 0.302976 -0.184916 138 138 138
-0.165053 0.302191 -0.184990 138 138 138
-0.167767 0.301449 -0.185069 138 138 138
-0.170480 0.300709 -0.185148 138 138 138
-0.173075 0.299765 -0.185201 138 138 138
-0.175413 0.298379 -0.185197 138 138 138
-0.177752 0.296994 -0.185194 138 138 138
-0.180060 0.295555 -0.185184 138 138 138
-0.182272 0.293946 -0.185152 138 138 138
-0.184289 0.291996 -0.185077 138 138 138
-0.186337 0.290098 -0.185008 138 138 138
-0.188348 0.288131 -0.184932 138 138 138
-0.190320 0.286093 -0.184845 138 138 138
-0.192121 0.283749 -0.184721 138 138 138
-0.193732 0.281062 -0.184553 138 138 138
-0.195238 0.278183 -0.184361 138 138 138
-0.196729 0.275270 -0.184165 138 138 138
-0.198093 0.272123 -0.183939 138 138 138
-0.199477 0.269001 -0.183717 138 138 138
-0.200886 0.265918 -0.183500 138 138 138
-0.202418 0.263046 -0.183310 138 138 138
-0.203962 0.260191 -0.183123 138 138 138
-0.205552 0.257409 -0.182944 138 138 138
-0.207286 0.254883 -0.182799 138 138 138
-0.209136 0.252562 -0.182679 138 138 138
-0.210999 0.250260 -0.182562 138 138 138
-0.212937 0.248089 -0.182461 138 138 138
-0.214878 0.245920 -0.182361 138 138 138
-0.216884 0.243869 -0.182276 138 138 138
-0.218958 0.241937 -0.182205 138 138 138
-0.221032 0.240004 -0.182135 138 138 138
-0.222840 0.237575 -0.182003 138 138 138
-0.224688 0.235216 -0.181879 138 138 138
-0.226498 0.232781 -0.181746 138 138 138
-0.228172 0.230087 -0.181581 138 138 138
-0.229845 0.227385 -0.181415 138 138 138
-0.231519 0.224680 -0.181249 138 138 138
-0.233081 0.221756 -0.181056 138 138 138
-0.234582 0.218710 -0.180848 138 138 138
-0.235917 0.215344 -0.180600 138 138 138
-0.237255 0.211971 -0.180351 138 138 138
-0.238605 0.208614 -0.180105 138 138 138
-0.240323 0.205945 -0.179944 138 138 138
-0.242201 0.203574 -0.179821 138 138 138
-0.244080 0.201200 -0.179698 138 138 138
-0.245961 0.198824 -0.179575 138 138 138
-0.247823 0.196410 -0.179447 138 138 138
-0.249670 0.193958 -0.179314 138 138 138
-0.251571 0.191607 -0.179195 138 138 138
-0.253510 0.189325 -0.179083 138 138 138
-0.255451 0.187040 -0.178972 138 138 138
-0.257097 0.184179 -0.178790 138 138 138
-0.258745 0.181314 -0.178607 138 138 138
-0.260403 0.178462 -0.178426 138 138 138
-0.262078 0.175634 -0.178248 138 138 138
-0.263736 0.172768 -0.178065 138 138 138
-0.265239 0.169587 -0.177844 138 138 138
-0.266623 0.166163 -0.177593 138 138 138
-0.268108 0.162928 -0.177366 138 138 138
-0.269595 0.159688 -0.177138 138 138 138
-0.270884 0.156046 -0.176861 138 138 138
-0.272119 0.152283 -0.176570 138 138 138
-0.273078 0.147958 -0.176209 138 138 138
-0.274040 0.143622 -0.175848 138 138 138
-0.274979 0.139227 -0.175480 138 138 138
-0.276219 0.135421 -0.175185 138 138 138
-0.277492 0.131671 -0.174896 138 138 138
-0.278813 0.128005 -0.174619 138 138 138
-0.280302 0.124668 -0.174382 138 138 138
-0.281923 0.121590 -0.174177 138 138 138
-0.283627 0.118672 -0.173993 138 138 138
-0.285332 0.115749 -0.173807 138 138 138
-0.286906 0.112549 -0.173588 138 138 138
-0.288457 0.109291 -0.173362 138 138 138
-0.289920 0.105846 -0.173114 138 138 138
-0.291347 0.102312 -0.172855 138 138 138
-0.292490 0.098181 -0.172523 138 138 138
-0.293477 0.093711 -0.172150 138 138 138
-0.294432 0.089158 -0.171768 138 138 138
-0.295357 0.084525 -0.171376 138 138 138
-0.296223 0.079754 -0.170968 138 138 138
-0.297204 0.075206 -0.170587 138 138 138
-0.298260 0.070798 -0.170224 138 138 138
-0.299372 0.066493 -0.169874 138 138 138
-0.300596 0.062411 -0.169552 138 138 138
-0.301853 0.058383 -0.169236 138 138 138
-0.303195 0.054522 -0.168941 138 138 138
-0.304554 0.050686 -0.168649 138 138 138
-0.305926 0.046866 -0.168360 138 138 138
-0.307302 0.043039 -0.168070 138 138 138
-0.308636 0.039111 -0.167768 138 138 138
-0.309874 0.034962 -0.167440 138 138 138
-0.311173 0.030929 -0.167126 138 138 138
-0.312385 0.026695 -0.166788 138 138 138
-0.313264 0.021723 -0.166362 138 138 138
-0.314146 0.016738 -0.165934 138 138 138
-0.315160 0.012022 -0.165539 138 138 138
-0.316241 0.007436 -0.165161 138 138 138
-0.317356 0.002906 -0.164789 138 138 138
-0.318402 -0.001792 -0.164398 138 138 138
-0.319473 -0.006452 -0.164011 138 138 138
-0.320640 -0.010917 -0.163649 138 138 138
-0.321973 -0.015029 -0.163330 138 138 138
-0.323263 -0.019253 -0.162997 138 138 138
-0.324648 -0.023278 -0.162689 138 138 138
-0.326350 -0.026608 -0.162464 138 138 138
-0.328055 -0.029942 -0.162240 138 138 138
-0.329762 -0.033282 -0.162015 138 138 138
-0.331480 -0.036605 -0.161792 138 138 138
-0.332931 -0.040546 -0.161496 138 138 138
-0.334326 -0.044625 -0.161183 138 138 138
-0.335675 -0.048826 -0.160856 138 138 138
-0.336862 -0.053408 -0.160483 138 138 138
-0.337862 -0.058439 -0.160057 138 138 138
-0.338771 -0.063695 -0.159605 138 138 138
-0.339622 -0.069109 -0.159135 138 138 138
-0.340243 -0.075073 -0.158599 138 138 138
-0.340610 -0.081651 -0.157990 138 138 138
-0.340876 -0.088492 -0.157351 138 138 138
-0.341097 -0.095466 -0.156697 138 138 138
0.271175 0.248341 -0.158777 138 138 138
0.257387 0.261716 -0.160797 138 138 138
0.214345 0.314092 -0.168109 158 158 158
0.203985 0.323104 -0.169528 150 150 150
0.195940 0.329065 -0.170533 140 140 140
0.188712 0.333964 -0.171391 138 138 138
0.182493 0.337534 -0.172069 138 138 138
0.175875 0.341664 -0.172822 138 138 138
0.170411 0.344261 -0.173367 138 138 138
0.165710 0.345845 -0.173774 138 138 138
0.161061 0.347371 -0.174172 138 138 138
0.157176 0.347872 -0.174432 138 138 138
0.153086 0.348662 -0.174731 138 138 138
0.148814 0.349708 -0.175063 138 138 138
0.144344 0.351035 -0.175433 138 138 138
0.138467 0.354300 -0.176064 138 138 138
0.133065 0.356932 -0.176608 138 138 138
0.128181 0.358871 -0.177059 138 138 138
0.123326 0.360783 -0.177505 138 138 138
0.119106 0.361833 -0.177835 138 138 138
0.114655 0.363214 -0.178209 138 138 138
0.110131 0.364708 -0.178598 138 138 138
0.106337 0.365200 -0.178852 138 138 138
0.102636 0.365571 -0.179090 138 138 138
0.098981 0.365886 -0.179319 138 138 138
0.095198 0.366387 -0.179573 138 138 138
0.091536 0.366727 -0.179806 138 138 138
0.088251 0.366544 -0.179968 138 138 138
0.084970 0.366362 -0.180130 138 138 138
0.081885 0.365908 -0.180256 138 138 138
0.078693 0.365609 -0.180402 138 138 138
0.075513 0.365298 -0.180546 138 138 138
0.072471 0.364797 -0.180665 138 138 138
0.069721 0.363884 -0.180729 138 138 138
0.066970 0.362973 -0.180793 138 138 138
0.064234 0.362044 -0.180855 138 138 138
0.061499 0.361116 -0.180916 138 138 138
0.058709 0.360268 -0.180989 138 138 138
0.055937 0.359397 -0.181058 138 138 138
0.053166 0.358527 -0.181127 138 138 138
0.050396 0.357658 -0.181196 138 138 138
0.047724 0.356648 -0.181246 138 138 138
0.045151 0.355498 -0.181278 138 138 138
0.042577 0.354349 -0.181310 138 138 138
0.039936 0.353300 -0.181355 138 138 138
0.037032 0.352635 -0.181451 138 138 138
0.034403 0.351572 -0.181494 138 138 138
0.031774 0.350510 -0.181537 138 138 138
0.029231 0.349322 -0.181564 138 138 138
0.026706 0.348110 -0.181587 138 138 138
0.024156 0.346935 -0.181615 138 138 138
0.021561 0.345827 -0.181652 138 138 138
0.018874 0.344857 -0.181707 138 138 138
0.016007 0.344158 -0.181798 138 138 138
0.013128 0.343478 -0.181891 138 138 138
0.010326 0.342687 -0.181969 138 138 138
0.007556 0.341850 -0.182041 138 138 138
0.004740 0.341085 -0.182123 138 138 138
0.001896 0.340364 -0.182210 138 138 138
-0.001003 0.339730 -0.182308 138 138 138
-0.004004 0.339252 -0.182427 138 138 138
-0.006998 0.338769 -0.182545 138 138 138
-0.010054 0.338383 -0.182675 138 138 138
-0.012972 0.337792 -0.182779 138 138 138
-0.015760 0.337006 -0.182857 138 138 138
-0.018546 0.336221 -0.182935 138 138 138
-0.021184 0.335211 -0.182984 138 138 138
-0.023513 0.333730 -0.182971 138 138 138
-0.025875 0.332298 -0.182964 138 138 138
-0.028237 0.330867 -0.182958 138 138 138
-0.030391 0.329115 -0.182910 138 138 138
-0.032382 0.327109 -0.182829 138 138 138
-0.034375 0.325101 -0.182747 138 138 138
-0.036368 0.323093 -0.182666 138 138 138
-0.038362 0.321083 -0.182585 138 138 138
-0.040662 0.319548 -0.182565 138 138 138
-0.043264 0.318484 -0.182607 138 138 138
-0.045866 0.317421 -0.182648 138 138 138
-0.048346 0.316168 -0.182665 138 138 138
-0.050881 0.315003 -0.182694 138 138 138
-0.053676 0.314250 -0.182775 138 138 138
-0.056549 0.313621 -0.182873 138 138 138
-0.059445 0.313035 -0.182975 138 138 138
-0.062342 0.312452 -0.183079 138 138 138
-0.065277 0.311933 -0.183190 138 138 138
-0.068085 0.311217 -0.183276 138 138 138
-0.070892 0.310500 -0.183361 138 138 138
-0.073720 0.309821 -0.183451 138 138 138
-0.076731 0.309440 -0.183580 138 138 138
-0.079546 0.308747 -0.183668 138 138 138
-0.082359 0.308054 -0.183756 138 138 138
-0.085171 0.307362 -0.183845 138 138 138
-0.088185 0.307002 -0.183975 138 138 138
-0.091237 0.306708 -0.184114 138 138 138
-0.093785 0.305597 -0.184148 138 138 138
-0.096203 0.304276 -0.184155 138 138 138
-0.098910 0.303428 -0.184223 138 138 138
-0.101718 0.302748 -0.184312 138 138 138
-0.104466 0.301972 -0.184389 138 138 138
-0.107212 0.301196 -0.184466 138 138 138
-0.110104 0.300664 -0.184573 138 138 138
-0.113085 0.300285 -0.184700 138 138 138
-0.115895 0.299623 -0.184791 138 138 138
-0.118702 0.298962 -0.184882 138 138 138
-0.121493 0.298279 -0.184970 138 138 138
-0.124615 0.298149 -0.185128 138 138 138
-0.127810 0.298149 -0.185303 138 138 138
-0.131001 0.298149 -0.185478 138 138 138
-0.134273 0.298292 -0.185670 138 138 138
-0.137897 0.299036 -0.185939 138 138 138
-0.141183 0.299218 -0.186135 138 138 138
-0.144562 0.299564 -0.186353 138 138 138
-0.148422 0.300737 -0.186675 138 138 138
-0.151831 0.301153 -0.186901 138 138 138
-0.154974 0.301123 -0.187070 138 138 138
-0.158114 0.301093 -0.187238 138 138 138
-0.161335 0.301211 -0.187426 138 138 138
-0.164070 0.300499 -0.187508 138 138 138
-0.166804 0.299787 -0.187590 138 138 138
-0.169536 0.299076 -0.187672 138 138 138
-0.172243 0.298324 -0.187749 138 138 138
-0.174625 0.297012 -0.187755 138 138 138
-0.176965 0.295626 -0.187751 138 138 138
-0.179231 0.294110 -0.187732 138 138 138
-0.181443 0.292501 -0.187700 138 138 138
-0.183595 0.290785 -0.187655 138 138 138
-0.185574 0.288763 -0.187572 138 138 138
-0.187518 0.286676 -0.187481 138 138 138
-0.189334 0.284358 -0.187361 138 138 138
-0.191163 0.282061 -0.187243 138 138 138
-0.192674 0.279194 -0.187054 138 138 138
-0.194174 0.276301 -0.186862 138 138 138
-0.195661 0.273377 -0.186667 138 138 138
-0.197020 0.270216 -0.186442 138 138 138
-0.198388 0.267064 -0.186218 138 138 138
-0.199824 0.264025 -0.186009 138 138 138
-0.201333 0.261109 -0.185815 138 138 138
-0.202940 0.258363 -0.185643 138 138 138
-0.204550 0.255614 -0.185471 138 138 138
-0.206161 0.252861 -0.185298 138 138 138
-0.207969 0.250459 -0.185170 138 138 138
-0.209835 0.248159 -0.185054 138 138 138
-0.211829 0.246087 -0.184967 138 138 138
-0.213846 0.244055 -0.184885 138 138 138
-0.215888 0.242063 -0.184808 138 138 138
-0.217962 0.240130 -0.184738 138 138 138
-0.219927 0.237990 -0.184643 138 138 138
-0.221695 0.235485 -0.184502 138 138 138
-0.223502 0.233046 -0.184370 138 138 138
-0.225192 0.230382 -0.184210 138 138 138
-0.226852 0.227658 -0.184043 138 138 138
-0.228514 0.224930 -0.183875 138 138 138
-0.230177 0.222199 -0.183708 138 138 138
-0.231644 0.219092 -0.183494 138 138 138
-0.232999 0.215767 -0.183253 138 138 138
-0.234357 0.212436 -0.183012 138 138 138
-0.235716 0.209099 -0.182770 138 138 138
-0.237214 0.206014 -0.182560 138 138 138
-0.238908 0.203295 -0.182395 138 138 138
-0.240783 0.200913 -0.182272 138 138 138
-0.242660 0.198529 -0.182149 138 138 138
-0.244538 0.196143 -0.182026 138 138 138
-0.246466 0.193847 -0.181914 138 138 138
-0.248396 0.191552 -0.181802 138 138 138
-0.250327 0.189253 -0.181690 138 138 138
-0.252268 0.186968 -0.181580 138 138 138
-0.254210 0.184682 -0.181469 138 138 138
-0.256033 0.182160 -0.181330 138 138 138
-0.257696 0.179320 -0.181152 138 138 138
-0.259369 0.176492 -0.180976 138 138 138
-0.261043 0.173661 -0.180799 138 138 138
-0.262720 0.170826 -0.180623 138 138 138
-0.264230 0.167656 -0.180405 138 138 138
-0.265713 0.164423 -0.180180 138 138 138
-0.267198 0.161185 -0.179955 138 138 138
-0.268685 0.157942 -0.179729 138 138 138
-0.270128 0.154601 -0.179491 138 138 138
-0.271436 0.150982 -0.179220 138 138 138
-0.272416 0.146697 -0.178868 138 138 138
-0.273337 0.142277 -0.178500 138 138 138
-0.274396 0.138119 -0.178164 138 138 138
-0.275563 0.134166 -0.177854 138 138 138
-0.276830 0.130400 -0.177566 138 138 138
-0.278302 0.127037 -0.177328 138 138 138
-0.279790 0.123698 -0.177094 138 138 138
-0.281311 0.120415 -0.176866 138 138 138
-0.283014 0.117492 -0.176682 138 138 138
-0.284613 0.114352 -0.176472 138 138 138
-0.286172 0.111118 -0.176251 138 138 138
-0.287729 0.107872 -0.176029 138 138 138
-0.289238 0.104516 -0.175794 138 138 138
-0.290458 0.100554 -0.175485 138 138 138
-0.291524 0.096260 -0.175137 138 138 138
-0.292514 0.091791 -0.174768 138 138 138
-0.293492 0.087282 -0.174395 138 138 138
-0.294421 0.082655 -0.174007 138 138 138
-0.295343 0.077996 -0.173616 138 138 138
-0.296361 0.073522 -0.173249 138 138 138
-0.297456 0.069193 -0.172899 138 138 138
-0.298628 0.065013 -0.172567 138 138 138
-0.299912 0.061054 -0.172262 138 138 138
-0.301217 0.057126 -0.171962 138 138 138
-0.302476 0.053087 -0.171648 138 138 138
-0.303652 0.048858 -0.171312 138 138 138
-0.305018 0.045020 -0.171023 138 138 138
-0.306373 0.041144 -0.170730 138 138 138
-0.307598 0.036977 -0.170403 138 138 138
-0.308830 0.032811 -0.170076 138 138 138
-0.310046 0.028595 -0.169743 138 138 138
-0.310930 0.023647 -0.169323 138 138 138
-0.311823 0.018696 -0.168903 138 138 138
-0.312592 0.013459 -0.168449 138 138 138
-0.313332 0.008136 -0.167985 138 138 138
-0.314404 0.003521 -0.167607 138 138 138
-0.315429 -0.001216 -0.167214 138 138 138
-0.316463 -0.005949 -0.166823 138 138 138
-0.317636 -0.010395 -0.166466 138 138 138
-0.318941 -0.014564 -0.166143 138 138 138
-0.320251 -0.018736 -0.165819 138 138 138
-0.321699 -0.022615 -0.165531 138 138 138
-0.323258 -0.026261 -0.165271 138 138 138
-0.324888 -0.029758 -0.165029 138 138 138
-0.326594 -0.033099 -0.164806 138 138 138
-0.328320 -0.036401 -0.164588 138 138 138
-0.330050 -0.039706 -0.164369 138 138 138
-0.331686 -0.043236 -0.164125 138 138 138
-0.333022 -0.047456 -0.163798 138 138 138
-0.334206 -0.052036 -0.163429 138 138 138
-0.335419 -0.056569 -0.163066 138 138 138
-0.336584 -0.061227 -0.162689 138 138 138
-0.337502 -0.066470 -0.162243 138 138 138
-0.338378 -0.071833 -0.161783 138 138 138
-0.339120 -0.077524 -0.161284 138 138 138
-0.339532 -0.084003 -0.160693 138 138 138
-0.339777 -0.090896 -0.160054 138 138 138
-0.337959 -0.102623 -0.158845 100 100 100
0.277726 0.239558 -0.160602 100 100 100
0.263658 0.253288 -0.162652 138 138 138
0.214559 0.313711 -0.170978 159 159 159
0.204397 0.322460 -0.172348 150 150 150
0.196323 0.328460 -0.173348 140 140 140
0.189830 0.332373 -0.174067 138 138 138
0.183654 0.335884 -0.174731 138 138 138
0.177907 0.338839 -0.175319 138 138 138
0.173040 0.340627 -0.175750 138 138 138
0.167921 0.342769 -0.176228 138 138 138
0.163389 0.344130 -0.176601 138 138 138
0.159440 0.344713 -0.176870 138 138 138
0.155584 0.345179 -0.177122 138 138 138
0.151581 0.345853 -0.177402 138 138 138
0.147466 0.346687 -0.177703 138 138 138
0.142972 0.348050 -0.178075 138 138 138
0.136319 0.352386 -0.178842 138 138 138
0.130931 0.355009 -0.179379 138 138 138
0.124439 0.359168 -0.180121 138 138 138
0.120265 0.360152 -0.180439 138 138 138
0.115432 0.362059 -0.180880 138 138 138
0.110968 0.363469 -0.181254 138 138 138
0.106993 0.364210 -0.181538 138 138 138
0.103165 0.364757 -0.181797 138 138 138
0.099343 0.365303 -0.182055 138 138 138
0.095687 0.365627 -0.182284 138 138 138
0.092303 0.365575 -0.182462 138 138 138
0.089017 0.365393 -0.182623 138 138 138
0.085735 0.365211 -0.182783 138 138 138
0.082529 0.364926 -0.182930 138 138 138
0.079476 0.364429 -0.183049 138 138 138
0.076399 0.363971 -0.183173 138 138 138
0.073663 0.363034 -0.183233 138 138 138
0.070924 0.362101 -0.183294 138 138 138
0.068168 0.361195 -0.183358 138 138 138
0.065451 0.360236 -0.183415 138 138 138
0.062743 0.359266 -0.183471 138 138 138
0.060143 0.358143 -0.183506 138 138 138
0.057455 0.357148 -0.183559 138 138 138
0.054763 0.356159 -0.183612 138 138 138
0.052060 0.355188 -0.183667 138 138 138
0.049184 0.354470 -0.183755 138 138 138
0.046567 0.353380 -0.183795 138 138 138
0.043991 0.352230 -0.183826 138 138 138
0.041159 0.351455 -0.183907 138 138 138
0.038157 0.350930 -0.184020 138 138 138
0.035394 0.350060 -0.184088 138 138 138
0.032764 0.348997 -0.184131 138 138 138
0.030134 0.347935 -0.184174 138 138 138
0.027468 0.346928 -0.184224 138 138 138
0.024714 0.346054 -0.184291 138 138 138
0.022097 0.344976 -0.184332 138 138 138
0.019264 0.344223 -0.184414 138 138 138
0.016396 0.343523 -0.184504 138 138 138
0.013525 0.342832 -0.184595 138 138 138
0.010645 0.342156 -0.184687 138 138 138
0.007809 0.341418 -0.184771 138 138 138
0.005000 0.340641 -0.184851 138 138 138
0.002045 0.340088 -0.184959 138 138 138
-0.000958 0.339611 -0.185077 138 138 138
-0.003954 0.339127 -0.185194 138 138 138
-0.006948 0.338643 -0.185310 138 138 138
-0.009956 0.338186 -0.185430 138 138 138
-0.012766 0.337431 -0.185512 138 138 138
-0.015633 0.336765 -0.185604 138 138 138
-0.018409 0.335965 -0.185680 138 138 138
-0.021085 0.335014 -0.185736 138 138 138
-0.023447 0.333583 -0.185729 138 138 138
-0.025808 0.332151 -0.185723 138 138 138
-0.028127 0.330654 -0.185708 138 138 138
-0.030272 0.328888 -0.185658 138 138 138
-0.032321 0.326972 -0.185590 138 138 138
-0.034313 0.324965 -0.185509 138 138 138
-0.036306 0.322956 -0.185429 138 138 138
-0.038327 0.320988 -0.185354 138 138 138
-0.040377 0.319064 -0.185284 138 138 138
-0.042965 0.317978 -0.185323 138 138 138
-0.045506 0.316819 -0.185351 138 138 138
-0.047981 0.315559 -0.185367 138 138 138
-0.050530 0.314414 -0.185398 138 138 138
-0.053267 0.313569 -0.185467 138 138 138
-0.056167 0.312983 -0.185569 138 138 138
-0.059064 0.312397 -0.185671 138 138 138
-0.061959 0.311811 -0.185773 138 138 138
-0.064875 0.311262 -0.185879 138 138 138
-0.067697 0.310566 -0.185967 138 138 138
-0.070504 0.309850 -0.186051 138 138 138
-0.073382 0.309251 -0.186151 138 138 138
-0.076084 0.308372 -0.186215 138 138 138
-0.078731 0.307407 -0.186268 138 138 138
-0.081533 0.306694 -0.186353 138 138 138
-0.084346 0.306002 -0.186440 138 138 138
-0.087214 0.305402 -0.186539 138 138 138
-0.090121 0.304870 -0.186647 138 138 138
-0.092541 0.303547 -0.186654 138 138 138
-0.094961 0.302225 -0.186660 138 138 138
-0.097421 0.300968 -0.186676 138 138 138
-0.100164 0.300176 -0.186750 138 138 138
-0.102930 0.299427 -0.186830 138 138 138
-0.105696 0.298678 -0.186909 138 138 138
-0.108359 0.297762 -0.186967 138 138 138
-0.110971 0.296766 -0.187015 138 138 138
-0.113731 0.296015 -0.187094 138 138 138
-0.116488 0.295263 -0.187173 138 138 138
-0.119245 0.294513 -0.187252 138 138 138
-0.122083 0.293903 -0.187349 138 138 138
-0.125277 0.293893 -0.187521 138 138 138
-0.128468 0.293882 -0.187692 138 138 138
-0.131708 0.293963 -0.187875 138 138 138
-0.135174 0.294430 -0.188107 138 138 138
-0.138671 0.294958 -0.188346 138 138 138
-0.142399 0.295888 -0.188635 138 138 138
-0.146187 0.296930 -0.188938 138 138 138
-0.150378 0.298670 -0.189328 138 138 138
-0.153583 0.298742 -0.189508 138 138 138
-0.156726 0.298714 -0.189676 138 138 138
-0.160071 0.299038 -0.189887 138 138 138
-0.163133 0.298884 -0.190039 138 138 138
-0.165868 0.298172 -0.190120 138 138 138
-0.168599 0.297455 -0.190201 138 138 138
-0.171312 0.296712 -0.190278 138 138 138
-0.173837 0.295644 -0.190314 138 138 138
-0.176177 0.294257 -0.190311 138 138 138
-0.178400 0.292664 -0.190282 138 138 138
-0.180614 0.291054 -0.190251 138 138 138
-0.182783 0.289367 -0.190210 138 138 138
-0.184756 0.287330 -0.190126 138 138 138
-0.186621 0.285101 -0.190018 138 138 138
-0.188449 0.282804 -0.189901 138 138 138
-0.190139 0.280258 -0.189754 138 138 138
-0.191669 0.277420 -0.189571 138 138 138
-0.193169 0.274525 -0.189380 138 138 138
-0.194654 0.271594 -0.189186 138 138 138
-0.196005 0.268415 -0.188961 138 138 138
-0.197357 0.265231 -0.188736 138 138 138
-0.198765 0.262139 -0.188522 138 138 138
-0.200326 0.259311 -0.188341 138 138 138
-0.201934 0.256563 -0.188170 138 138 138
-0.203543 0.253811 -0.187999 138 138 138
-0.205157 0.251060 -0.187829 138 138 138
-0.206954 0.248633 -0.187699 138 138 138
-0.208947 0.246562 -0.187612 138 138 138
-0.210895 0.244402 -0.187515 138 138 138
-0.212880 0.242308 -0.187426 138 138 138
-0.214900 0.240273 -0.187345 138 138 138
-0.216966 0.238321 -0.187273 138 138 138
-0.218779 0.235900 -0.187145 138 138 138
-0.220626 0.233534 -0.187023 138 138 138
-0.222479 0.231176 -0.186902 138 138 138
-0.224285 0.228727 -0.186770 138 138 138
-0.225946 0.226000 -0.186604 138 138 138
-0.227608 0.223270 -0.186438 138 138 138
-0.228990 0.220008 -0.186207 138 138 138
-0.230243 0.216496 -0.185945 138 138 138
-0.231550 0.213075 -0.185695 138 138 138
-0.232908 0.209738 -0.185456 138 138 138
-0.234456 0.206753 -0.185260 138 138 138
-0.236008 0.203767 -0.185064 138 138 138
-0.237563 0.200778 -0.184868 138 138 138
-0.239383 0.198286 -0.184732 138 138 138
-0.241292 0.195959 -0.184618 138 138 138
-0.243287 0.193791 -0.184522 138 138 138
-0.245284 0.191622 -0.184427 138 138 138
-0.247258 0.189407 -0.184326 138 138 138
-0.249185 0.187095 -0.184214 138 138 138
-0.251113 0.184781 -0.184101 138 138 138
-0.253051 0.182484 -0.183991 138 138 138
-0.255045 0.180289 -0.183893 138 138 138
-0.256773 0.177572 -0.183731 138 138 138
-0.258445 0.174738 -0.183556 138 138 138
-0.260118 0.171901 -0.183381 138 138 138
-0.261795 0.169063 -0.183205 138 138 138
-0.263475 0.166224 -0.183030 138 138 138
-0.264982 0.163036 -0.182813 138 138 138
-0.266491 0.159842 -0.182595 138 138 138
-0.268002 0.156644 -0.182377 138 138 138
-0.269467 0.153347 -0.182147 138 138 138
-0.270752 0.149680 -0.181872 138 138 138
-0.271754 0.145435 -0.181529 138 138 138
-0.272761 0.141186 -0.181185 138 138 138
-0.273838 0.137062 -0.180856 138 138 138
-0.274974 0.133044 -0.180541 138 138 138
-0.276286 0.129368 -0.180267 138 138 138
-0.277777 0.126043 -0.180036 138 138 138
-0.279271 0.122713 -0.179804 138 138 138
-0.280767 0.119377 -0.179573 138 138 138
-0.282322 0.116153 -0.179354 138 138 138
-0.283878 0.112921 -0.179136 138 138 138
-0.285437 0.109685 -0.178916 138 138 138
-0.286997 0.106441 -0.178697 138 138 138
-0.288357 0.102776 -0.178427 138 138 138
-0.289569 0.098795 -0.178119 138 138 138
-0.290563 0.094346 -0.177755 138 138 138
-0.291467 0.089697 -0.177368 138 138 138
-0.292478 0.085251 -0.177006 138 138 138
-0.293484 0.080781 -0.176641 138 138 138
-0.294489 0.076293 -0.176275 138 138 138
-0.295491 0.071782 -0.175906 138 138 138
-0.296659 0.067603 -0.175577 138 138 138
-0.297869 0.063499 -0.175258 138 138 138
-0.299116 0.059459 -0.174946 138 138 138
-0.300421 0.055529 -0.174649 138 138 138
-0.301622 0.051363 -0.174323 138 138 138
-0.302843 0.047226 -0.174001 138 138 138
-0.304107 0.043167 -0.173689 138 138 138
-0.305333 0.039013 -0.173365 138 138 138
-0.306558 0.034841 -0.173041 138 138 138
-0.307790 0.030671 -0.172716 138 138 138
-0.308624 0.025624 -0.172288 138 138 138
-0.309504 0.020659 -0.171870 138 138 138
-0.310289 0.015468 -0.171426 138 138 138
-0.310985 0.010063 -0.170956 138 138 138
-0.311730 0.004744 -0.170498 138 138 138
-0.312516 -0.000506 -0.170048 138 138 138
-0.313510 -0.005320 -0.169650 138 138 138
-0.314738 -0.009636 -0.169312 138 138 138
-0.315991 -0.013912 -0.168979 138 138 138
-0.317237 -0.018220 -0.168642 138 138 138
-0.318756 -0.021938 -0.168376 138 138 138
-0.320306 -0.025597 -0.168117 138 138 138
-0.321849 -0.029285 -0.167854 138 138 138
-0.323468 -0.032815 -0.167611 138 138 138
-0.325205 -0.036093 -0.167397 138 138 138
-0.326939 -0.039386 -0.167182 138 138 138
-0.328675 -0.042683 -0.166967 138 138 138
-0.330354 -0.046121 -0.166736 138 138 138
-0.331686 -0.050358 -0.166410 138 138 138
-0.332927 -0.054816 -0.166059 138 138 138
-0.334108 -0.059426 -0.165691 138 138 138
-0.335225 -0.064202 -0.165304 138 138 138
-0.336231 -0.069251 -0.164885 138 138 138
-0.337082 -0.074677 -0.164422 138 138 138
-0.337933 -0.080122 -0.163957 138 138 138
-0.338460 -0.086342 -0.163402 138 138 138
-0.338702 -0.093248 -0.162768 138 138 138
0.268927 0.246191 -0.164705 138 138 138
0.214774 0.313329 -0.173846 161 161 161
0.205004 0.321554 -0.175134 152 152 152
0.196837 0.327679 -0.176141 140 140 140
0.190777 0.331013 -0.176776 138 138 138
0.184816 0.334232 -0.177395 138 138 138
0.179279 0.336903 -0.177940 138 138 138
0.175026 0.337859 -0.178257 138 138 138
0.170206 0.339593 -0.178676 138 138 138
