ply
format ascii 1.0
element vertex 1191
property float x
property float y
property float z
property uchar red
property uchar green
property uchar blue
end_header
-0.337669 0.244527 0.020187 138 138 138
-0.338698 0.242030 0.020256 138 138 138
-0.339718 0.239526 0.020327 138 138 138
-0.340731 0.237017 0.020400 138 138 138
-0.341931 0.234612 0.020431 138 138 138
-0.343032 0.232151 0.020485 138 138 138
-0.343953 0.229589 0.020578 138 138 138
-0.344940 0.227062 0.020657 138 138 138
-0.345751 0.224435 0.020775 138 138 138
-0.346364 0.221693 0.020937 138 138 138
-0.346976 0.218949 0.021100 138 138 138
-0.347574 0.216195 0.021266 138 138 138
-0.348330 0.213530 0.021396 138 138 138
-0.349026 0.210828 0.021541 138 138 138
-0.349432 0.207958 0.021750 138 138 138
-0.349837 0.205085 0.021960 138 138 138
-0.350303 0.202244 0.022156 138 138 138
-0.350741 0.199386 0.022359 138 138 138
-0.351181 0.196525 0.022561 138 138 138
-0.351620 0.193661 0.022764 138 138 138
-0.352133 0.190838 0.022951 138 138 138
-0.352444 0.187895 0.023183 138 138 138
-0.352756 0.184949 0.023416 138 138 138
-0.353112 0.182026 0.023638 138 138 138
-0.353667 0.179217 0.023817 138 138 138
-0.354165 0.176373 0.024008 138 138 138
-0.354639 0.173512 0.024205 138 138 138
-0.355120 0.170653 0.024400 138 138 138
-0.355598 0.167789 0.024597 138 138 138
-0.356053 0.164909 0.024799 138 138 138
-0.356518 0.162033 0.024999 138 138 138
-0.356995 0.159162 0.025196 138 138 138
-0.357622 0.156378 0.025360 138 138 138
-0.358699 0.153862 0.025423 138 138 138
-0.359835 0.151381 0.025473 138 138 138
-0.360971 0.148899 0.025522 138 138 138
-0.362119 0.146424 0.025569 138 138 138
-0.363267 0.143949 0.025616 138 138 138
-0.364790 0.141701 0.025579 138 138 138
-0.366425 0.139522 0.025516 138 138 138
-0.368059 0.137343 0.025453 138 138 138
-0.369695 0.135166 0.025389 138 138 138
-0.371347 0.133000 0.025322 138 138 138
-0.372988 0.130827 0.025258 138 138 138
-0.374502 0.128578 0.025222 138 138 138
-0.376024 0.126333 0.025184 138 138 138
-0.377546 0.124089 0.025146 138 138 138
-0.379067 0.121845 0.025108 138 138 138
-0.380501 0.119547 0.025090 138 138 138
-0.381834 0.117187 0.025095 138 138 138
-0.383021 0.114735 0.025134 138 138 138
-0.384233 0.112299 0.025166 138 138 138
-0.385447 0.109863 0.025198 138 138 138
-0.386661 0.107426 0.025230 138 138 138
-0.387846 0.104971 0.025269 138 138 138
-0.388835 0.102391 0.025353 138 138 138
-0.389691 0.099726 0.025467 138 138 138
-0.390449 0.096998 0.025604 138 138 138
-0.391079 0.094185 0.025770 138 138 138
-0.391744 0.091394 0.025928 138 138 138
-0.392330 0.088549 0.026105 138 138 138
-0.392736 0.085587 0.026323 138 138 138
-0.393030 0.082550 0.026567 138 138 138
-0.393400 0.079559 0.026794 138 138 138
-0.393914 0.076658 0.026988 138 138 138
-0.394426 0.073753 0.027183 138 138 138
-0.394930 0.070840 0.027380 138 138 138
-0.395435 0.067926 0.027577 138 138 138
-0.395929 0.065001 0.027776 138 138 138
-0.396415 0.062069 0.027978 138 138 138
-0.396803 0.059071 0.028203 138 138 138
-0.396530 0.055636 0.028580 138 138 138
-0.396583 0.052410 0.028883 138 138 138
-0.396636 0.049180 0.029186 138 138 138
-0.396726 0.045970 0.029480 138 138 138
-0.396996 0.042877 0.029734 138 138 138
-0.397651 0.040035 0.029899 138 138 138
-0.398307 0.037192 0.030064 138 138 138
-0.398929 0.034324 0.030236 138 138 138
-0.399680 0.031540 0.030380 138 138 138
-0.400585 0.028858 0.030487 138 138 138
-0.401493 0.026176 0.030594 138 138 138
-0.402362 0.023467 0.030711 138 138 138
-0.403133 0.020689 0.030850 138 138 138
-0.403810 0.017846 0.031011 138 138 138
-0.404403 0.014945 0.031192 138 138 138
-0.404856 0.011946 0.031406 138 138 138
-0.405312 0.008946 0.031619 138 138 138
-0.405806 0.005970 0.031824 138 138 138
-0.406298 0.002990 0.032029 138 138 138
-0.406756 -0.000017 0.032243 138 138 138
-0.407207 -0.003031 0.032459 138 138 138
-0.407641 -0.006060 0.032679 138 138 138
-0.408003 -0.009141 0.032915 138 138 138
-0.408223 -0.012323 0.033186 138 138 138
-0.408755 -0.015293 0.033384 138 138 138
-0.409277 -0.018273 0.033584 138 138 138
-0.409368 -0.021555 0.033886 138 138 138
-0.409770 -0.024624 0.034115 138 138 138
-0.410184 -0.027687 0.034341 138 138 138
-0.410587 -0.030761 0.034571 138 138 138
-0.410965 -0.033856 0.034806 138 138 138
-0.411437 -0.036888 0.035020 138 138 138
-0.411897 -0.039931 0.035237 138 138 138
-0.412334 -0.042993 0.035459 138 138 138
-0.412785 -0.046048 0.035679 138 138 138
-0.413237 -0.049106 0.035899 138 138 138
-0.413695 -0.052161 0.036117 138 138 138
-0.414221 -0.055172 0.036320 138 138 138
-0.414872 -0.058096 0.036493 138 138 138
-0.415483 -0.061051 0.036676 138 138 138
-0.416094 -0.064007 0.036859 138 138 138
-0.416721 -0.066956 0.037039 138 138 138
-0.417513 -0.069788 0.037180 138 138 138
-0.418365 -0.072577 0.037307 138 138 138
-0.419496 -0.075167 0.037368 138 138 138
-0.420643 -0.077747 0.037425 138 138 138
-0.421371 -0.080630 0.037582 138 138 138
-0.422134 -0.083492 0.037731 138 138 138
-0.423081 -0.086220 0.037836 138 138 138
-0.424027 -0.088951 0.037941 138 138 138
-0.424956 -0.091696 0.038051 138 138 138
-0.425711 -0.094569 0.038202 138 138 138
-0.426410 -0.097487 0.038367 138 138 138
-0.427062 -0.100441 0.038543 138 138 138
-0.427653 -0.103443 0.038734 138 138 138
-0.428255 -0.106438 0.038922 138 138 138
-0.428827 -0.109459 0.039118 138 138 138
-0.429401 -0.112481 0.039314 138 138 138
-0.429962 -0.115515 0.039513 138 138 138
-0.430530 -0.118547 0.039711 138 138 138
-0.431056 -0.121612 0.039919 138 138 138
-0.431499 -0.124743 0.040147 138 138 138
-0.432120 -0.127743 0.040333 138 138 138
-0.432431 -0.130979 0.040593 138 138 138
-0.432687 -0.134260 0.040867 138 138 138
-0.433072 -0.137448 0.041111 138 138 138
-0.433069 -0.140932 0.041448 138 138 138
-0.432243 -0.145048 0.041983 138 138 138
-0.431502 -0.149105 0.042498 138 138 138
-0.430243 -0.153565 0.043140 138 138 138
-0.426892 -0.159635 0.044286 138 138 138
-0.422817 -0.166275 0.045608 138 138 138
-0.416688 -0.174512 0.047429 138 138 138
-0.396618 -0.193509 0.052619 138 138 138
-0.392094 -0.200579 0.054058 138 138 138
-0.385771 -0.209059 0.055934 138 138 138
-0.380245 -0.216948 0.057619 138 138 138
-0.376622 -0.223381 0.058846 138 138 138
-0.372398 -0.230298 0.060220 138 138 138
-0.366440 -0.238587 0.062017 138 138 138
-0.361671 -0.245970 0.063527 138 138 138
-0.359706 -0.251179 0.064359 138 138 138
-0.357669 -0.256455 0.065209 138 138 138
-0.354574 -0.262574 0.066317 138 138 138
-0.349970 -0.269898 0.067794 138 138 138
-0.344307 -0.278079 0.069531 138 138 138
-0.319243 -0.301638 0.075996 138 138 138
-0.309836 -0.312868 0.078653 138 138 138
-0.224520 -0.384468 0.099832 138 138 138
-0.220394 -0.391691 0.101220 138 138 138
-0.212864 -0.401648 0.103440 143 143 143
-0.206002 -0.411103 0.105500 153 153 153
0.158462 0.443318 0.080874 138 138 138
0.148729 0.443851 0.079205 138 138 138
0.144322 0.442353 0.078616 138 138 138
0.139938 0.440853 0.078031 138 138 138
0.135597 0.439343 0.077454 138 138 138
0.130791 0.438020 0.076781 138 138 138
0.124844 0.437149 0.075876 138 138 138
0.116402 0.437264 0.074461 142 142 142
0.103963 0.438963 0.072229 145 145 145
0.093078 0.440076 0.070312 143 143 143
0.082998 0.440894 0.068558 138 138 138
0.075950 0.440533 0.067420 138 138 138
0.069496 0.439949 0.066403 138 138 138
0.064713 0.438712 0.065726 138 138 138
0.060270 0.437347 0.065118 138 138 138
0.056073 0.435891 0.064560 138 138 138
0.052304 0.434269 0.064089 138 138 138
0.048614 0.432621 0.063634 138 138 138
0.045009 0.430944 0.063195 138 138 138
0.041799 0.429112 0.062838 138 138 138
0.038253 0.427421 0.062410 138 138 138
0.033763 0.426119 0.061789 138 138 138
0.029627 0.424680 0.061239 138 138 138
0.024601 0.423611 0.060506 138 138 138
0.018705 0.422910 0.059592 147 147 147
0.012390 0.422391 0.058592 142 142 142
0.005888 0.421961 0.057552 140 140 140
-0.004786 0.423273 0.055651 142 142 142
-0.015524 0.424634 0.053735 138 138 138
-0.023752 0.424971 0.052334 138 138 138
-0.030126 0.424549 0.051315 138 138 138
-0.034778 0.423415 0.050650 138 138 138
-0.038939 0.422084 0.050086 138 138 138
-0.043092 0.420756 0.049522 138 138 138
-0.047222 0.419424 0.048964 138 138 138
-0.051121 0.418002 0.048452 138 138 138
-0.055828 0.416928 0.047772 138 138 138
-0.060252 0.415743 0.047150 138 138 138
-0.064480 0.414480 0.046568 138 138 138
-0.068800 0.413264 0.045967 138 138 138
-0.073075 0.412036 0.045374 138 138 138
-0.077443 0.410854 0.044761 138 138 138
-0.082458 0.409960 0.044013 138 138 138
-0.087113 0.408918 0.043338 138 138 138
-0.091913 0.407948 0.042633 138 138 138
-0.096629 0.406949 0.041945 138 138 138
-0.100592 0.405629 0.041413 138 138 138
-0.104251 0.404181 0.040943 138 138 138
-0.107859 0.402716 0.040484 138 138 138
-0.110598 0.400874 0.040205 138 138 138
-0.113277 0.399008 0.039939 138 138 138
-0.115760 0.397058 0.039713 138 138 138
-0.117859 0.394940 0.039568 138 138 138
-0.119909 0.392802 0.039432 138 138 138
-0.121937 0.390656 0.039301 138 138 138
-0.123387 0.388252 0.039290 138 138 138
-0.124941 0.385895 0.039258 138 138 138
-0.126730 0.383644 0.039177 138 138 138
-0.129112 0.381662 0.038971 138 138 138
-0.131093 0.379501 0.038849 138 138 138
-0.133073 0.377341 0.038727 138 138 138
-0.135052 0.375183 0.038605 138 138 138
-0.137171 0.373089 0.038454 138 138 138
-0.140106 0.371372 0.038131 138 138 138
-0.143504 0.369871 0.037710 138 138 138
-0.147212 0.368518 0.037223 138 138 138
-0.152077 0.367707 0.036492 138 138 138
-0.157501 0.367163 0.035642 138 138 138
-0.164316 0.367276 0.034498 138 138 138
-0.170811 0.367254 0.033420 138 138 138
-0.177022 0.367111 0.032401 138 138 138
-0.181794 0.366307 0.031684 138 138 138
-0.186087 0.365285 0.031068 138 138 138
-0.189599 0.363903 0.030617 138 138 138
-0.192740 0.362351 0.030244 138 138 138
-0.195725 0.360730 0.029903 138 138 138
-0.198567 0.359045 0.029592 138 138 138
-0.200932 0.357136 0.029382 138 138 138
-0.203200 0.355184 0.029193 138 138 138
-0.205466 0.353233 0.029003 138 138 138
-0.207451 0.351149 0.028873 138 138 138
-0.209456 0.349076 0.028739 138 138 138
-0.212102 0.347314 0.028468 138 138 138
-0.213817 0.345106 0.028395 138 138 138
-0.215532 0.342898 0.028321 138 138 138
-0.217449 0.340788 0.028205 138 138 138
-0.220020 0.339000 0.027949 138 138 138
-0.222695 0.337265 0.027671 138 138 138
-0.225517 0.335607 0.027361 138 138 138
-0.228319 0.333941 0.027055 138 138 138
-0.231805 0.332617 0.026602 138 138 138
-0.235142 0.331225 0.026181 138 138 138
-0.238406 0.329801 0.025775 138 138 138
-0.241852 0.328473 0.025329 138 138 138
-0.245061 0.327032 0.024934 138 138 138
-0.248349 0.325635 0.024521 138 138 138
-0.251631 0.324241 0.024109 138 138 138
-0.254620 0.322704 0.023760 138 138 138
-0.257510 0.321122 0.023431 138 138 138
-0.259975 0.319329 0.023193 138 138 138
-0.262284 0.317460 0.022989 138 138 138
-0.264643 0.315619 0.022773 138 138 138
-0.266899 0.313729 0.022580 138 138 138
-0.269186 0.311856 0.022379 138 138 138
-0.271575 0.310038 0.022157 138 138 138
-0.274004 0.308243 0.021925 138 138 138
-0.276548 0.306511 0.021668 138 138 138
-0.278961 0.304713 0.021439 138 138 138
-0.281347 0.302905 0.021216 138 138 138
-0.283863 0.301166 0.020965 138 138 138
-0.286509 0.299499 0.020685 138 138 138
-0.289261 0.297890 0.020382 138 138 138
-0.292020 0.296287 0.020077 138 138 138
-0.294830 0.294716 0.019760 138 138 138
-0.297822 0.293244 0.019404 138 138 138
-0.300696 0.291715 0.019073 138 138 138
-0.303700 0.290257 0.018713 138 138 138
-0.306681 0.288793 0.018358 138 138 138
-0.309576 0.287286 0.018021 138 138 138
-0.311975 0.285521 0.017792 138 138 138
-0.314372 0.283757 0.017563 138 138 138
-0.316753 0.281988 0.017337 138 138 138
-0.318590 0.279930 0.017229 138 138 138
-0.320384 0.277850 0.017130 138 138 138
-0.322176 0.275771 0.017032 138 138 138
-0.323670 0.273533 0.016998 138 138 138
-0.324904 0.271154 0.017021 138 138 138
-0.326211 0.268814 0.017029 138 138 138
-0.327271 0.266341 0.017090 138 138 138
-0.328254 0.263824 0.017168 138 138 138
-0.329235 0.261306 0.017247 138 138 138
-0.330150 0.258750 0.017340 138 138 138
-0.331066 0.256194 0.017433 138 138 138
-0.331936 0.253611 0.017536 138 138 138
-0.332845 0.251049 0.017631 138 138 138
-0.333828 0.248526 0.017710 138 138 138
-0.334811 0.246002 0.017789 138 138 138
-0.335775 0.243467 0.017872 138 138 138
-0.336936 0.241041 0.017912 138 138 138
-0.338099 0.238614 0.017951 138 138 138
-0.339218 0.236164 0.018000 138 138 138
-0.340418 0.233757 0.018032 138 138 138
-0.341604 0.231343 0.018066 138 138 138
-0.342579 0.228809 0.018148 138 138 138
-0.343569 0.226282 0.018226 138 138 138
-0.344558 0.223755 0.018304 138 138 138
-0.345428 0.221158 0.018408 138 138 138
-0.346040 0.218414 0.018570 138 138 138
-0.346688 0.215687 0.018724 138 138 138
-0.347460 0.213031 0.018851 138 138 138
-0.348233 0.210372 0.018977 138 138 138
-0.348649 0.207507 0.019183 138 138 138
-0.349198 0.204717 0.019360 138 138 138
-0.349832 0.201973 0.019518 138 138 138
-0.350242 0.199097 0.019726 138 138 138
-0.350681 0.196236 0.019928 138 138 138
-0.351140 0.193384 0.020125 138 138 138
-0.351712 0.190595 0.020298 138 138 138
-0.352023 0.187651 0.020529 138 138 138
-0.352334 0.184705 0.020760 138 138 138
-0.352670 0.181770 0.020986 138 138 138
-0.353097 0.178886 0.021192 138 138 138
-0.353348 0.175896 0.021437 138 138 138
-0.353761 0.172998 0.021647 138 138 138
-0.354242 0.170138 0.021841 138 138 138
-0.354703 0.167264 0.022041 138 138 138
-0.355157 0.164383 0.022242 138 138 138
-0.355616 0.161502 0.022442 138 138 138
-0.356093 0.158630 0.022638 138 138 138
-0.356784 0.155883 0.022787 138 138 138
-0.357815 0.153339 0.022860 138 138 138
-0.358963 0.150865 0.022907 138 138 138
-0.360110 0.148390 0.022953 138 138 138
-0.361258 0.145914 0.023000 138 138 138
-0.362614 0.143564 0.023000 138 138 138
-0.364217 0.141364 0.022945 138 138 138
-0.365896 0.139212 0.022872 138 138 138
-0.367584 0.137065 0.022798 138 138 138
-0.369218 0.134888 0.022735 138 138 138
-0.370852 0.132710 0.022673 138 138 138
-0.372512 0.130549 0.022604 138 138 138
-0.374127 0.128361 0.022545 138 138 138
-0.375592 0.126082 0.022521 138 138 138
-0.377056 0.123802 0.022496 138 138 138
-0.378545 0.121538 0.022466 138 138 138
-0.380048 0.119283 0.022433 138 138 138
-0.381320 0.116884 0.022451 138 138 138
-0.382531 0.114447 0.022484 138 138 138
-0.383723 0.111998 0.022521 138 138 138
-0.384891 0.109533 0.022563 138 138 138
-0.386060 0.107068 0.022605 138 138 138
-0.387171 0.104566 0.022661 138 138 138
-0.388243 0.102038 0.022725 138 138 138
-0.389209 0.099443 0.022814 138 138 138
-0.389913 0.096680 0.022962 138 138 138
-0.390623 0.093918 0.023109 138 138 138
-0.391223 0.091084 0.023281 138 138 138
-0.391808 0.088239 0.023457 138 138 138
-0.392310 0.085339 0.023652 138 138 138
-0.392604 0.082301 0.023895 138 138 138
-0.392995 0.079324 0.024116 138 138 138
-0.393491 0.076411 0.024313 138 138 138
-0.393994 0.073500 0.024509 138 138 138
-0.394498 0.070588 0.024705 138 138 138
-0.395014 0.067680 0.024898 138 138 138
-0.395506 0.064755 0.025097 138 138 138
-0.395989 0.061821 0.025299 138 138 138
-0.396484 0.058892 0.025497 138 138 138
-0.396819 0.055856 0.025733 138 138 138
-0.396985 0.052705 0.026008 138 138 138
-0.397039 0.049477 0.026309 138 138 138
-0.397105 0.046253 0.026608 138 138 138
-0.397512 0.043251 0.026828 138 138 138
-0.398167 0.040411 0.026992 138 138 138
-0.398822 0.037569 0.027156 138 138 138
-0.399477 0.034725 0.027320 138 138 138
-0.400065 0.031833 0.027500 138 138 138
-0.400834 0.029060 0.027638 138 138 138
-0.401603 0.026286 0.027777 138 138 138
-0.402373 0.023511 0.027915 138 138 138
-0.403071 0.020685 0.028070 138 138 138
-0.403691 0.017805 0.028244 138 138 138
-0.404215 0.014857 0.028440 138 138 138
-0.404601 0.011813 0.028668 138 138 138
-0.405057 0.008814 0.028880 138 138 138
-0.405498 0.005801 0.029096 138 138 138
-0.405919 0.002772 0.029317 138 138 138
-0.406363 -0.000244 0.029532 138 138 138
-0.406813 -0.003259 0.029747 138 138 138
-0.407206 -0.006316 0.029975 138 138 138
-0.407568 -0.009397 0.030211 138 138 138
-0.407931 -0.012481 0.030446 138 138 138
-0.408313 -0.015554 0.030678 138 138 138
-0.408571 -0.018717 0.030939 138 138 138
-0.408662 -0.021999 0.031239 138 138 138
-0.409012 -0.025105 0.031479 138 138 138
-0.409426 -0.028169 0.031704 138 138 138
-0.409809 -0.031258 0.031937 138 138 138
-0.410141 -0.034385 0.032182 138 138 138
-0.410755 -0.037318 0.032361 138 138 138
-0.411294 -0.040305 0.032559 138 138 138
-0.411819 -0.043306 0.032759 138 138 138
-0.412276 -0.046357 0.032976 138 138 138
-0.412733 -0.049411 0.033194 138 138 138
-0.413191 -0.052467 0.033411 138 138 138
-0.413821 -0.055403 0.033588 138 138 138
-0.414492 -0.058313 0.033756 138 138 138
-0.415140 -0.061241 0.033929 138 138 138
-0.415751 -0.064198 0.034112 138 138 138
-0.416423 -0.067114 0.034280 138 138 138
-0.417244 -0.069924 0.034413 138 138 138
-0.418131 -0.072689 0.034531 138 138 138
-0.419242 -0.075293 0.034596 138 138 138
-0.420587 -0.077728 0.034606 138 138 138
-0.421158 -0.080727 0.034799 138 138 138
-0.421745 -0.083715 0.034989 138 138 138
-0.422691 -0.086444 0.035093 138 138 138
-0.423638 -0.089174 0.035198 138 138 138
-0.424352 -0.092077 0.035358 138 138 138
-0.425155 -0.094916 0.035497 138 138 138
-0.425990 -0.097733 0.035629 138 138 138
-0.426682 -0.100658 0.035794 138 138 138
-0.427335 -0.103613 0.035970 138 138 138
-0.427915 -0.106625 0.036162 138 138 138
-0.428496 -0.109639 0.036355 138 138 138
-0.429053 -0.112673 0.036554 138 138 138
-0.429649 -0.115682 0.036743 138 138 138
-0.430359 -0.118607 0.036906 138 138 138
-0.430920 -0.121646 0.037105 138 138 138
-0.431469 -0.124697 0.037306 138 138 138
-0.432121 -0.127673 0.037484 138 138 138
-0.432392 -0.130938 0.037752 138 138 138
-0.432793 -0.134110 0.037990 138 138 138
-0.433176 -0.137297 0.038232 138 138 138
-0.432960 -0.140943 0.038618 138 138 138
-0.432174 -0.145027 0.039141 138 138 138
-0.431369 -0.149133 0.039669 138 138 138
-0.429431 -0.154111 0.040469 138 138 138
-0.425937 -0.160291 0.041644 138 138 138
-0.420461 -0.168006 0.043295 138 138 138
-0.411572 -0.178366 0.045768 138 138 138
-0.394526 -0.195041 0.050204 138 138 138
-0.389743 -0.202314 0.051698 138 138 138
-0.384083 -0.210284 0.053404 138 138 138
-0.379082 -0.217767 0.054954 138 138 138
-0.375593 -0.224098 0.056142 138 138 138
-0.371983 -0.230538 0.057361 138 138 138
-0.366388 -0.238544 0.059060 138 138 138
-0.361726 -0.245843 0.060536 138 138 138
-0.359731 -0.251073 0.061370 138 138 138
-0.357662 -0.256374 0.062223 138 138 138
-0.355529 -0.261735 0.063092 138 138 138
-0.351603 -0.268523 0.064397 138 138 138
-0.345765 -0.276838 0.066166 138 138 138
-0.317567 -0.302874 0.073355 138 138 138
-0.229159 -0.376762 0.095151 138 138 138
-0.225996 -0.383198 0.096295 138 138 138
-0.222138 -0.390204 0.097610 138 138 138
-0.218310 -0.397203 0.098918 138 138 138
-0.212258 -0.406000 0.100769 146 146 146
-0.198763 -0.420787 0.104433 134 134 134
0.158940 0.443051 0.077898 100 100 100
0.149938 0.443304 0.076385 138 138 138
0.144396 0.442242 0.075570 138 138 138
0.139635 0.440888 0.074912 138 138 138
0.135098 0.439454 0.074298 138 138 138
0.129122 0.438587 0.073393 138 138 138
0.122828 0.437855 0.072422 138 138 138
0.113766 0.438216 0.070889 146 146 146
0.100889 0.440090 0.068580 144 144 144
0.091357 0.440675 0.066948 140 140 140
0.082834 0.440881 0.065519 138 138 138
0.076060 0.440412 0.064443 138 138 138
0.070130 0.439621 0.063538 138 138 138
0.065825 0.438194 0.062962 138 138 138
0.061592 0.436745 0.062401 138 138 138
0.057367 0.435298 0.061840 138 138 138
0.053367 0.433768 0.061325 138 138 138
0.049677 0.432120 0.060872 138 138 138
0.046071 0.430443 0.060435 138 138 138
0.042082 0.428925 0.059921 138 138 138
0.038254 0.427349 0.059438 138 138 138
0.033401 0.426195 0.058746 138 138 138
0.028518 0.425063 0.058046 140 140 140
0.022630 0.424350 0.057141 150 150 150
0.016317 0.423822 0.056147 146 146 146
0.010046 0.423289 0.055161 145 145 145
0.002210 0.423414 0.053853 140 140 140
-0.008039 0.424555 0.052049 142 142 142
-0.016092 0.424804 0.050693 138 138 138
-0.024163 0.425077 0.049333 138 138 138
-0.029008 0.424016 0.048633 138 138 138
-0.033840 0.422958 0.047935 138 138 138
-0.038033 0.421639 0.047367 138 138 138
-0.042188 0.420311 0.046807 138 138 138
-0.046208 0.418933 0.046273 138 138 138
-0.050422 0.417643 0.045700 138 138 138
-0.055024 0.416525 0.045045 138 138 138
-0.059733 0.415460 0.044368 138 138 138
-0.064071 0.414245 0.043767 138 138 138
-0.068587 0.413113 0.043128 138 138 138
-0.073029 0.411957 0.042504 138 138 138
-0.077469 0.410807 0.041879 138 138 138
-0.082520 0.409929 0.041128 138 138 138
-0.087597 0.409071 0.040370 138 138 138
-0.092493 0.408143 0.039649 138 138 138
-0.097280 0.407177 0.038950 138 138 138
-0.101164 0.405823 0.038437 138 138 138
-0.104837 0.404383 0.037967 138 138 138
-0.108354 0.402879 0.037529 138 138 138
-0.111344 0.401149 0.037199 138 138 138
-0.114021 0.399284 0.036935 138 138 138
-0.116220 0.397209 0.036769 138 138 138
-0.118318 0.395092 0.036624 138 138 138
-0.120390 0.392965 0.036485 138 138 138
-0.122062 0.390660 0.036428 138 138 138
-0.123786 0.388380 0.036361 138 138 138
-0.125550 0.386118 0.036285 138 138 138
-0.127360 0.383878 0.036200 138 138 138
-0.129295 0.381696 0.036088 138 138 138
-0.131452 0.379615 0.035930 138 138 138
-0.133627 0.377545 0.035768 138 138 138
-0.135801 0.375476 0.035606 138 138 138
-0.137974 0.373409 0.035444 138 138 138
-0.141121 0.371790 0.035078 138 138 138
-0.144562 0.370311 0.034650 138 138 138
-0.148010 0.368840 0.034220 138 138 138
-0.152628 0.367916 0.033545 138 138 138
-0.158547 0.367603 0.032596 138 138 138
-0.165026 0.367562 0.031528 138 138 138
-0.171509 0.367535 0.030459 138 138 138
-0.177810 0.367436 0.029426 138 138 138
-0.182517 0.366603 0.028727 138 138 138
-0.186554 0.365463 0.028168 138 138 138
-0.190156 0.364124 0.027701 138 138 138
-0.193128 0.362494 0.027365 138 138 138
-0.196095 0.360865 0.027029 138 138 138
-0.198850 0.359139 0.026739 138 138 138
-0.201410 0.357324 0.026489 138 138 138
-0.203697 0.355382 0.026296 138 138 138
-0.205889 0.353397 0.026123 138 138 138
-0.207740 0.351250 0.026022 138 138 138
-0.209590 0.349103 0.025921 138 138 138
-0.211786 0.347125 0.025747 138 138 138
-0.213501 0.344916 0.025674 138 138 138
-0.215216 0.342708 0.025601 138 138 138
-0.216962 0.340516 0.025522 138 138 138
-0.219146 0.338538 0.025349 138 138 138
-0.221906 0.336845 0.025054 138 138 138
-0.224729 0.335186 0.024746 138 138 138
-0.227545 0.333527 0.024439 138 138 138
-0.230379 0.331881 0.024127 138 138 138
-0.233930 0.330593 0.023663 138 138 138
-0.237197 0.329170 0.023258 138 138 138
-0.240506 0.327773 0.022845 138 138 138
-0.243977 0.326462 0.022396 138 138 138
-0.247492 0.325178 0.021937 138 138 138
-0.251101 0.323946 0.021458 138 138 138
-0.253979 0.322353 0.021134 138 138 138
-0.256870 0.320771 0.020807 138 138 138
-0.259192 0.318906 0.020601 138 138 138
-0.261502 0.317037 0.020397 138 138 138
-0.263880 0.315205 0.020179 138 138 138
-0.266286 0.313390 0.019954 138 138 138
-0.268691 0.311578 0.019730 138 138 138
-0.271077 0.309758 0.019509 138 138 138
-0.273458 0.307939 0.019289 138 138 138
-0.275953 0.306180 0.019044 138 138 138
-0.278394 0.304397 0.018811 138 138 138
-0.280778 0.302588 0.018589 138 138 138
-0.283160 0.300780 0.018368 138 138 138
-0.285710 0.299061 0.018110 138 138 138
-0.288463 0.297452 0.017809 138 138 138
-0.291375 0.295930 0.017472 138 138 138
-0.294208 0.294370 0.017153 138 138 138
-0.297000 0.292793 0.016842 138 138 138
-0.299909 0.291281 0.016505 138 138 138
-0.302780 0.289753 0.016176 138 138 138
-0.305711 0.288261 0.015834 138 138 138
-0.308638 0.286771 0.015492 138 138 138
-0.311039 0.285006 0.015263 138 138 138
-0.313459 0.283254 0.015030 138 138 138
-0.315408 0.281253 0.014899 138 138 138
-0.317276 0.279211 0.014785 138 138 138
-0.319053 0.277121 0.014691 138 138 138
-0.320847 0.275042 0.014593 138 138 138
-0.322284 0.272771 0.014572 138 138 138
-0.323519 0.270391 0.014595 138 138 138
-0.324472 0.267859 0.014679 138 138 138
-0.325380 0.265300 0.014773 138 138 138
-0.326363 0.262782 0.014851 138 138 138
-0.327338 0.260258 0.014931 138 138 138
-0.328254 0.257701 0.015024 138 138 138
-0.329121 0.255116 0.015127 138 138 138
-0.329981 0.252526 0.015232 138 138 138
-0.330841 0.249934 0.015337 138 138 138
-0.331745 0.247366 0.015433 138 138 138
-0.332729 0.244840 0.015511 138 138 138
-0.334166 0.242565 0.015491 138 138 138
-0.335371 0.240161 0.015521 138 138 138
-0.336525 0.237729 0.015562 138 138 138
-0.337773 0.235348 0.015583 138 138 138
-0.339032 0.232974 0.015602 138 138 138
-0.340280 0.230593 0.015623 138 138 138
-0.341359 0.228116 0.015681 138 138 138
-0.342311 0.225567 0.015767 138 138 138
-0.343264 0.223017 0.015853 138 138 138
-0.344217 0.220467 0.015939 138 138 138
-0.345070 0.217858 0.016047 138 138 138
-0.345818 0.215188 0.016178 138 138 138
-0.346590 0.212531 0.016304 138 138 138
-0.347363 0.209872 0.016430 138 138 138
-0.347885 0.207067 0.016612 138 138 138
-0.348582 0.204361 0.016755 138 138 138
-0.349280 0.201654 0.016898 138 138 138
-0.349780 0.198831 0.017084 138 138 138
-0.350181 0.195947 0.017294 138 138 138
-0.350708 0.193134 0.017475 138 138 138
-0.351282 0.190346 0.017646 138 138 138
-0.351602 0.187408 0.017874 138 138 138
-0.351913 0.184462 0.018104 138 138 138
-0.352340 0.181580 0.018308 138 138 138
-0.352804 0.178718 0.018505 138 138 138
-0.353053 0.175727 0.018749 138 138 138
-0.353219 0.172683 0.019013 138 138 138
-0.353520 0.169716 0.019246 138 138 138
-0.353807 0.166738 0.019483 138 138 138
-0.354261 0.163856 0.019683 138 138 138
-0.354715 0.160972 0.019883 138 138 138
-0.355235 0.158124 0.020069 138 138 138
-0.356144 0.155508 0.020169 138 138 138
-0.357053 0.152891 0.020268 138 138 138
-0.358101 0.150356 0.020337 138 138 138
-0.359249 0.147880 0.020383 138 138 138
-0.360473 0.145450 0.020413 138 138 138
-0.362076 0.143249 0.020358 138 138 138
-0.363679 0.141049 0.020303 138 138 138
-0.365282 0.138850 0.020248 138 138 138
-0.366993 0.136718 0.020168 138 138 138
-0.368724 0.134598 0.020085 138 138 138
-0.370387 0.132439 0.020016 138 138 138
-0.372073 0.130294 0.019942 138 138 138
-0.373744 0.128141 0.019871 138 138 138
-0.375284 0.125907 0.019830 138 138 138
-0.376740 0.123623 0.019807 138 138 138
-0.378197 0.121338 0.019784 138 138 138
-0.379571 0.119004 0.019780 138 138 138
-0.380798 0.116576 0.019809 138 138 138
-0.381960 0.114109 0.019852 138 138 138
-0.383127 0.111643 0.019895 138 138 138
-0.384294 0.109177 0.019937 138 138 138
-0.385439 0.106697 0.019984 138 138 138
-0.386508 0.104168 0.020049 138 138 138
-0.387577 0.101638 0.020114 138 138 138
-0.388580 0.099065 0.020194 138 138 138
-0.389401 0.096376 0.020315 138 138 138
-0.390116 0.093618 0.020460 138 138 138
-0.390702 0.090775 0.020634 138 138 138
-0.391287 0.087930 0.020809 138 138 138
-0.391873 0.085083 0.020984 138 138 138
-0.392200 0.082067 0.021218 138 138 138
-0.392634 0.079117 0.021428 138 138 138
-0.393069 0.076165 0.021638 138 138 138
-0.393562 0.073248 0.021835 138 138 138
-0.394067 0.070335 0.022029 138 138 138
-0.394592 0.067434 0.022220 138 138 138
-0.395083 0.064508 0.022418 138 138 138
-0.395566 0.061574 0.022618 138 138 138
-0.396044 0.058634 0.022820 138 138 138
-0.396572 0.055724 0.023010 138 138 138
-0.397122 0.052827 0.023196 138 138 138
-0.397290 0.049675 0.023469 138 138 138
-0.397458 0.046519 0.023743 138 138 138
-0.397962 0.043583 0.023940 138 138 138
-0.398551 0.040700 0.024118 138 138 138
-0.399140 0.037815 0.024296 138 138 138
-0.399729 0.034927 0.024474 138 138 138
-0.400271 0.032006 0.024663 138 138 138
-0.400844 0.029104 0.024845 138 138 138
-0.401614 0.026330 0.024983 138 138 138
-0.402371 0.023547 0.025123 138 138 138
-0.402943 0.020636 0.025307 138 138 138
-0.403497 0.017712 0.025494 138 138 138
-0.404021 0.014764 0.025689 138 138 138
-0.404432 0.011738 0.025910 138 138 138
-0.404789 0.008671 0.026144 138 138 138
-0.405179 0.005624 0.026370 138 138 138
-0.405600 0.002595 0.026590 138 138 138
-0.406020 -0.000437 0.026810 138 138 138
-0.406411 -0.003492 0.027037 138 138 138
-0.406698 -0.006622 0.027289 138 138 138
-0.407067 -0.009698 0.027521 138 138 138
-0.407437 -0.012777 0.027754 138 138 138
-0.407763 -0.015890 0.027997 138 138 138
-0.407865 -0.019161 0.028293 138 138 138
-0.407956 -0.022444 0.028591 138 138 138
-0.408254 -0.025586 0.028842 138 138 138
-0.408653 -0.028661 0.029070 138 138 138
-0.408952 -0.031809 0.029321 138 138 138
-0.409317 -0.034915 0.029557 138 138 138
-0.409931 -0.037848 0.029735 138 138 138
-0.410524 -0.040799 0.029919 138 138 138
-0.411068 -0.043785 0.030114 138 138 138
-0.411610 -0.046777 0.030310 138 138 138
-0.412160 -0.049766 0.030505 138 138 138
-0.412751 -0.052727 0.030690 138 138 138
-0.413421 -0.055635 0.030856 138 138 138
-0.414092 -0.058545 0.031023 138 138 138
-0.414763 -0.061456 0.031190 138 138 138
-0.415416 -0.064384 0.031362 138 138 138
-0.416143 -0.067259 0.031516 138 138 138
-0.417010 -0.070037 0.031638 138 138 138
-0.417897 -0.072801 0.031755 138 138 138
-0.418988 -0.075419 0.031825 138 138 138
-0.420040 -0.078067 0.031904 138 138 138
-0.420869 -0.080877 0.032035 138 138 138
-0.421431 -0.083884 0.032229 138 138 138
-0.422302 -0.086668 0.032351 138 138 138
-0.423219 -0.089420 0.032462 138 138 138
-0.423764 -0.092446 0.032661 138 138 138
-0.424599 -0.095262 0.032792 138 138 138
-0.425434 -0.098079 0.032922 138 138 138
-0.426262 -0.100904 0.033055 138 138 138
-0.426861 -0.103900 0.033242 138 138 138
-0.427457 -0.106900 0.033430 138 138 138
-0.428054 -0.109902 0.033618 138 138 138
-0.428651 -0.112907 0.033806 138 138 138
-0.429351 -0.115837 0.033970 138 138 138
-0.430066 -0.118758 0.034131 138 138 138
-0.430808 -0.121662 0.034285 138 138 138
-0.431558 -0.124561 0.034438 138 138 138
-0.432097 -0.127621 0.034641 138 138 138
-0.432497 -0.130789 0.034878 138 138 138
-0.432898 -0.133960 0.035114 138 138 138
-0.433280 -0.137147 0.035355 138 138 138
-0.432839 -0.140963 0.035792 138 138 138
-0.432094 -0.145015 0.036303 138 138 138
-0.431278 -0.149129 0.036830 138 138 138
-0.427310 -0.155656 0.038110 138 138 138
-0.423181 -0.162324 0.039429 138 138 138
-0.416905 -0.170656 0.041263 138 138 138
-0.401271 -0.186204 0.045333 138 138 138
-0.392895 -0.196219 0.047674 138 138 138
-0.387388 -0.204052 0.049333 138 138 138
-0.382392 -0.211511 0.050871 138 138 138
-0.378107 -0.218442 0.052242 138 138 138
-0.374538 -0.224835 0.053443 138 138 138
-0.370904 -0.231295 0.054660 138 138 138
-0.366106 -0.238680 0.056159 138 138 138
-0.361121 -0.246231 0.057704 138 138 138
-0.359576 -0.251109 0.058426 138 138 138
-0.357417 -0.256479 0.059295 138 138 138
-0.355363 -0.261779 0.060141 138 138 138
-0.351860 -0.268232 0.061337 138 138 138
-0.345759 -0.276754 0.063159 138 138 138
-0.333702 -0.290014 0.066420 138 138 138
-0.230189 -0.375849 0.091734 138 138 138
-0.227368 -0.382012 0.092789 138 138 138
-0.224764 -0.388016 0.093793 138 138 138
-0.221523 -0.394541 0.094952 138 138 138
-0.218059 -0.401261 0.096167 138 138 138
-0.209986 -0.411693 0.098498 148 148 148
0.159418 0.442784 0.074921 100 100 100
0.151288 0.442702 0.073592 138 138 138
0.144834 0.441991 0.072598 138 138 138
0.140072 0.440637 0.071944 138 138 138
0.134090 0.439764 0.071043 138 138 138
0.127450 0.439157 0.070008 138 138 138
0.120888 0.438531 0.068988 141 141 141
0.109414 0.439837 0.066977 148 148 148
0.099102 0.440712 0.065198 142 142 142
0.089819 0.441202 0.063625 139 139 139
0.082898 0.440779 0.062527 138 138 138
0.076170 0.440293 0.061467 138 138 138
0.070971 0.439212 0.060714 138 138 138
0.066738 0.437755 0.060156 138 138 138
0.062708 0.436224 0.059639 138 138 138
0.058686 0.434696 0.059123 138 138 138
0.054468 0.433253 0.058566 138 138 138
0.050741 0.431618 0.058108 138 138 138
0.046656 0.430134 0.057577 138 138 138
0.042233 0.428792 0.056978 138 138 138
0.037890 0.427425 0.056393 138 138 138
0.032801 0.426369 0.055656 138 138 138
0.026542 0.425800 0.054681 145 145 145
0.020239 0.425260 0.053696 149 149 149
0.013951 0.424726 0.052712 149 149 149
0.007046 0.424457 0.051602 143 143 143
-0.001555 0.424903 0.050145 140 140 140
-0.009447 0.425072 0.048831 140 140 140
-0.017442 0.425299 0.047495 138 138 138
-0.023548 0.424755 0.046542 138 138 138
-0.027997 0.423528 0.045927 138 138 138
-0.032724 0.422425 0.045255 138 138 138
-0.037127 0.421194 0.044647 138 138 138
-0.041153 0.419811 0.044116 138 138 138
-0.045072 0.418389 0.043607 138 138 138
-0.049258 0.417087 0.043042 138 138 138
-0.053770 0.415930 0.042410 138 138 138
-0.058670 0.414946 0.041698 138 138 138
-0.063722 0.414035 0.040953 138 138 138
-0.068375 0.412962 0.040290 138 138 138
-0.072880 0.411833 0.039656 138 138 138
-0.077496 0.410759 0.038999 138 138 138
-0.082749 0.409969 0.038210 138 138 138
-0.087906 0.409147 0.037440 138 138 138
-0.092800 0.408220 0.036723 138 138 138
-0.097679 0.407294 0.036009 138 138 138
-0.101756 0.406026 0.035458 138 138 138
-0.105427 0.404586 0.034991 138 138 138
-0.108848 0.403042 0.034575 138 138 138
-0.112081 0.401420 0.034198 138 138 138
-0.114581 0.399478 0.033971 138 138 138
-0.116680 0.397360 0.033827 138 138 138
-0.118778 0.395244 0.033683 138 138 138
-0.120872 0.393128 0.033539 138 138 138
-0.122642 0.390868 0.033463 138 138 138
-0.124411 0.388609 0.033386 138 138 138
-0.126212 0.386365 0.033303 138 138 138
-0.128076 0.384151 0.033207 138 138 138
-0.129951 0.381943 0.033108 138 138 138
-0.132187 0.379899 0.032935 138 138 138
-0.134421 0.377857 0.032761 138 138 138
-0.136653 0.375817 0.032588 138 138 138
-0.138881 0.373776 0.032415 138 138 138
-0.142089 0.372187 0.032038 138 138 138
-0.145513 0.370702 0.031616 138 138 138
-0.148934 0.369220 0.031194 138 138 138
-0.153636 0.368337 0.030505 138 138 138
-0.159593 0.368043 0.029553 138 138 138
-0.165701 0.367831 0.028569 138 138 138
-0.172146 0.367788 0.027513 138 138 138
-0.178551 0.367740 0.026464 138 138 138
-0.182985 0.366780 0.025826 138 138 138
-0.186990 0.365626 0.025277 138 138 138
-0.190522 0.364255 0.024826 138 138 138
-0.193498 0.362628 0.024491 138 138 138
-0.196390 0.360964 0.024173 138 138 138
-0.199133 0.359234 0.023887 138 138 138
-0.201822 0.357481 0.023611 138 138 138
-0.204194 0.355581 0.023401 138 138 138
-0.206179 0.353497 0.023273 138 138 138
-0.208029 0.351350 0.023172 138 138 138
-0.209881 0.349206 0.023071 138 138 138
-0.211758 0.347075 0.022965 138 138 138
-0.213608 0.344932 0.022864 138 138 138
-0.215457 0.342789 0.022764 138 138 138
-0.217194 0.340593 0.022686 138 138 138
-0.218983 0.338424 0.022598 138 138 138
-0.221219 0.336475 0.022416 138 138 138
-0.223940 0.334765 0.022130 138 138 138
-0.226761 0.333108 0.021824 138 138 138
-0.229522 0.331426 0.021529 138 138 138
-0.232670 0.329938 0.021153 138 138 138
-0.235987 0.328539 0.020740 138 138 138
-0.239668 0.327325 0.020250 138 138 138
-0.243419 0.326153 0.019744 138 138 138
-0.247085 0.324944 0.019256 138 138 138
-0.250470 0.323600 0.018827 138 138 138
-0.253345 0.322006 0.018506 138 138 138
-0.256097 0.320353 0.018210 138 138 138
-0.258464 0.318510 0.017996 138 138 138
-0.260919 0.316715 0.017763 138 138 138
-0.263372 0.314920 0.017530 138 138 138
-0.265804 0.313119 0.017301 138 138 138
-0.268195 0.311299 0.017080 138 138 138
-0.270579 0.309478 0.016861 138 138 138
-0.272960 0.307658 0.016642 138 138 138
-0.275357 0.305850 0.016420 138 138 138
-0.277826 0.304081 0.016182 138 138 138
-0.280211 0.302271 0.015961 138 138 138
-0.282594 0.300463 0.015741 138 138 138
-0.285022 0.298682 0.015511 138 138 138
-0.287863 0.297118 0.015192 138 138 138
-0.290793 0.295605 0.014854 138 138 138
-0.293604 0.294033 0.014541 138 138 138
-0.296216 0.292362 0.014270 138 138 138
-0.299121 0.290847 0.013936 138 138 138
-0.301994 0.289319 0.013609 138 138 138
-0.304862 0.287794 0.013282 138 138 138
-0.307705 0.286259 0.012960 138 138 138
-0.310146 0.284514 0.012724 138 138 138
-0.312091 0.282508 0.012595 138 138 138
-0.313980 0.280474 0.012477 138 138 138
-0.315868 0.278441 0.012360 138 138 138
-0.317727 0.276394 0.012248 138 138 138
-0.319517 0.274311 0.012152 138 138 138
-0.320897 0.272009 0.012143 138 138 138
-0.321896 0.269500 0.012217 138 138 138
-0.322754 0.266914 0.012322 138 138 138
-0.323612 0.264327 0.012426 138 138 138
-0.324472 0.261740 0.012531 138 138 138
-0.325438 0.259209 0.012612 138 138 138
-0.326309 0.256625 0.012714 138 138 138
-0.327169 0.254034 0.012819 138 138 138
-0.328029 0.251442 0.012923 138 138 138
-0.328897 0.248853 0.013026 138 138 138
-0.329766 0.246262 0.013129 138 138 138
-0.331103 0.243930 0.013131 138 138 138
-0.332541 0.241654 0.013111 138 138 138
-0.333844 0.239304 0.013120 138 138 138
-0.335000 0.236870 0.013161 138 138 138
-0.336300 0.234517 0.013170 138 138 138
-0.337652 0.232193 0.013169 138 138 138
-0.338993 0.229863 0.013169 138 138 138
-0.340229 0.227474 0.013193 138 138 138
-0.341181 0.224924 0.013278 138 138 138
-0.342134 0.222374 0.013364 138 138 138
-0.343024 0.219786 0.013463 138 138 138
-0.343944 0.217214 0.013556 138 138 138
-0.344887 0.214655 0.013644 138 138 138
-0.345696 0.212018 0.013761 138 138 138
-0.346480 0.209364 0.013884 138 138 138
-0.347275 0.206716 0.014005 138 138 138
-0.347966 0.204006 0.014149 138 138 138
-0.348663 0.201298 0.014291 138 138 138
-0.349362 0.198589 0.014433 138 138 138
-0.349749 0.195697 0.014644 138 138 138
-0.350276 0.192885 0.014825 138 138 138
-0.350850 0.190096 0.014995 138 138 138
-0.351181 0.187164 0.015219 138 138 138
-0.351591 0.184276 0.015426 138 138 138
-0.352040 0.181408 0.015624 138 138 138
-0.352510 0.178550 0.015818 138 138 138
-0.352817 0.175592 0.016049 138 138 138
-0.352950 0.172529 0.016318 138 138 138
-0.353146 0.169501 0.016573 138 138 138
-0.353401 0.166503 0.016816 138 138 138
-0.353655 0.163502 0.017059 138 138 138
-0.353910 0.160499 0.017302 138 138 138
-0.354595 0.157749 0.017451 138 138 138
-0.355503 0.155133 0.017550 138 138 138
-0.356413 0.152515 0.017649 138 138 138
-0.357322 0.149896 0.017748 138 138 138
-0.358388 0.147370 0.017812 138 138 138
-0.359935 0.145135 0.017770 138 138 138
-0.361539 0.142934 0.017715 138 138 138
-0.363142 0.140734 0.017661 138 138 138
-0.364809 0.138574 0.017591 138 138 138
-0.366481 0.136418 0.017521 138 138 138
-0.368299 0.134351 0.017419 138 138 138
-0.370059 0.132251 0.017328 138 138 138
-0.371585 0.130008 0.017290 138 138 138
-0.373230 0.127839 0.017226 138 138 138
-0.374901 0.125686 0.017155 138 138 138
-0.376382 0.123417 0.017127 138 138 138
-0.377838 0.121133 0.017105 138 138 138
-0.379054 0.118699 0.017136 138 138 138
-0.380216 0.116231 0.017179 138 138 138
-0.381379 0.113764 0.017222 138 138 138
-0.382541 0.111295 0.017265 138 138 138
-0.383708 0.108829 0.017308 138 138 138
-0.384790 0.106308 0.017369 138 138 138
-0.385790 0.103736 0.017449 138 138 138
-0.386776 0.101153 0.017532 138 138 138
-0.387722 0.098543 0.017624 138 138 138
-0.388586 0.095881 0.017735 138 138 138
-0.389375 0.093169 0.017863 138 138 138
-0.390053 0.090385 0.018015 138 138 138
-0.390694 0.087574 0.018177 138 138 138
-0.391335 0.084763 0.018338 138 138 138
-0.391839 0.081860 0.018531 138 138 138
-0.392273 0.078910 0.018740 138 138 138
-0.392708 0.075958 0.018949 138 138 138
-0.393144 0.073004 0.019158 138 138 138
-0.393644 0.070089 0.019352 138 138 138
-0.394170 0.067188 0.019541 138 138 138
-0.394661 0.064261 0.019738 138 138 138
-0.395205 0.061367 0.019924 138 138 138
-0.395682 0.058427 0.020124 138 138 138
-0.396293 0.055572 0.020295 138 138 138
-0.396904 0.052715 0.020466 138 138 138
-0.397425 0.049796 0.020657 138 138 138
-0.397640 0.046672 0.020918 138 138 138
-0.398223 0.043789 0.021096 138 138 138
-0.398808 0.040904 0.021274 138 138 138
-0.399392 0.038017 0.021452 138 138 138
-0.399947 0.035108 0.021637 138 138 138
-0.400488 0.032187 0.021825 138 138 138
-0.400991 0.029238 0.022023 138 138 138
-0.401625 0.026374 0.022190 138 138 138
-0.402221 0.023483 0.022367 138 138 138
-0.402779 0.020564 0.022552 138 138 138
-0.403302 0.017619 0.022746 138 138 138
-0.403826 0.014671 0.022939 138 138 138
-0.404264 0.011663 0.023153 138 138 138
-0.404588 0.008575 0.023393 138 138 138
-0.404875 0.005458 0.023642 138 138 138
-0.405261 0.002405 0.023868 138 138 138
-0.405682 -0.000626 0.024087 138 138 138
-0.405953 -0.003764 0.024340 138 138 138
-0.406193 -0.006926 0.024601 138 138 138
-0.406505 -0.010042 0.024846 138 138 138
-0.406817 -0.013161 0.025090 138 138 138
-0.406998 -0.016374 0.025366 138 138 138
-0.407131 -0.019624 0.025652 138 138 138
-0.407249 -0.022889 0.025943 138 138 138
-0.407497 -0.026067 0.026204 138 138 138
-0.407807 -0.029205 0.026451 138 138 138
-0.408089 -0.032365 0.026705 138 138 138
-0.408492 -0.035444 0.026931 138 138 138
-0.409105 -0.038379 0.027109 138 138 138
-0.409635 -0.041375 0.027306 138 138 138
-0.410274 -0.044296 0.027478 138 138 138
-0.410844 -0.047268 0.027666 138 138 138
-0.411394 -0.050257 0.027860 138 138 138
-0.411868 -0.053303 0.028071 138 138 138
-0.412585 -0.056177 0.028226 138 138 138
-0.413324 -0.059039 0.028376 138 138 138
-0.414064 -0.061902 0.028526 138 138 138
-0.414976 -0.064644 0.028637 138 138 138
-0.415890 -0.067385 0.028747 138 138 138
-0.416776 -0.070149 0.028864 138 138 138
-0.417662 -0.072913 0.028980 138 138 138
-0.418700 -0.075570 0.029062 138 138 138
-0.419465 -0.078425 0.029207 138 138 138
-0.420231 -0.081282 0.029352 138 138 138
-0.421178 -0.084009 0.029456 138 138 138
-0.421913 -0.086892 0.029608 138 138 138
-0.422557 -0.089843 0.029783 138 138 138
-0.423208 -0.092792 0.029956 138 138 138
-0.424043 -0.095608 0.030086 138 138 138
-0.424868 -0.098433 0.030218 138 138 138
-0.425691 -0.101262 0.030352 138 138 138
-0.426478 -0.104119 0.030494 138 138 138
-0.427074 -0.107119 0.030680 138 138 138
-0.427671 -0.110121 0.030867 138 138 138
-0.428307 -0.113096 0.031045 138 138 138
-0.429042 -0.116000 0.031200 138 138 138
-0.429758 -0.118921 0.031360 138 138 138
-0.430679 -0.121690 0.031471 138 138 138
-0.431570 -0.124483 0.031590 138 138 138
-0.432067 -0.127574 0.031801 138 138 138
-0.432531 -0.130693 0.032021 138 138 138
-0.432996 -0.133815 0.032241 138 138 138
-0.433385 -0.136996 0.032479 138 138 138
-0.432717 -0.140983 0.032968 138 138 138
-0.432013 -0.145004 0.033465 138 138 138
-0.431120 -0.149176 0.034008 138 138 138
-0.424752 -0.157535 0.035849 138 138 138
-0.419799 -0.164836 0.037357 138 138 138
-0.412639 -0.173851 0.039391 138 138 138
-0.398524 -0.188237 0.043078 138 138 138
-0.390489 -0.197993 0.045326 138 138 138
-0.384567 -0.206149 0.047074 138 138 138
-0.379764 -0.213464 0.048559 138 138 138
-0.376617 -0.219516 0.049651 138 138 138
-0.373715 -0.225392 0.050686 138 138 138
-0.369280 -0.232476 0.052088 138 138 138
-0.365139 -0.239350 0.053422 138 138 138
-0.360483 -0.246644 0.054880 138 138 138
-0.358895 -0.251557 0.055608 138 138 138
-0.356943 -0.256765 0.056423 138 138 138
-0.354726 -0.262193 0.057303 138 138 138
-0.351165 -0.268692 0.058506 138 138 138
-0.345752 -0.276670 0.060154 138 138 138
-0.336584 -0.287643 0.062704 138 138 138
-0.231403 -0.374792 0.088277 138 138 138
-0.228624 -0.380917 0.089315 138 138 138
-0.226647 -0.386419 0.090163 138 138 138
-0.224401 -0.392147 0.091076 138 138 138
-0.220887 -0.398901 0.092296 138 138 138
-0.216925 -0.406031 0.093624 138 138 138
-0.200206 -0.423424 0.098025 133 133 133
0.152639 0.442100 0.070797 138 138 138
0.145394 0.441692 0.069651 138 138 138
0.140247 0.440488 0.068923 138 138 138
0.132951 0.440124 0.067764 138 138 138
0.126240 0.439546 0.066721 139 139 139
0.117207 0.439886 0.065212 146 146 146
0.105894 0.441134 0.063243 146 146 146
0.096930 0.441485 0.061744 140 140 140
0.089085 0.441413 0.060468 138 138 138
0.082894 0.440704 0.059523 138 138 138
0.076280 0.440173 0.058491 138 138 138
0.071831 0.438795 0.057894 138 138 138
0.067597 0.437338 0.057339 138 138 138
0.063451 0.435853 0.056801 138 138 138
0.059475 0.434306 0.056297 138 138 138
0.055505 0.432763 0.055793 138 138 138
0.051414 0.431274 0.055265 138 138 138
0.047099 0.429882 0.054690 138 138 138
0.042471 0.428624 0.054052 138 138 138
0.037360 0.427570 0.053316 138 138 138
0.031014 0.427027 0.052329 141 141 141
0.024380 0.426614 0.051283 148 148 148
0.018015 0.426102 0.050291 152 152 152
0.010940 0.425895 0.049153 147 147 147
0.003784 0.425734 0.047998 141 141 141
-0.003500 0.425640 0.046816 139 139 139
-0.010853 0.425588 0.045618 139 139 139
-0.018109 0.425510 0.044439 138 138 138
-0.023069 0.424489 0.043724 138 138 138
-0.027498 0.423254 0.043116 138 138 138
-0.031948 0.422035 0.042504 138 138 138
-0.036145 0.420717 0.041942 138 138 138
-0.039891 0.419216 0.041471 138 138 138
-0.043760 0.417772 0.040975 138 138 138
-0.047952 0.416471 0.040412 138 138 138
-0.052516 0.415334 0.039773 138 138 138
-0.057658 0.414453 0.039015 138 138 138
-0.062974 0.413654 0.038221 138 138 138
-0.067700 0.412612 0.037547 138 138 138
-0.072412 0.411572 0.036874 138 138 138
-0.077707 0.410792 0.036082 138 138 138
-0.082976 0.410010 0.035294 138 138 138
-0.088214 0.409223 0.034512 138 138 138
-0.093105 0.408296 0.033799 138 138 138
-0.097980 0.407369 0.033089 138 138 138
-0.102348 0.406229 0.032483 138 138 138
-0.105926 0.404750 0.032037 138 138 138
-0.109343 0.403205 0.031624 138 138 138
-0.112687 0.401633 0.031226 138 138 138
-0.115009 0.399613 0.031037 138 138 138
-0.117090 0.397489 0.030897 138 138 138
-0.119169 0.395365 0.030757 138 138 138
-0.121353 0.393290 0.030596 138 138 138
-0.123283 0.391103 0.030487 138 138 138
-0.125051 0.388845 0.030411 138 138 138
-0.126901 0.386625 0.030318 138 138 138
-0.128791 0.384423 0.030217 138 138 138
-0.130645 0.382207 0.030123 138 138 138
-0.132786 0.380122 0.029970 138 138 138
-0.135019 0.378081 0.029797 138 138 138
-0.137239 0.376036 0.029628 138 138 138
-0.139675 0.374091 0.029413 138 138 138
-0.142804 0.372468 0.029054 138 138 138
-0.146245 0.370992 0.028631 138 138 138
-0.149761 0.369556 0.028191 138 138 138
-0.154738 0.368801 0.027449 138 138 138
-0.160688 0.368506 0.026503 138 138 138
-0.166744 0.368272 0.025535 138 138 138
-0.173028 0.368156 0.024518 138 138 138
-0.179265 0.368030 0.023510 138 138 138
-0.183416 0.366939 0.022934 138 138 138
-0.187376 0.365765 0.022398 138 138 138
-0.190759 0.364325 0.021980 138 138 138
-0.193869 0.362762 0.021619 138 138 138
-0.196673 0.361058 0.021322 138 138 138
-0.199415 0.359328 0.021036 138 138 138
-0.202155 0.357601 0.020751 138 138 138
-0.204562 0.355717 0.020536 138 138 138
-0.206475 0.353600 0.020423 138 138 138
-0.208326 0.351455 0.020323 138 138 138
-0.210204 0.349324 0.020217 138 138 138
-0.212143 0.347223 0.020098 138 138 138
-0.213993 0.345081 0.019998 138 138 138
-0.215841 0.342940 0.019898 138 138 138
-0.217478 0.340696 0.019842 138 138 138
-0.219114 0.338453 0.019786 138 138 138
-0.221003 0.336334 0.019677 138 138 138
-0.223289 0.334412 0.019485 138 138 138
-0.225973 0.332688 0.019209 138 138 138
-0.228748 0.331011 0.018913 138 138 138
-0.231505 0.329330 0.018621 138 138 138
-0.235639 0.328335 0.018039 138 138 138
-0.239800 0.327360 0.017450 138 138 138
-0.243148 0.325987 0.017032 138 138 138
-0.246678 0.324710 0.016576 138 138 138
-0.249839 0.323255 0.016196 138 138 138
-0.252722 0.321664 0.015875 138 138 138
-0.255760 0.320155 0.015520 138 138 138
-0.258229 0.318364 0.015286 138 138 138
-0.260696 0.316574 0.015051 138 138 138
-0.263160 0.314786 0.014817 138 138 138
-0.265568 0.312972 0.014595 138 138 138
-0.267855 0.311099 0.014397 138 138 138
-0.270130 0.309223 0.014202 138 138 138
-0.272463 0.307378 0.013995 138 138 138
-0.274843 0.305561 0.013778 138 138 138
-0.277259 0.303764 0.013552 138 138 138
-0.279693 0.301980 0.013323 138 138 138
-0.282293 0.300285 0.013057 138 138 138
-0.284722 0.298504 0.012828 138 138 138
-0.287280 0.296793 0.012571 138 138 138
-0.290211 0.295280 0.012235 138 138 138
-0.293001 0.293697 0.011928 138 138 138
-0.295614 0.292025 0.011659 138 138 138
-0.298333 0.290413 0.011366 138 138 138
-0.301206 0.288885 0.011041 138 138 138
-0.304011 0.287325 0.010729 138 138 138
-0.306742 0.285730 0.010433 138 138 138
-0.308996 0.283885 0.010239 138 138 138
-0.310772 0.281789 0.010146 138 138 138
-0.312551 0.279695 0.010053 138 138 138
-0.314440 0.277661 0.009936 138 138 138
-0.316328 0.275628 0.009819 138 138 138
-0.318185 0.273580 0.009709 138 138 138
