ply
format ascii 1.0
element vertex 1182
property float x
property float y
property float z
property uchar red
property uchar green
property uchar blue
end_header
-0.241716 -0.335296 0.212503 162 162 162
-0.236392 -0.338842 0.213838 164 164 164
-0.230439 -0.342477 0.215332 166 166 166
-0.224222 -0.346158 0.216892 169 169 169
-0.211808 -0.350634 0.220007 172 172 172
-0.195322 -0.355655 0.224144 174 174 174
-0.180745 -0.360465 0.227802 179 179 179
-0.152663 -0.367054 0.234849 174 174 174
-0.127146 -0.373367 0.241252 151 151 151
-0.120389 -0.377267 0.242947 139 139 139
-0.115763 -0.380898 0.244108 140 140 140
-0.111706 -0.384463 0.245126 143 143 143
-0.107595 -0.388044 0.246158 143 143 143
-0.102302 -0.391794 0.247486 146 146 146
0.016164 0.398319 0.273964 100 100 100
-0.145189 0.373941 0.233650 157 157 157
-0.155275 0.369633 0.231130 146 146 146
-0.160980 0.365914 0.229705 141 141 141
-0.165449 0.362366 0.228588 141 141 141
-0.168794 0.358970 0.227752 143 143 143
-0.173114 0.355458 0.226673 146 146 146
-0.178610 0.351808 0.225300 154 154 154
-0.188382 0.347638 0.222858 163 163 163
-0.199180 0.343363 0.220160 160 160 160
-0.211072 0.338977 0.217189 162 162 162
-0.234405 0.333233 0.211359 164 164 164
-0.243739 0.329216 0.209027 154 154 154
-0.250569 0.325516 0.207321 150 150 150
-0.256334 0.321956 0.205880 156 156 156
-0.261593 0.318467 0.204566 154 154 154
-0.266950 0.314978 0.203228 151 151 151
-0.273586 0.311354 0.201570 150 150 150
-0.282038 0.307537 0.199458 153 153 153
-0.286535 0.304184 0.198335 149 149 149
-0.289315 0.301031 0.197640 148 148 148
-0.292074 0.297886 0.196951 146 146 146
-0.294401 0.294794 0.196369 143 143 143
-0.296438 0.291739 0.195861 143 143 143
-0.298865 0.288646 0.195254 143 143 143
-0.301578 0.285528 0.194576 139 139 139
-0.303806 0.282467 0.194020 138 138 138
-0.305828 0.279432 0.193514 138 138 138
-0.307878 0.276398 0.193002 138 138 138
-0.310369 0.273323 0.192380 138 138 138
-0.312280 0.270312 0.191902 138 138 138
-0.314879 0.267237 0.191253 138 138 138
-0.318443 0.264071 0.190362 138 138 138
-0.322083 0.260906 0.189453 138 138 138
-0.327611 0.257566 0.188072 138 138 138
-0.331444 0.254399 0.187114 138 138 138
-0.335257 0.251243 0.186161 138 138 138
-0.339464 0.248057 0.185110 138 138 138
-0.342063 0.245029 0.184461 138 138 138
-0.345265 0.241952 0.183661 138 138 138
-0.347877 0.238935 0.183008 138 138 138
-0.350247 0.235944 0.182416 138 138 138
-0.351678 0.233042 0.182059 138 138 138
-0.353108 0.230143 0.181701 138 138 138
-0.354514 0.227249 0.181350 138 138 138
-0.355743 0.224373 0.181043 138 138 138
-0.356547 0.221535 0.180842 138 138 138
-0.357367 0.218698 0.180637 138 138 138
-0.358185 0.215862 0.180433 138 138 138
-0.359204 0.213012 0.180178 138 138 138
-0.360085 0.210175 0.179958 138 138 138
-0.360893 0.207346 0.179756 138 138 138
-0.361504 0.204534 0.179604 138 138 138
-0.362271 0.201711 0.179412 138 138 138
-0.363109 0.198885 0.179203 138 138 138
-0.363913 0.196062 0.179002 138 138 138
-0.364716 0.193242 0.178801 138 138 138
-0.365510 0.190423 0.178603 138 138 138
-0.366314 0.187606 0.178402 138 138 138
-0.366996 0.184799 0.178231 138 138 138
-0.367585 0.182000 0.178084 138 138 138
-0.368174 0.179202 0.177937 138 138 138
-0.369063 0.176385 0.177715 138 138 138
-0.369981 0.173569 0.177486 138 138 138
-0.371060 0.170743 0.177216 138 138 138
-0.372140 0.167920 0.176946 138 138 138
-0.372998 0.165113 0.176732 138 138 138
-0.373174 0.162350 0.176688 138 138 138
-0.373399 0.159585 0.176632 138 138 138
-0.373790 0.156810 0.176534 138 138 138
-0.374550 0.154014 0.176344 138 138 138
-0.374645 0.151258 0.176320 138 138 138
-0.374349 0.148525 0.176394 138 138 138
-0.373375 0.145829 0.176638 138 138 138
-0.372401 0.143131 0.176881 138 138 138
-0.371416 0.140431 0.177127 138 138 138
-0.370489 0.137726 0.177359 138 138 138
-0.369562 0.135019 0.177590 138 138 138
-0.368634 0.132311 0.177822 138 138 138
-0.368016 0.129585 0.177977 138 138 138
-0.367750 0.126841 0.178043 138 138 138
-0.367484 0.124096 0.178109 138 138 138
-0.367267 0.121348 0.178164 138 138 138
-0.367200 0.118593 0.178181 138 138 138
-0.367223 0.115834 0.178175 138 138 138
-0.367415 0.113068 0.178127 138 138 138
-0.367439 0.110309 0.178121 138 138 138
-0.367694 0.107541 0.178057 138 138 138
-0.368944 0.104734 0.177745 138 138 138
-0.370289 0.101925 0.177409 138 138 138
-0.371633 0.099119 0.177073 138 138 138
-0.372976 0.096317 0.176737 139 139 139
-0.375408 0.093478 0.176130 138 138 138
-0.378074 0.090636 0.175463 138 138 138
-0.380280 0.087815 0.174912 138 138 138
-0.382482 0.084999 0.174362 138 138 138
-0.385052 0.082176 0.173720 138 138 138
-0.387354 0.079367 0.173145 138 138 138
-0.389371 0.076570 0.172641 138 138 138
-0.391384 0.073779 0.172138 138 138 138
-0.393295 0.070994 0.171661 138 138 138
-0.394595 0.068229 0.171336 138 138 138
-0.395893 0.065467 0.171012 138 138 138
-0.397190 0.062708 0.170687 138 138 138
-0.398486 0.059952 0.170364 138 138 138
-0.399311 0.057208 0.170158 138 138 138
-0.400045 0.054469 0.169974 138 138 138
-0.400399 0.051738 0.169886 138 138 138
-0.400732 0.049009 0.169802 138 138 138
-0.401206 0.046278 0.169684 138 138 138
-0.401827 0.043545 0.169529 138 138 138
-0.402449 0.040814 0.169374 138 138 138
-0.403035 0.038084 0.169227 138 138 138
-0.403438 0.035358 0.169126 138 138 138
-0.404118 0.032630 0.168957 138 138 138
-0.404889 0.029902 0.168764 138 138 138
-0.405757 0.027174 0.168547 138 138 138
-0.406516 0.024450 0.168357 138 138 138
-0.407513 0.021725 0.168108 138 138 138
-0.408548 0.019001 0.167850 138 138 138
-0.409391 0.016282 0.167639 138 138 138
-0.410215 0.013564 0.167433 138 138 138
-0.410894 0.010848 0.167263 138 138 138
-0.411425 0.008134 0.167131 138 138 138
-0.412093 0.005422 0.166964 138 138 138
-0.412883 0.002710 0.166767 138 138 138
-0.413597 0.000000 0.166588 138 138 138
-0.413906 -0.002709 0.166511 138 138 138
-0.414215 -0.005417 0.166434 138 138 138
-0.414415 -0.008125 0.166384 138 138 138
-0.414598 -0.010832 0.166338 138 138 138
-0.414474 -0.013541 0.166369 138 138 138
-0.414292 -0.016251 0.166414 138 138 138
-0.414159 -0.018960 0.166448 138 138 138
-0.414098 -0.021669 0.166463 138 138 138
-0.414300 -0.024376 0.166413 138 138 138
-0.414694 -0.027080 0.166314 138 138 138
-0.415088 -0.029784 0.166216 138 138 138
-0.415481 -0.032486 0.166117 138 138 138
-0.415828 -0.035189 0.166031 138 138 138
-0.416075 -0.037892 0.165969 138 138 138
-0.416318 -0.040595 0.165908 138 138 138
-0.416562 -0.043297 0.165847 138 138 138
-0.416805 -0.045999 0.165787 138 138 138
-0.416370 -0.048713 0.165895 138 138 138
-0.415876 -0.051429 0.166019 138 138 138
-0.416147 -0.054130 0.165951 138 138 138
-0.416266 -0.056834 0.165921 138 138 138
-0.416263 -0.059540 0.165922 138 138 138
-0.416264 -0.062246 0.165922 138 138 138
-0.416463 -0.064948 0.165872 138 138 138
-0.416674 -0.067648 0.165819 138 138 138
-0.416770 -0.070352 0.165795 138 138 138
-0.416746 -0.073058 0.165801 138 138 138
-0.416831 -0.075762 0.165780 138 138 138
-0.416916 -0.078465 0.165759 138 138 138
-0.416996 -0.081168 0.165739 138 138 138
-0.416906 -0.083877 0.165761 138 138 138
-0.416718 -0.086589 0.165808 138 138 138
-0.416529 -0.089301 0.165856 138 138 138
-0.416340 -0.092014 0.165903 138 138 138
-0.416004 -0.094732 0.165987 138 138 138
-0.415635 -0.097453 0.166079 138 138 138
-0.415464 -0.100167 0.166122 138 138 138
-0.415464 -0.102874 0.166122 138 138 138
-0.415232 -0.105591 0.166180 138 138 138
-0.414819 -0.108316 0.166283 138 138 138
-0.414405 -0.111041 0.166386 138 138 138
-0.413991 -0.113768 0.166490 138 138 138
-0.413355 -0.116505 0.166649 138 138 138
-0.412128 -0.119272 0.166955 138 138 138
-0.410894 -0.122041 0.167264 138 138 138
-0.410143 -0.124789 0.167451 138 138 138
-0.409514 -0.127533 0.167608 138 138 138
-0.408979 -0.130274 0.167742 138 138 138
-0.408443 -0.133015 0.167876 138 138 138
-0.407907 -0.135758 0.168010 138 138 138
-0.407307 -0.138505 0.168160 138 138 138
-0.407182 -0.141228 0.168191 138 138 138
-0.407049 -0.143951 0.168224 138 138 138
-0.406972 -0.146672 0.168243 138 138 138
-0.406896 -0.149392 0.168262 138 138 138
-0.406740 -0.152118 0.168301 138 138 138
-0.406567 -0.154845 0.168345 138 138 138
-0.406330 -0.157576 0.168404 138 138 138
-0.405673 -0.160333 0.168568 138 138 138
-0.404517 -0.163124 0.168857 138 138 138
-0.403050 -0.165936 0.169223 138 138 138
-0.401580 -0.168753 0.169591 138 138 138
-0.399884 -0.171587 0.170014 138 138 138
-0.397972 -0.174439 0.170492 138 138 138
-0.396155 -0.177289 0.170946 138 138 138
-0.394627 -0.180123 0.171328 138 138 138
-0.392812 -0.182980 0.171781 138 138 138
-0.391132 -0.185831 0.172201 138 138 138
-0.389431 -0.188687 0.172626 138 138 138
-0.388129 -0.191518 0.172951 138 138 138
-0.386836 -0.194350 0.173274 138 138 138
-0.385508 -0.197188 0.173606 138 138 138
-0.384131 -0.200033 0.173950 138 138 138
-0.382685 -0.202885 0.174312 138 138 138
-0.380970 -0.205762 0.174740 138 138 138
-0.379041 -0.208660 0.175222 138 138 138
-0.376994 -0.211571 0.175733 138 138 138
-0.374881 -0.214492 0.176261 138 138 138
-0.372752 -0.217419 0.176793 138 138 138
-0.370147 -0.220391 0.177444 138 138 138
-0.367459 -0.223374 0.178116 138 138 138
-0.364767 -0.226364 0.178788 138 138 138
-0.362082 -0.229359 0.179459 138 138 138
-0.359185 -0.232379 0.180183 138 138 138
-0.356149 -0.235417 0.180942 138 138 138
-0.352987 -0.238472 0.181732 138 138 138
-0.350014 -0.241517 0.182475 138 138 138
-0.346888 -0.244583 0.183255 138 138 138
-0.344374 -0.247597 0.183883 138 138 138
-0.342389 -0.250567 0.184379 138 138 138
-0.340664 -0.253517 0.184811 138 138 138
-0.338928 -0.256470 0.185244 138 138 138
-0.337170 -0.259430 0.185683 138 138 138
-0.335133 -0.262421 0.186192 138 138 138
-0.332606 -0.265465 0.186824 138 138 138
-0.330073 -0.268516 0.187457 138 138 138
-0.327224 -0.271603 0.188168 138 138 138
-0.323375 -0.274800 0.189130 138 138 138
-0.319333 -0.278025 0.190140 140 140 140
-0.315418 -0.281245 0.191118 142 142 142
-0.310716 -0.284557 0.192293 144 144 144
-0.306080 -0.287872 0.193451 148 148 148
-0.301192 -0.291224 0.194673 152 152 152
-0.296402 -0.294576 0.195869 157 157 157
-0.292151 -0.297878 0.196932 159 159 159
-0.285971 -0.301404 0.198476 163 163 163
-0.280248 -0.304891 0.199905 165 165 165
-0.275090 -0.308327 0.201194 162 162 162
-0.269987 -0.311767 0.202469 163 163 163
-0.265496 -0.315147 0.203591 161 161 161
-0.262627 -0.318346 0.204308 161 161 161
-0.259752 -0.321553 0.205026 161 161 161
-0.256888 -0.324765 0.205742 161 161 161
-0.253913 -0.327995 0.206485 161 161 161
-0.250832 -0.331245 0.207255 162 162 162
-0.246217 -0.334689 0.208408 163 163 163
-0.241827 -0.338114 0.209505 164 164 164
-0.235647 -0.341771 0.211049 166 166 166
-0.229393 -0.345451 0.212612 168 168 168
-0.220639 -0.349459 0.214799 171 171 171
-0.204588 -0.354414 0.218809 173 173 173
-0.189992 -0.359216 0.222456 176 176 176
-0.158278 -0.366264 0.230380 177 177 177
-0.131161 -0.372779 0.237155 153 153 153
-0.121687 -0.377031 0.239522 138 138 138
-0.117103 -0.380655 0.240667 138 138 138
-0.112468 -0.384295 0.241825 138 138 138
-0.108019 -0.387920 0.242937 138 138 138
-0.102765 -0.391664 0.244250 145 145 145
-0.094232 -0.395867 0.246382 125 125 125
0.018348 0.398539 0.271260 138 138 138
-0.151574 0.373036 0.228988 149 149 149
-0.158656 0.369129 0.227227 138 138 138
-0.163885 0.365475 0.225926 138 138 138
-0.167936 0.361984 0.224918 139 139 139
-0.172204 0.358474 0.223856 144 144 144
-0.177217 0.354879 0.222609 148 148 148
-0.186103 0.350809 0.220399 162 162 162
-0.196576 0.346561 0.217793 161 161 161
-0.206588 0.342392 0.215303 158 158 158
-0.231492 0.336427 0.209107 165 165 165
-0.243604 0.332062 0.206094 150 150 150
-0.248347 0.328606 0.204914 145 145 145
-0.254867 0.324949 0.203292 153 153 153
-0.260965 0.321355 0.201775 152 152 152
-0.267589 0.317712 0.200127 151 151 151
-0.274009 0.314107 0.198530 150 150 150
-0.283767 0.310133 0.196103 155 155 155
-0.287883 0.306820 0.195079 149 149 149
-0.290643 0.303669 0.194392 146 146 146
-0.293483 0.300514 0.193686 144 144 144
-0.295911 0.297411 0.193082 143 143 143
-0.298047 0.294345 0.192550 142 142 142
-0.300016 0.291301 0.192061 142 142 142
-0.301981 0.288262 0.191572 141 141 141
-0.304165 0.285204 0.191029 139 139 139
-0.306050 0.282182 0.190560 138 138 138
-0.308039 0.279153 0.190065 138 138 138
-0.310025 0.276129 0.189571 138 138 138
-0.312132 0.273096 0.189046 138 138 138
-0.314222 0.270070 0.188527 138 138 138
-0.316940 0.266985 0.187850 138 138 138
-0.320452 0.263827 0.186977 138 138 138
-0.324318 0.260642 0.186015 138 138 138
-0.328788 0.257407 0.184903 138 138 138
-0.332673 0.254238 0.183936 138 138 138
-0.336569 0.251075 0.182967 138 138 138
-0.339943 0.247969 0.182128 138 138 138
-0.342541 0.244943 0.181482 138 138 138
-0.345133 0.241922 0.180837 138 138 138
-0.347988 0.238883 0.180127 138 138 138
-0.349916 0.235933 0.179647 138 138 138
-0.351347 0.233031 0.179291 138 138 138
-0.352776 0.230132 0.178935 138 138 138
-0.354204 0.227236 0.178580 138 138 138
-0.355365 0.224366 0.178291 138 138 138
-0.356185 0.221527 0.178087 138 138 138
-0.357004 0.218690 0.177884 138 138 138
-0.357823 0.215855 0.177680 138 138 138
-0.358691 0.213017 0.177464 138 138 138
-0.359536 0.210183 0.177254 138 138 138
-0.360380 0.207351 0.177044 138 138 138
-0.361213 0.204521 0.176837 138 138 138
-0.362008 0.201696 0.176639 138 138 138
-0.362809 0.198873 0.176440 138 138 138
-0.363602 0.196052 0.176242 138 138 138
-0.364395 0.193232 0.176045 138 138 138
-0.365187 0.190414 0.175848 138 138 138
-0.366001 0.187596 0.175645 138 138 138
-0.366817 0.184780 0.175442 138 138 138
-0.367498 0.181975 0.175273 138 138 138
-0.368327 0.179161 0.175067 138 138 138
-0.369303 0.176339 0.174824 138 138 138
-0.370384 0.173512 0.174555 138 138 138
-0.371467 0.170687 0.174286 138 138 138
-0.372551 0.167865 0.174016 138 138 138
-0.373572 0.165048 0.173762 138 138 138
-0.373974 0.162272 0.173662 138 138 138
-0.374578 0.159485 0.173512 138 138 138
-0.375337 0.156690 0.173323 138 138 138
-0.375891 0.153908 0.173185 138 138 138
-0.375884 0.151160 0.173187 138 138 138
-0.375877 0.148412 0.173189 138 138 138
-0.375277 0.145698 0.173338 138 138 138
-0.374300 0.143002 0.173581 138 138 138
-0.373245 0.140308 0.173843 138 138 138
-0.372190 0.137613 0.174106 138 138 138
-0.371133 0.134915 0.174369 138 138 138
-0.370169 0.132210 0.174609 138 138 138
-0.369833 0.129473 0.174692 139 139 139
-0.369664 0.126726 0.174734 139 139 139
-0.369495 0.123979 0.174776 140 140 140
-0.369327 0.121232 0.174818 140 140 140
-0.369431 0.118472 0.174792 140 140 140
-0.369767 0.115702 0.174709 140 140 140
-0.370266 0.112926 0.174585 140 140 140
-0.370314 0.110169 0.174573 138 138 138
-0.370846 0.107393 0.174440 138 138 138
-0.372027 0.104592 0.174146 138 138 138
-0.373208 0.101794 0.173853 138 138 138
-0.374386 0.098998 0.173560 138 138 138
-0.375874 0.096193 0.173189 139 139 139
-0.378083 0.093366 0.172640 138 138 138
-0.380288 0.090543 0.172091 138 138 138
-0.382490 0.087726 0.171544 138 138 138
-0.384687 0.084912 0.170997 138 138 138
-0.386842 0.082105 0.170461 138 138 138
-0.388969 0.079304 0.169932 138 138 138
-0.391026 0.076508 0.169420 138 138 138
-0.393035 0.073719 0.168920 138 138 138
-0.394707 0.070943 0.168504 138 138 138
-0.396027 0.068180 0.168176 138 138 138
-0.397346 0.065419 0.167848 138 138 138
-0.398664 0.062661 0.167520 138 138 138
-0.399729 0.059912 0.167255 138 138 138
-0.400470 0.057173 0.167071 138 138 138
-0.401182 0.054435 0.166894 138 138 138
-0.401611 0.051705 0.166787 138 138 138
-0.401949 0.048977 0.166703 138 138 138
-0.402498 0.046246 0.166566 138 138 138
-0.403127 0.043515 0.166410 138 138 138
-0.403755 0.040786 0.166253 138 138 138
-0.404383 0.038058 0.166097 138 138 138
-0.405086 0.035330 0.165922 138 138 138
-0.405848 0.032602 0.165733 138 138 138
-0.406631 0.029876 0.165538 138 138 138
-0.407397 0.027152 0.165347 138 138 138
-0.408147 0.024430 0.165161 138 138 138
-0.408977 0.021709 0.164954 138 138 138
-0.409806 0.018989 0.164748 138 138 138
-0.410634 0.016271 0.164542 138 138 138
-0.411459 0.013555 0.164337 138 138 138
-0.412028 0.010841 0.164195 138 138 138
-0.412559 0.008129 0.164063 138 138 138
-0.413089 0.005418 0.163931 138 138 138
-0.413669 0.002709 0.163787 138 138 138
-0.414200 0.000000 0.163655 138 138 138
-0.414508 -0.002708 0.163578 138 138 138
-0.414817 -0.005415 0.163502 138 138 138
-0.415095 -0.008121 0.163432 138 138 138
-0.415196 -0.010828 0.163407 138 138 138
-0.415015 -0.013536 0.163452 138 138 138
-0.414834 -0.016244 0.163497 138 138 138
-0.414652 -0.018953 0.163543 138 138 138
-0.414498 -0.021662 0.163581 138 138 138
-0.414850 -0.024366 0.163493 138 138 138
-0.415167 -0.027071 0.163414 138 138 138
-0.415483 -0.029774 0.163336 138 138 138
-0.415800 -0.032477 0.163257 138 138 138
-0.416012 -0.035180 0.163204 138 138 138
-0.416321 -0.037882 0.163127 138 138 138
-0.416668 -0.040582 0.163041 138 138 138
-0.417015 -0.043282 0.162955 138 138 138
-0.417242 -0.045983 0.162898 138 138 138
-0.417169 -0.048689 0.162916 138 138 138
-0.416813 -0.051401 0.163005 138 138 138
-0.416875 -0.054105 0.162990 138 138 138
-0.416866 -0.056811 0.162992 138 138 138
-0.416866 -0.059516 0.162992 138 138 138
-0.416866 -0.062221 0.162992 138 138 138
-0.416943 -0.064924 0.162973 138 138 138
-0.417155 -0.067624 0.162920 138 138 138
-0.417131 -0.070330 0.162926 138 138 138
-0.417027 -0.073038 0.162952 138 138 138
-0.417097 -0.075741 0.162934 138 138 138
-0.417182 -0.078443 0.162913 138 138 138
-0.417228 -0.081147 0.162902 138 138 138
-0.417167 -0.083853 0.162917 138 138 138
-0.417100 -0.086561 0.162934 138 138 138
-0.416972 -0.089270 0.162965 138 138 138
-0.416810 -0.091981 0.163006 138 138 138
-0.416440 -0.094700 0.163098 138 138 138
-0.416070 -0.097420 0.163190 138 138 138
-0.415716 -0.100140 0.163278 138 138 138
-0.415717 -0.102846 0.163278 138 138 138
-0.415329 -0.105569 0.163374 138 138 138
-0.414916 -0.108293 0.163477 138 138 138
-0.414419 -0.111022 0.163601 138 138 138
-0.413898 -0.113752 0.163730 138 138 138
-0.413061 -0.116499 0.163938 138 138 138
-0.412110 -0.119252 0.164175 138 138 138
-0.411045 -0.122013 0.164440 138 138 138
-0.410030 -0.124773 0.164693 138 138 138
-0.409448 -0.127514 0.164837 138 138 138
-0.408908 -0.130255 0.164972 138 138 138
-0.408265 -0.133001 0.165131 138 138 138
-0.407622 -0.135750 0.165292 138 138 138
-0.407214 -0.138486 0.165393 138 138 138
-0.407098 -0.141208 0.165422 138 138 138
-0.407180 -0.143919 0.165401 138 138 138
-0.407073 -0.146641 0.165428 138 138 138
-0.407014 -0.149360 0.165443 138 138 138
-0.406896 -0.152082 0.165472 138 138 138
-0.406722 -0.154808 0.165515 138 138 138
-0.406549 -0.157535 0.165558 138 138 138
-0.406048 -0.160282 0.165683 138 138 138
-0.404606 -0.163090 0.166042 138 138 138
-0.403139 -0.165902 0.166407 138 138 138
-0.401687 -0.168716 0.166768 138 138 138
-0.400279 -0.171531 0.167118 138 138 138
-0.398501 -0.174373 0.167561 138 138 138
-0.396536 -0.177232 0.168049 138 138 138
-0.395231 -0.180050 0.168374 138 138 138
-0.393475 -0.182901 0.168811 138 138 138
-0.391861 -0.185747 0.169212 138 138 138
-0.390253 -0.188595 0.169612 138 138 138
-0.388916 -0.191427 0.169945 138 138 138
-0.387568 -0.194262 0.170280 138 138 138
-0.386000 -0.197117 0.170670 138 138 138
-0.384582 -0.199963 0.171023 138 138 138
-0.383139 -0.202815 0.171382 138 138 138
-0.381518 -0.205683 0.171785 138 138 138
-0.379684 -0.208572 0.172242 138 138 138
-0.377724 -0.211476 0.172729 138 138 138
-0.375616 -0.214395 0.173254 138 138 138
-0.373402 -0.217328 0.173804 138 138 138
-0.371002 -0.220281 0.174402 138 138 138
-0.368443 -0.223252 0.175038 138 138 138
-0.365752 -0.226240 0.175707 138 138 138
-0.363081 -0.229232 0.176372 138 138 138
-0.360419 -0.232230 0.177034 138 138 138
-0.357588 -0.235247 0.177738 138 138 138
-0.354382 -0.238305 0.178536 138 138 138
-0.351652 -0.241326 0.179215 138 138 138
-0.348630 -0.244379 0.179967 138 138 138
-0.345590 -0.247441 0.180723 138 138 138
-0.343692 -0.250401 0.181195 138 138 138
-0.341968 -0.253348 0.181624 138 138 138
-0.340242 -0.256299 0.182054 138 138 138
-0.338514 -0.259254 0.182484 138 138 138
-0.336340 -0.262256 0.183024 138 138 138
-0.333867 -0.265293 0.183639 138 138 138
-0.331390 -0.268336 0.184256 138 138 138
-0.328900 -0.271385 0.184875 138 138 138
-0.325389 -0.274545 0.185748 139 139 139
-0.321235 -0.277779 0.186782 141 141 141
-0.316921 -0.281039 0.187855 142 142 142
-0.312530 -0.284316 0.188948 145 145 145
-0.308122 -0.287603 0.190044 148 148 148
-0.303567 -0.290916 0.191177 150 150 150
-0.298982 -0.294242 0.192318 154 154 154
-0.294765 -0.297537 0.193367 157 157 157
-0.290751 -0.300819 0.194365 159 159 159
-0.285882 -0.304204 0.195577 162 162 162
-0.280894 -0.307614 0.196818 163 163 163
-0.275809 -0.311045 0.198083 163 163 163
-0.270907 -0.314466 0.199302 164 164 164
-0.267632 -0.317707 0.200117 165 165 165
-0.264762 -0.320907 0.200831 162 162 162
-0.261887 -0.324114 0.201546 163 163 163
-0.259078 -0.327320 0.202245 162 162 162
-0.255405 -0.330635 0.203159 163 163 163
-0.252188 -0.333902 0.203959 164 164 164
-0.247275 -0.337386 0.205181 166 166 166
-0.241670 -0.340965 0.206575 168 168 168
-0.234969 -0.344693 0.208242 168 168 168
-0.227817 -0.348492 0.210021 169 169 169
-0.213921 -0.353165 0.213478 172 172 172
-0.198763 -0.358029 0.217249 173 173 173
-0.187384 -0.362435 0.220080 178 178 178
-0.137049 -0.371947 0.232602 168 168 168
-0.124390 -0.376610 0.235751 144 144 144
-0.118046 -0.380464 0.237329 138 138 138
-0.113463 -0.384096 0.238469 138 138 138
-0.108789 -0.387749 0.239632 138 138 138
-0.103177 -0.391540 0.241028 144 144 144
-0.097629 -0.395334 0.242408 151 151 151
-0.144396 0.376907 0.227701 154 154 154
-0.155583 0.372445 0.224930 138 138 138
-0.161566 0.368685 0.223448 138 138 138
-0.166672 0.365052 0.222184 138 138 138
-0.171111 0.361514 0.221084 140 140 140
-0.175460 0.357998 0.220007 144 144 144
-0.184212 0.353934 0.217839 159 159 159
-0.194143 0.349742 0.215379 163 163 163
-0.202285 0.345793 0.213363 158 158 158
-0.222628 0.340360 0.208324 164 164 164
-0.240990 0.335211 0.203776 148 148 148
-0.246382 0.331669 0.202440 139 139 139
-0.252604 0.328039 0.200899 138 138 138
-0.258771 0.324429 0.199372 149 149 149
-0.264215 0.320916 0.198023 145 145 145
-0.272484 0.317086 0.195975 146 146 146
-0.283280 0.312980 0.193301 152 152 152
-0.288888 0.309492 0.191912 149 149 149
-0.292005 0.306299 0.191140 145 145 145
-0.294844 0.303143 0.190437 143 143 143
-0.297357 0.300030 0.189814 142 142 142
-0.299217 0.296994 0.189354 141 141 141
-0.300885 0.293983 0.188940 141 141 141
-0.302636 0.290967 0.188507 141 141 141
-0.304384 0.287955 0.188074 140 140 140
-0.306251 0.284933 0.187611 138 138 138
-0.308013 0.281927 0.187175 138 138 138
-0.309998 0.278901 0.186683 138 138 138
-0.312045 0.275873 0.186176 138 138 138
-0.314209 0.272837 0.185640 138 138 138
-0.316335 0.269810 0.185114 138 138 138
-0.319224 0.266711 0.184398 138 138 138
-0.322458 0.263583 0.183597 138 138 138
-0.327098 0.260325 0.182448 138 138 138
-0.330743 0.257174 0.181545 138 138 138
-0.334477 0.254021 0.180620 138 138 138
-0.337954 0.250900 0.179759 138 138 138
-0.340561 0.247869 0.179113 138 138 138
-0.343157 0.244843 0.178470 138 138 138
-0.345748 0.241824 0.177828 138 138 138
-0.348002 0.238841 0.177270 138 138 138
-0.349573 0.235923 0.176881 138 138 138
-0.351000 0.233021 0.176527 138 138 138
-0.352426 0.230123 0.176174 138 138 138
-0.353850 0.227227 0.175822 138 138 138
-0.354737 0.224381 0.175602 138 138 138
-0.355497 0.221547 0.175414 138 138 138
-0.356334 0.218708 0.175206 138 138 138
-0.357169 0.215871 0.174999 138 138 138
-0.358045 0.213032 0.174783 138 138 138
-0.358895 0.210198 0.174572 138 138 138
-0.359745 0.207365 0.174362 138 138 138
-0.360594 0.204534 0.174151 138 138 138
-0.361493 0.201701 0.173929 138 138 138
-0.362327 0.198875 0.173722 138 138 138
-0.363136 0.196052 0.173522 138 138 138
-0.363943 0.193232 0.173322 138 138 138
-0.364757 0.190412 0.173120 138 138 138
-0.365586 0.187593 0.172915 138 138 138
-0.366415 0.184776 0.172709 138 138 138
-0.367313 0.181956 0.172487 138 138 138
-0.368461 0.179121 0.172203 138 138 138
-0.369529 0.176293 0.171938 138 138 138
-0.370596 0.173468 0.171674 138 138 138
-0.371735 0.170640 0.171392 138 138 138
-0.372877 0.167815 0.171109 138 138 138
-0.373875 0.165001 0.170862 138 138 138
-0.374995 0.162181 0.170584 138 138 138
-0.375786 0.159384 0.170388 138 138 138
-0.376576 0.156589 0.170193 138 138 138
-0.377129 0.153809 0.170056 138 138 138
-0.377122 0.151063 0.170057 138 138 138
-0.377115 0.148316 0.170059 138 138 138
-0.377108 0.145570 0.170061 138 138 138
-0.376168 0.142875 0.170294 138 138 138
-0.375115 0.140184 0.170554 138 138 138
-0.374190 0.137484 0.170784 138 138 138
-0.373287 0.134781 0.171007 138 138 138
-0.372530 0.132068 0.171195 139 139 139
-0.372211 0.129333 0.171274 140 140 140
-0.371912 0.126595 0.171348 141 141 141
-0.371617 0.123857 0.171421 143 143 143
-0.371406 0.121115 0.171473 144 144 144
-0.371807 0.118344 0.171374 144 144 144
-0.372305 0.115570 0.171250 143 143 143
-0.372803 0.112797 0.171127 142 142 142
-0.373181 0.110030 0.171034 142 142 142
-0.374147 0.107239 0.170794 142 142 142
-0.375282 0.104444 0.170513 143 143 143
-0.376375 0.101653 0.170242 144 144 144
-0.377466 0.098864 0.169972 146 146 146
-0.379250 0.096052 0.169530 145 145 145
-0.381318 0.093234 0.169018 144 144 144
-0.383431 0.090419 0.168495 146 146 146
-0.385542 0.087608 0.167972 144 144 144
-0.387078 0.084820 0.167591 140 140 140
-0.388808 0.082029 0.167163 138 138 138
-0.390821 0.079233 0.166664 138 138 138
-0.392830 0.076442 0.166167 138 138 138
-0.394837 0.073655 0.165670 138 138 138
-0.396250 0.070888 0.165320 138 138 138
-0.397569 0.068127 0.164993 138 138 138
-0.398843 0.065370 0.164677 138 138 138
-0.399956 0.062619 0.164402 138 138 138
-0.400865 0.059876 0.164176 138 138 138
-0.401578 0.057138 0.164000 138 138 138
-0.402278 0.054403 0.163826 138 138 138
-0.402805 0.051672 0.163696 138 138 138
-0.403184 0.048945 0.163602 138 138 138
-0.403752 0.046216 0.163461 138 138 138
-0.404347 0.043487 0.163314 138 138 138
-0.404974 0.040760 0.163159 138 138 138
-0.405601 0.038033 0.163003 138 138 138
-0.406354 0.035306 0.162817 138 138 138
-0.407175 0.032580 0.162614 138 138 138
-0.408039 0.029855 0.162399 138 138 138
-0.408805 0.027133 0.162210 138 138 138
-0.409384 0.024414 0.162066 138 138 138
-0.409995 0.021696 0.161915 138 138 138
-0.410823 0.018978 0.161710 138 138 138
-0.411651 0.016262 0.161505 138 138 138
-0.412408 0.013547 0.161317 138 138 138
-0.412932 0.010836 0.161188 138 138 138
-0.413254 0.008126 0.161108 138 138 138
-0.413804 0.005416 0.160972 138 138 138
-0.414382 0.002707 0.160828 138 138 138
-0.414691 0.000000 0.160752 138 138 138
-0.415034 -0.002707 0.160667 138 138 138
-0.415376 -0.005413 0.160582 138 138 138
-0.415718 -0.008118 0.160498 138 138 138
-0.415741 -0.010824 0.160492 138 138 138
-0.415570 -0.013531 0.160534 138 138 138
-0.415399 -0.016238 0.160577 138 138 138
-0.415227 -0.018946 0.160619 138 138 138
-0.415088 -0.021653 0.160654 138 138 138
-0.415104 -0.024360 0.160650 138 138 138
-0.415420 -0.027063 0.160571 138 138 138
-0.415737 -0.029766 0.160493 138 138 138
-0.416029 -0.032468 0.160420 138 138 138
-0.416198 -0.035172 0.160379 138 138 138
-0.416419 -0.037874 0.160324 138 138 138
-0.416766 -0.040574 0.160238 138 138 138
-0.417113 -0.043273 0.160152 138 138 138
-0.417189 -0.045976 0.160133 138 138 138
-0.417153 -0.048681 0.160142 138 138 138
-0.417076 -0.051387 0.160161 138 138 138
-0.417240 -0.054088 0.160121 138 138 138
-0.417376 -0.056790 0.160087 138 138 138
-0.417468 -0.059492 0.160064 138 138 138
-0.417468 -0.062196 0.160064 138 138 138
-0.417468 -0.064900 0.160064 138 138 138
-0.417596 -0.067601 0.160032 138 138 138
-0.417492 -0.070308 0.160058 138 138 138
-0.417387 -0.073015 0.160084 138 138 138
-0.417362 -0.075720 0.160090 138 138 138
-0.417447 -0.078422 0.160069 138 138 138
-0.417428 -0.081126 0.160074 138 138 138
-0.417368 -0.083832 0.160089 138 138 138
-0.417307 -0.086539 0.160104 138 138 138
-0.417247 -0.089245 0.160119 138 138 138
-0.417042 -0.091957 0.160170 138 138 138
-0.416745 -0.094672 0.160243 138 138 138
-0.416447 -0.097389 0.160317 138 138 138
-0.416136 -0.100106 0.160394 138 138 138
-0.415838 -0.102823 0.160468 138 138 138
-0.415332 -0.105550 0.160593 138 138 138
-0.414811 -0.108278 0.160722 138 138 138
-0.414290 -0.111008 0.160851 138 138 138
-0.413718 -0.113741 0.160993 138 138 138
-0.412767 -0.116492 0.161228 138 138 138
-0.411815 -0.119245 0.161464 138 138 138
-0.410863 -0.122000 0.161700 138 138 138
-0.409926 -0.124757 0.161932 138 138 138
-0.409256 -0.127502 0.162098 138 138 138
-0.408614 -0.130247 0.162257 138 138 138
-0.407971 -0.132994 0.162416 138 138 138
-0.407328 -0.135742 0.162576 138 138 138
-0.407120 -0.138468 0.162627 138 138 138
-0.407204 -0.141178 0.162606 138 138 138
-0.407300 -0.143888 0.162583 138 138 138
-0.407207 -0.146608 0.162606 138 138 138
-0.407084 -0.149330 0.162636 138 138 138
-0.406950 -0.152053 0.162669 138 138 138
-0.406813 -0.154776 0.162703 138 138 138
-0.406675 -0.157500 0.162738 138 138 138
-0.406204 -0.160245 0.162854 138 138 138
-0.404800 -0.163049 0.163202 138 138 138
-0.403396 -0.165857 0.163550 138 138 138
-0.401990 -0.168668 0.163898 138 138 138
-0.400484 -0.171488 0.164271 138 138 138
-0.398773 -0.174325 0.164695 138 138 138
-0.397060 -0.177166 0.165119 138 138 138
-0.395610 -0.179992 0.165478 138 138 138
-0.394198 -0.182819 0.165828 138 138 138
-0.392603 -0.185661 0.166223 138 138 138
-0.391006 -0.188508 0.166618 138 138 138
-0.389636 -0.191340 0.166958 138 138 138
-0.388204 -0.194181 0.167313 138 138 138
-0.386559 -0.197040 0.167720 138 138 138
-0.385032 -0.199894 0.168098 138 138 138
-0.383594 -0.202744 0.168454 138 138 138
-0.381913 -0.205617 0.168871 138 138 138
-0.380139 -0.208500 0.169310 138 138 138
-0.378362 -0.211387 0.169750 138 138 138
-0.376350 -0.214298 0.170249 138 138 138
-0.374052 -0.217236 0.170818 138 138 138
-0.371653 -0.220188 0.171412 138 138 138
-0.369249 -0.223145 0.172007 138 138 138
-0.366737 -0.226116 0.172630 138 138 138
-0.364079 -0.229106 0.173288 138 138 138
-0.361508 -0.232093 0.173925 138 138 138
-0.358932 -0.235086 0.174563 138 138 138
-0.355897 -0.238127 0.175315 138 138 138
-0.353171 -0.241145 0.175990 138 138 138
-0.350314 -0.244181 0.176697 138 138 138
-0.347247 -0.247243 0.177457 138 138 138
-0.344914 -0.250242 0.178035 138 138 138
-0.343136 -0.253192 0.178475 138 138 138
-0.341356 -0.256147 0.178916 138 138 138
-0.339573 -0.259105 0.179358 138 138 138
-0.337568 -0.262090 0.179854 138 138 138
-0.335495 -0.265085 0.180368 138 138 138
-0.333022 -0.268125 0.180981 138 138 138
-0.330436 -0.271182 0.181621 138 138 138
-0.327030 -0.274328 0.182465 140 140 140
-0.323417 -0.277504 0.183360 142 142 142
-0.319124 -0.280758 0.184423 143 143 143
-0.315034 -0.284000 0.185436 145 145 145
-0.310161 -0.287335 0.186643 148 148 148
-0.305630 -0.290643 0.187765 150 150 150
-0.301512 -0.293915 0.188785 152 152 152
-0.297302 -0.297206 0.189828 154 154 154
-0.293208 -0.300493 0.190842 156 156 156
-0.289400 -0.303756 0.191785 158 158 158
-0.285243 -0.307067 0.192815 160 160 160
-0.280856 -0.310413 0.193902 161 161 161
-0.276690 -0.313743 0.194933 163 163 163
-0.273060 -0.317019 0.195833 163 163 163
-0.269778 -0.320261 0.196645 164 164 164
-0.266996 -0.323451 0.197334 165 165 165
-0.264303 -0.326637 0.198001 163 163 163
-0.261309 -0.329864 0.198743 163 163 163
-0.257624 -0.333182 0.199656 165 165 165
-0.253201 -0.336598 0.200751 166 166 166
-0.247783 -0.340147 0.202093 167 167 167
-0.241718 -0.343789 0.203596 169 169 169
-0.233410 -0.347726 0.205653 169 169 169
-0.225560 -0.351623 0.207598 171 171 171
-0.207262 -0.356876 0.212130 172 172 172
-0.195204 -0.361361 0.215117 174 174 174
-0.179360 -0.366365 0.219041 183 183 183
-0.127564 -0.376128 0.231870 153 153 153
-0.119999 -0.380139 0.233744 142 142 142
-0.114397 -0.383905 0.235132 138 138 138
-0.109952 -0.387526 0.236233 138 138 138
-0.103345 -0.391449 0.237869 141 141 141
-0.097388 -0.395298 0.239344 157 157 157
-0.149517 0.376163 0.223366 141 141 141
-0.158711 0.371969 0.221099 138 138 138
-0.164247 0.368272 0.219734 138 138 138
-0.169806 0.364583 0.218363 138 138 138
-0.174142 0.361063 0.217294 140 140 140
-0.181915 0.357114 0.215377 150 150 150
-0.192186 0.352867 0.212844 162 162 162
-0.200228 0.348921 0.210861 159 159 159
-0.213397 0.344355 0.207613 160 160 160
-0.235127 0.338763 0.202254 153 153 153
-0.244416 0.334735 0.199963 138 138 138
-0.250053 0.331168 0.198573 138 138 138
-0.255788 0.327601 0.197159 138 138 138
-0.261294 0.324073 0.195801 138 138 138
-0.267930 0.320423 0.194165 138 138 138
-0.279947 0.316160 0.191201 151 151 151
-0.289193 0.312242 0.188921 148 148 148
-0.292375 0.309039 0.188136 145 145 145
-0.294713 0.305939 0.187560 142 142 142
-0.297126 0.302834 0.186965 140 140 140
-0.299630 0.299725 0.186347 140 140 140
-0.301429 0.296699 0.185904 139 139 139
-0.302934 0.293709 0.185532 140 140 140
-0.304652 0.290698 0.185108 140 140 140
-0.306448 0.287683 0.184666 138 138 138
-0.308185 0.284679 0.184237 138 138 138
-0.309972 0.281672 0.183797 138 138 138
-0.312009 0.278643 0.183294 138 138 138
-0.314117 0.275612 0.182774 138 138 138
-0.316280 0.272579 0.182241 138 138 138
-0.318469 0.269548 0.181701 138 138 138
-0.322112 0.266376 0.180803 138 138 138
-0.326523 0.263136 0.179715 138 138 138
-0.330012 0.259996 0.178855 138 138 138
-0.333748 0.256838 0.177933 138 138 138
-0.336653 0.253769 0.177217 138 138 138
-0.339217 0.250738 0.176585 138 138 138
-0.341604 0.247728 0.175996 138 138 138
-0.343845 0.244737 0.175443 138 138 138
-0.346082 0.241752 0.174892 138 138 138
-0.347908 0.238808 0.174441 138 138 138
-0.349214 0.235914 0.174119 138 138 138
-0.350642 0.233013 0.173767 138 138 138
-0.352068 0.230114 0.173415 138 138 138
-0.353356 0.227231 0.173098 138 138 138
-0.354125 0.224394 0.172908 138 138 138
-0.354873 0.221561 0.172724 138 138 138
-0.355619 0.218729 0.172540 138 138 138
-0.356455 0.215892 0.172334 138 138 138
-0.357351 0.213052 0.172113 138 138 138
-0.358221 0.210215 0.171898 138 138 138
-0.359071 0.207382 0.171688 138 138 138
-0.359937 0.204550 0.171475 138 138 138
-0.360824 0.201718 0.171256 138 138 138
-0.361700 0.198888 0.171040 138 138 138
-0.362535 0.196063 0.170834 138 138 138
-0.363343 0.193243 0.170635 138 138 138
-0.364166 0.190422 0.170432 138 138 138
-0.364995 0.187603 0.170227 138 138 138
-0.366036 0.184771 0.169971 138 138 138
-0.367112 0.181939 0.169705 138 138 138
-0.368563 0.179083 0.169347 138 138 138
-0.369708 0.176251 0.169065 138 138 138
-0.370852 0.173421 0.168783 138 138 138
-0.371994 0.170594 0.168501 138 138 138
-0.373154 0.167768 0.168215 138 138 138
-0.374288 0.164946 0.167936 138 138 138
-0.375619 0.162114 0.167607 138 138 138
-0.376522 0.159312 0.167385 138 138 138
-0.377309 0.156518 0.167191 138 138 138
-0.378060 0.153727 0.167005 138 138 138
-0.378359 0.150965 0.166932 138 138 138
-0.378352 0.148221 0.166934 138 138 138
-0.378344 0.145476 0.166935 138 138 138
-0.378194 0.142740 0.166972 138 138 138
-0.377532 0.140030 0.167136 138 138 138
-0.376663 0.137330 0.167350 138 138 138
-0.375762 0.134630 0.167572 139 139 139
-0.375233 0.131909 0.167703 139 139 139
-0.374914 0.129177 0.167781 140 140 140
-0.374595 0.126444 0.167860 141 141 141
-0.374284 0.123710 0.167937 142 142 142
-0.374282 0.120961 0.167937 142 142 142
-0.374741 0.118191 0.167824 142 142 142
-0.375272 0.115419 0.167693 142 142 142
-0.375852 0.112646 0.167550 142 142 142
-0.376460 0.109873 0.167400 143 143 143
-0.377336 0.107090 0.167184 144 144 144
-0.378433 0.104300 0.166914 144 144 144
-0.379529 0.101513 0.166643 145 145 145
-0.380651 0.098727 0.166367 146 146 146
-0.382717 0.095908 0.165857 145 145 145
-0.384829 0.093093 0.165336 145 145 145
-0.386489 0.090297 0.164927 144 144 144
-0.387904 0.087513 0.164578 142 142 142
-0.389444 0.084728 0.164198 138 138 138
-0.391093 0.081943 0.163791 138 138 138
-0.392740 0.079161 0.163385 138 138 138
-0.394632 0.076376 0.162919 138 138 138
-0.396460 0.073596 0.162468 138 138 138
-0.397791 0.070834 0.162140 138 138 138
-0.399009 0.068078 0.161839 138 138 138
-0.400122 0.065327 0.161565 138 138 138
-0.401234 0.062578 0.161290 138 138 138
-0.401974 0.059840 0.161108 138 138 138
-0.402674 0.057104 0.160936 138 138 138
-0.403373 0.054370 0.160763 138 138 138
-0.403999 0.051639 0.160609 138 138 138
-0.404453 0.048913 0.160497 138 138 138
-0.405021 0.046185 0.160357 138 138 138
-0.405588 0.043459 0.160217 138 138 138
-0.406191 0.040733 0.160068 138 138 138
-0.406860 0.038008 0.159903 138 138 138
-0.407689 0.035282 0.159699 138 138 138
-0.408571 0.032557 0.159481 138 138 138
-0.409446 0.029833 0.159266 138 138 138
-0.410142 0.027114 0.159094 138 138 138
-0.410660 0.024398 0.158966 138 138 138
-0.411176 0.021683 0.158839 138 138 138
-0.411840 0.018967 0.158675 138 138 138
-0.412667 0.016252 0.158471 138 138 138
-0.413319 0.013540 0.158310 138 138 138
-0.413652 0.010831 0.158228 138 138 138
-0.413974 0.008122 0.158149 138 138 138
-0.414365 0.005414 0.158052 138 138 138
-0.414820 0.002706 0.157940 138 138 138
-0.415076 0.000000 0.157877 138 138 138
-0.415419 -0.002706 0.157793 138 138 138
-0.415761 -0.005411 0.157708 138 138 138
-0.416080 -0.008115 0.157629 138 138 138
-0.416144 -0.010820 0.157614 138 138 138
-0.416039 -0.013526 0.157640 138 138 138
-0.415934 -0.016232 0.157665 138 138 138
-0.415820 -0.018938 0.157694 138 138 138
-0.415717 -0.021644 0.157719 138 138 138
-0.415640 -0.024351 0.157738 138 138 138
-0.415673 -0.027056 0.157730 138 138 138
-0.415989 -0.029758 0.157652 138 138 138
-0.416215 -0.032460 0.157596 138 138 138
-0.416384 -0.035163 0.157555 138 138 138
-0.416552 -0.037865 0.157513 138 138 138
-0.416864 -0.040565 0.157436 138 138 138
-0.417173 -0.043264 0.157360 138 138 138
-0.417137 -0.045969 0.157369 138 138 138
-0.417042 -0.048675 0.157392 138 138 138
-0.416907 -0.051382 0.157425 138 138 138
-0.417099 -0.054082 0.157378 138 138 138
-0.417344 -0.056780 0.157318 138 138 138
-0.417517 -0.059480 0.157275 138 138 138
-0.417659 -0.062180 0.157240 138 138 138
-0.417800 -0.064880 0.157205 138 138 138
-0.417877 -0.067582 0.157186 138 138 138
-0.417853 -0.070286 0.157192 138 138 138
-0.417748 -0.072992 0.157218 138 138 138
-0.417643 -0.075698 0.157244 138 138 138
-0.417688 -0.078401 0.157233 138 138 138
-0.417628 -0.081106 0.157248 138 138 138
-0.417562 -0.083812 0.157264 138 138 138
-0.417478 -0.086518 0.157285 138 138 138
-0.417393 -0.089225 0.157306 138 138 138
-0.417103 -0.091939 0.157377 138 138 138
-0.416801 -0.094654 0.157452 138 138 138
-0.416509 -0.097370 0.157524 138 138 138
-0.416219 -0.100086 0.157595 138 138 138
-0.415765 -0.102809 0.157707 138 138 138
-0.415211 -0.105537 0.157844 138 138 138
-0.414682 -0.108265 0.157974 138 138 138
-0.414160 -0.110994 0.158103 138 138 138
-0.413424 -0.113734 0.158284 138 138 138
-0.412473 -0.116485 0.158519 138 138 138
-0.411576 -0.119235 0.158740 138 138 138
-0.410709 -0.121986 0.158954 138 138 138
-0.409870 -0.124738 0.159161 138 138 138
-0.409102 -0.127487 0.159350 138 138 138
-0.408334 -0.130239 0.159540 138 138 138
-0.407677 -0.132986 0.159702 138 138 138
-0.407151 -0.135727 0.159831 138 138 138
-0.407214 -0.138439 0.159816 138 138 138
-0.407310 -0.141148 0.159792 138 138 138
-0.407406 -0.143857 0.159768 138 138 138
-0.407339 -0.146575 0.159785 138 138 138
-0.407208 -0.149297 0.159817 138 138 138
-0.407074 -0.152019 0.159850 138 138 138
-0.406941 -0.154742 0.159883 138 138 138
-0.406804 -0.157465 0.159917 138 138 138
-0.406068 -0.160226 0.160099 138 138 138
-0.405078 -0.163004 0.160343 138 138 138
-0.403754 -0.165805 0.160669 138 138 138
-0.402293 -0.168619 0.161029 138 138 138
-0.400684 -0.171445 0.161426 138 138 138
-0.399045 -0.174276 0.161830 138 138 138
-0.397431 -0.177110 0.162228 138 138 138
-0.395984 -0.179935 0.162585 138 138 138
-0.394691 -0.182752 0.162904 138 138 138
-0.393355 -0.185576 0.163234 138 138 138
-0.391759 -0.188420 0.163627 138 138 138
-0.390346 -0.191255 0.163976 138 138 138
-0.388807 -0.194102 0.164355 138 138 138
-0.387183 -0.196959 0.164756 138 138 138
-0.385550 -0.199820 0.165158 138 138 138
-0.384048 -0.202674 0.165529 138 138 138
-0.382307 -0.205550 0.165958 138 138 138
-0.380534 -0.208432 0.166395 138 138 138
-0.378758 -0.211319 0.166833 138 138 138
-0.376933 -0.214213 0.167283 138 138 138
-0.374840 -0.217133 0.167800 138 138 138
-0.372496 -0.220079 0.168378 138 138 138
-0.370148 -0.223030 0.168957 138 138 138
-0.367818 -0.225984 0.169531 138 138 138
-0.365409 -0.228950 0.170125 138 138 138
-0.362847 -0.231935 0.170757 138 138 138
-0.360254 -0.234928 0.171397 138 138 138
-0.357554 -0.237936 0.172062 138 138 138
-0.354691 -0.240964 0.172769 138 138 138
-0.351960 -0.243987 0.173442 138 138 138
-0.348932 -0.247043 0.174189 138 138 138
-0.346735 -0.250026 0.174730 138 138 138
-0.344324 -0.253035 0.175325 138 138 138
-0.342403 -0.256001 0.175799 138 138 138
-0.340573 -0.258963 0.176250 138 138 138
-0.338551 -0.261947 0.176749 138 138 138
-0.336526 -0.264936 0.177248 138 138 138
-0.334498 -0.267930 0.177748 138 138 138
-0.332088 -0.270966 0.178343 139 139 139
-0.328636 -0.274116 0.179194 140 140 140
-0.325053 -0.277286 0.180077 143 143 143
-0.321339 -0.280477 0.180993 144 144 144
-0.317290 -0.283712 0.181992 146 146 146
-0.313184 -0.286961 0.183004 147 147 147
-0.307988 -0.290337 0.184286 151 151 151
-0.303890 -0.293604 0.185297 151 151 151
-0.299810 -0.296878 0.186303 152 152 152
-0.295651 -0.300168 0.187328 154 154 154
-0.291958 -0.303416 0.188239 156 156 156
-0.288821 -0.306608 0.189013 157 157 157
-0.285253 -0.309855 0.189893 158 158 158
-0.281039 -0.313185 0.190932 160 160 160
-0.277511 -0.316444 0.191802 162 162 162
-0.275185 -0.319569 0.192376 163 163 163
-0.271920 -0.322810 0.193181 163 163 163
-0.269290 -0.325982 0.193829 163 163 163
-0.266413 -0.329190 0.194539 163 163 163
-0.263437 -0.332415 0.195273 163 163 163
-0.258873 -0.335842 0.196398 163 163 163
-0.253671 -0.339358 0.197681 165 165 165
-0.248397 -0.342894 0.198982 168 168 168
-0.240362 -0.346789 0.200963 170 170 170
-0.230545 -0.350928 0.203384 170 170 170
-0.217232 -0.355536 0.206667 174 174 174
-0.202874 -0.360307 0.210208 172 172 172
-0.192225 -0.364624 0.212834 175 175 175
-0.131319 -0.375570 0.227854 158 158 158
-0.122811 -0.379701 0.229952 151 151 151
-0.115888 -0.383639 0.231659 139 139 139
-0.111100 -0.387304 0.232840 138 138 138
-0.103917 -0.391304 0.234612 139 139 139
-0.097214 -0.395254 0.236265 167 167 167
-0.153024 0.375634 0.219440 138 138 138
-0.161219 0.371576 0.217428 138 138 138
-0.166945 0.367857 0.216022 138 138 138
-0.172847 0.364127 0.214573 138 138 138
-0.179338 0.360334 0.212979 145 145 145
-0.189114 0.356137 0.210579 159 159 159
-0.198459 0.352015 0.208284 159 159 159
-0.206975 0.348016 0.206193 157 157 157
-0.226476 0.342673 0.201405 157 157 157
-0.239329 0.338188 0.198249 138 138 138
-0.247492 0.334302 0.196245 138 138 138
-0.252353 0.330832 0.195052 138 138 138
-0.257566 0.327331 0.193772 138 138 138
-0.264075 0.323686 0.192174 138 138 138
-0.272210 0.319864 0.190176 139 139 139
-0.286461 0.315345 0.186677 147 147 147
-0.291470 0.311925 0.185447 143 143 143
-0.294466 0.308746 0.184712 140 140 140
-0.296896 0.305638 0.184115 138 138 138
-0.299877 0.302473 0.183383 138 138 138
-0.301932 0.299417 0.182879 138 138 138
-0.303636 0.296404 0.182460 138 138 138
-0.305139 0.293417 0.182091 138 138 138
-0.306666 0.290430 0.181716 139 139 139
-0.308398 0.287425 0.181291 138 138 138
-0.310162 0.284419 0.180858 138 138 138
-0.312287 0.281380 0.180336 139 139 139
-0.314708 0.278314 0.179742 140 140 140
-0.317256 0.275241 0.179116 140 140 140
-0.319791 0.272174 0.178494 140 140 140
-0.322617 0.269082 0.177800 138 138 138
-0.326002 0.265941 0.176969 138 138 138
-0.329702 0.262776 0.176060 138 138 138
-0.332881 0.259670 0.175280 138 138 138
-0.335451 0.256629 0.174649 138 138 138
-0.338083 0.253588 0.174003 138 138 138
-0.340423 0.250580 0.173428 138 138 138
-0.342010 0.247647 0.173038 138 138 138
-0.344250 0.244658 0.172488 138 138 138
-0.346486 0.241673 0.171939 138 138 138
-0.347848 0.238772 0.171605 138 138 138
-0.348933 0.235899 0.171339 138 138 138
-0.350284 0.233004 0.171007 138 138 138
-0.351710 0.230106 0.170657 138 138 138
-0.352760 0.227243 0.170399 138 138 138
-0.353513 0.224407 0.170214 138 138 138
-0.354261 0.221574 0.170030 138 138 138
-0.355008 0.218742 0.169847 138 138 138
-0.355773 0.215911 0.169659 138 138 138
-0.356657 0.213071 0.169442 138 138 138
-0.357546 0.210233 0.169224 138 138 138
-0.358397 0.207400 0.169015 138 138 138
-0.359277 0.204566 0.168799 138 138 138
-0.360156 0.201734 0.168583 138 138 138
-0.361031 0.198904 0.168368 138 138 138
-0.361906 0.196076 0.168153 138 138 138
-0.362744 0.193253 0.167947 138 138 138
-0.363716 0.190422 0.167709 138 138 138
-0.364758 0.187588 0.167453 138 138 138
-0.365800 0.184756 0.167197 138 138 138
-0.366924 0.181920 0.166921 138 138 138
-0.368532 0.179054 0.166526 138 138 138
-0.369968 0.176203 0.166174 138 138 138
-0.371111 0.173374 0.165893 138 138 138
-0.372297 0.170544 0.165602 138 138 138
-0.373451 0.167720 0.165318 138 138 138
-0.374784 0.164886 0.164991 138 138 138
-0.376116 0.162055 0.164664 138 138 138
-0.377258 0.159239 0.164384 138 138 138
-0.378029 0.156447 0.164195 138 138 138
-0.378780 0.153659 0.164010 138 138 138
-0.379530 0.150871 0.163826 138 138 138
-0.379586 0.148125 0.163812 138 138 138
-0.379585 0.145382 0.163812 138 138 138
-0.379604 0.142638 0.163808 138 138 138
-0.379247 0.139914 0.163895 138 138 138
-0.378586 0.137205 0.164058 138 138 138
-0.377944 0.134494 0.164215 138 138 138
-0.377839 0.131755 0.164241 140 140 140
-0.377657 0.129019 0.164286 140 140 140
-0.377344 0.126289 0.164363 141 141 141
-0.377312 0.123545 0.164371 142 142 142
-0.377763 0.120779 0.164260 142 142 142
-0.378254 0.118012 0.164139 141 141 141
-0.378813 0.115242 0.164002 141 141 141
-0.379391 0.112474 0.163860 141 141 141
-0.380052 0.109703 0.163698 142 142 142
-0.380776 0.106930 0.163520 143 143 143
-0.381667 0.104153 0.163301 144 144 144
-0.382736 0.101370 0.163039 145 145 145
-0.384116 0.098579 0.162700 145 145 145
-0.385962 0.095772 0.162247 145 145 145
-0.387377 0.092985 0.161899 143 143 143
-0.388791 0.090201 0.161552 142 142 142
-0.390203 0.087421 0.161205 139 139 139
-0.391804 0.084637 0.160812 138 138 138
-0.393450 0.081854 0.160408 138 138 138
-0.395053 0.079077 0.160015 138 138 138
-0.396629 0.076304 0.159628 138 138 138
-0.398060 0.073538 0.159276 138 138 138
-0.399168 0.070784 0.159004 138 138 138
-0.400280 0.068033 0.158731 138 138 138
-0.401391 0.065283 0.158458 138 138 138
-0.402309 0.062541 0.158233 138 138 138
-0.403038 0.059805 0.158054 138 138 138
-0.403741 0.057071 0.157882 138 138 138
-0.404443 0.054339 0.157709 138 138 138
-0.405089 0.051609 0.157550 138 138 138
-0.405689 0.048881 0.157403 138 138 138
-0.406269 0.046155 0.157261 138 138 138
-0.406849 0.043430 0.157118 138 138 138
-0.407420 0.040707 0.156978 138 138 138
-0.408203 0.037982 0.156786 138 138 138
-0.409085 0.035257 0.156569 138 138 138
-0.409965 0.032533 0.156353 138 138 138
-0.410846 0.029812 0.156137 138 138 138
-0.411419 0.027096 0.155996 138 138 138
-0.411935 0.024381 0.155870 138 138 138
-0.412450 0.021668 0.155743 138 138 138
-0.412966 0.018956 0.155617 138 138 138
-0.413678 0.016243 0.155442 138 138 138
-0.414050 0.013534 0.155350 138 138 138
-0.414373 0.010826 0.155271 138 138 138
-0.414694 0.008118 0.155192 138 138 138
-0.415015 0.005412 0.155113 138 138 138
-0.415227 0.002706 0.155061 138 138 138
-0.415461 0.000000 0.155004 138 138 138
-0.415803 -0.002705 0.154920 138 138 138
-0.416124 -0.005409 0.154841 138 138 138
-0.416344 -0.008113 0.154787 138 138 138
-0.416430 -0.010817 0.154766 138 138 138
-0.416396 -0.013522 0.154774 138 138 138
-0.416291 -0.016227 0.154800 138 138 138
-0.416161 -0.018932 0.154832 138 138 138
-0.415949 -0.021639 0.154884 138 138 138
-0.416016 -0.024343 0.154868 138 138 138
-0.416083 -0.027047 0.154851 138 138 138
-0.416217 -0.029750 0.154818 138 138 138
-0.416401 -0.032452 0.154773 138 138 138
-0.416569 -0.035154 0.154732 138 138 138
