ply
format ascii 1.0
element vertex 1172
property float x
property float y
property float z
property uchar red
property uchar green
property uchar blue
end_header
-0.321123 -0.194984 0.284132 147 147 147
-0.319448 -0.197214 0.284230 147 147 147
-0.317774 -0.199445 0.284327 147 147 147
-0.316067 -0.201659 0.284435 147 147 147
-0.314269 -0.203821 0.284574 146 146 146
-0.312520 -0.206013 0.284696 147 147 147
-0.310756 -0.208197 0.284823 149 149 149
-0.308843 -0.210299 0.284999 151 151 151
-0.306920 -0.212396 0.285179 153 153 153
-0.304953 -0.214470 0.285373 155 155 155
-0.302934 -0.216516 0.285584 157 157 157
-0.300839 -0.218522 0.285820 157 157 157
-0.298730 -0.220522 0.286061 158 158 158
-0.296381 -0.222391 0.286381 161 161 161
-0.293873 -0.224174 0.286754 162 162 162
-0.291486 -0.226028 0.287086 162 162 162
-0.289362 -0.228029 0.287330 163 163 163
-0.287237 -0.230031 0.287575 163 163 163
-0.285076 -0.232016 0.287831 164 164 164
-0.282615 -0.233839 0.288186 165 165 165
-0.280775 -0.236004 0.288335 165 165 165
-0.278954 -0.238180 0.288477 165 165 165
-0.277134 -0.240358 0.288619 166 166 166
-0.275312 -0.242536 0.288761 166 166 166
-0.273481 -0.244710 0.288906 169 169 169
-0.271261 -0.246676 0.289180 171 171 171
-0.268923 -0.248581 0.289492 171 171 171
-0.266592 -0.250492 0.289802 170 170 170
-0.264401 -0.252481 0.290065 170 170 170
-0.262209 -0.254471 0.290328 169 169 169
-0.259692 -0.256290 0.290698 169 169 169
-0.257182 -0.258116 0.291065 170 170 170
-0.254575 -0.259894 0.291463 171 171 171
-0.252211 -0.261804 0.291782 171 171 171
-0.249845 -0.263715 0.292100 171 171 171
-0.247432 -0.265604 0.292433 171 171 171
-0.245057 -0.267515 0.292754 171 171 171
-0.242642 -0.269409 0.293087 171 171 171
-0.240226 -0.271304 0.293421 171 171 171
-0.237807 -0.273201 0.293755 171 171 171
-0.235372 -0.275092 0.294093 172 172 172
-0.232990 -0.277014 0.294414 175 175 175
-0.229992 -0.278620 0.294937 175 175 175
-0.226871 -0.280167 0.295498 176 176 176
-0.223806 -0.281748 0.296041 176 176 176
-0.220759 -0.283342 0.296577 177 177 177
-0.217505 -0.284835 0.297181 180 180 180
-0.213491 -0.285947 0.298031 179 179 179
-0.208693 -0.286667 0.299136 179 179 179
-0.204386 -0.287645 0.300080 180 180 180
-0.199206 -0.288190 0.301307 182 182 182
-0.193518 -0.288489 0.302698 183 183 183
-0.187384 -0.288575 0.304232 184 184 184
-0.180756 -0.288427 0.305925 185 185 185
-0.173694 -0.288075 0.307757 187 187 187
-0.165500 -0.287174 0.309955 189 189 189
-0.157475 -0.286374 0.312095 141 141 141
-0.312559 0.096902 0.325760 133 133 133
-0.317232 0.090083 0.323597 173 173 173
-0.319338 0.085071 0.322341 180 180 180
-0.320308 0.080858 0.321486 174 174 174
-0.320776 0.077001 0.320809 173 173 173
-0.321319 0.073098 0.320106 171 171 171
-0.321665 0.069337 0.319474 170 170 170
-0.321954 0.065621 0.318862 168 168 168
-0.322222 0.061925 0.318259 168 168 168
-0.322473 0.058246 0.317662 168 168 168
-0.322768 0.054542 0.317051 168 168 168
-0.323062 0.050843 0.316440 169 169 169
-0.323206 0.047253 0.315884 169 169 169
-0.323166 0.043792 0.315391 169 169 169
-0.322623 0.040677 0.315076 170 170 170
-0.322352 0.037380 0.314666 168 168 168
-0.322203 0.034005 0.314214 168 168 168
-0.322053 0.030634 0.313762 168 168 168
-0.322284 0.027012 0.313179 167 167 167
-0.323081 0.023015 0.312399 168 168 168
-0.323892 0.019015 0.311615 167 167 167
-0.324720 0.015012 0.310826 167 167 167
-0.325564 0.011005 0.310033 167 167 167
-0.326406 0.007006 0.309242 167 167 167
-0.327861 0.002608 0.308238 166 166 166
-0.329520 -0.001917 0.307165 165 165 165
-0.331437 -0.006601 0.306004 163 163 163
-0.333518 -0.011384 0.304788 159 159 159
-0.335203 -0.015896 0.303710 150 150 150
-0.336108 -0.019888 0.302903 148 148 148
-0.336918 -0.023811 0.302131 146 146 146
-0.337759 -0.027748 0.301348 146 146 146
-0.337244 -0.030795 0.301036 143 143 143
-0.336679 -0.033809 0.300741 142 142 142
-0.336115 -0.036819 0.300446 140 140 140
-0.335591 -0.039854 0.300137 139 139 139
-0.335119 -0.042919 0.299811 140 140 140
-0.334727 -0.046033 0.299458 140 140 140
-0.334463 -0.049225 0.299061 139 139 139
-0.334656 -0.052707 0.298508 138 138 138
-0.334883 -0.056206 0.297943 138 138 138
-0.335116 -0.059703 0.297377 138 138 138
-0.335254 -0.063135 0.296845 138 138 138
-0.335557 -0.066667 0.296256 138 138 138
-0.336029 -0.070301 0.295611 138 138 138
-0.336983 -0.074233 0.294801 138 138 138
-0.338104 -0.078264 0.293934 138 138 138
-0.339164 -0.082249 0.293090 138 138 138
-0.340639 -0.086486 0.292105 138 138 138
-0.341503 -0.090333 0.291330 138 138 138
-0.343053 -0.094602 0.290321 140 140 140
-0.343932 -0.098444 0.289543 142 142 142
-0.345398 -0.102644 0.288565 144 144 144
-0.346446 -0.106576 0.287732 145 145 145
-0.346908 -0.110140 0.287099 145 145 145
-0.346914 -0.113417 0.286622 143 143 143
-0.346896 -0.116675 0.286154 142 142 142
-0.346771 -0.119864 0.285723 141 141 141
-0.346585 -0.123012 0.285313 141 141 141
-0.346344 -0.126123 0.284922 142 142 142
-0.345923 -0.129120 0.284593 142 142 142
-0.345425 -0.132068 0.284291 141 141 141
-0.344928 -0.135014 0.283988 141 141 141
-0.344709 -0.138126 0.283592 141 141 141
-0.344120 -0.141011 0.283321 142 142 142
-0.343532 -0.143895 0.283051 141 141 141
-0.342963 -0.146787 0.282774 142 142 142
-0.342422 -0.149694 0.282489 143 143 143
-0.341839 -0.152574 0.282217 144 144 144
-0.341258 -0.155452 0.281946 145 145 145
-0.340676 -0.158327 0.281675 146 146 146
-0.339900 -0.161085 0.281470 146 146 146
-0.338956 -0.163742 0.281322 145 145 145
-0.337951 -0.166362 0.281194 145 145 145
-0.336895 -0.168951 0.281084 145 145 145
-0.335808 -0.171520 0.280984 144 144 144
-0.334664 -0.174056 0.280904 144 144 144
-0.333509 -0.176584 0.280828 144 144 144
-0.332362 -0.179116 0.280748 145 145 145
-0.331121 -0.181593 0.280701 145 145 145
-0.329790 -0.184017 0.280684 145 145 145
-0.328458 -0.186440 0.280667 145 145 145
-0.327071 -0.188832 0.280668 145 145 145
-0.325665 -0.191213 0.280676 145 145 145
-0.323988 -0.193437 0.280775 145 145 145
-0.322257 -0.195632 0.280891 145 145 145
-0.320608 -0.197875 0.280980 144 144 144
-0.318934 -0.200104 0.281078 145 145 145
-0.317175 -0.202286 0.281203 144 144 144
-0.315364 -0.204439 0.281346 144 144 144
-0.313566 -0.206601 0.281484 145 145 145
-0.311876 -0.208825 0.281586 147 147 147
-0.310185 -0.211049 0.281688 148 148 148
-0.308414 -0.213229 0.281817 150 150 150
-0.306398 -0.215273 0.282027 152 152 152
-0.304381 -0.217318 0.282237 153 153 153
-0.302326 -0.219344 0.282459 154 154 154
-0.300219 -0.221342 0.282699 155 155 155
-0.298131 -0.223353 0.282932 155 155 155
-0.296169 -0.225437 0.283122 157 157 157
-0.294031 -0.227423 0.283372 158 158 158
-0.291870 -0.229400 0.283628 159 159 159
-0.289709 -0.231379 0.283884 160 160 160
-0.287545 -0.233358 0.284140 160 160 160
-0.285435 -0.235369 0.284379 162 162 162
-0.283835 -0.237660 0.284448 162 162 162
-0.282090 -0.239873 0.284566 162 162 162
-0.280213 -0.242015 0.284727 162 162 162
-0.278336 -0.244158 0.284887 162 162 162
-0.276459 -0.246303 0.285048 163 163 163
-0.274582 -0.248449 0.285208 164 164 164
-0.272721 -0.250605 0.285363 166 166 166
-0.270864 -0.252764 0.285516 168 168 168
-0.268553 -0.254682 0.285818 168 168 168
-0.265794 -0.256364 0.286268 167 167 167
-0.263032 -0.258048 0.286717 167 167 167
-0.260607 -0.259914 0.287056 167 167 167
-0.258276 -0.261833 0.287363 167 167 167
-0.255926 -0.263744 0.287676 168 168 168
-0.253475 -0.265605 0.288022 169 169 169
-0.250992 -0.267452 0.288378 168 168 168
-0.248643 -0.269372 0.288690 168 168 168
-0.246292 -0.271293 0.289002 167 167 167
-0.243940 -0.273216 0.289314 166 166 166
-0.241521 -0.275108 0.289647 167 167 167
-0.239053 -0.276976 0.289996 168 168 168
-0.236582 -0.278846 0.290346 169 169 169
-0.234327 -0.280830 0.290624 170 170 170
-0.232226 -0.282895 0.290853 172 172 172
-0.229964 -0.284880 0.291133 173 173 173
-0.226298 -0.286149 0.291870 174 174 174
-0.222592 -0.287404 0.292619 175 175 175
-0.218878 -0.288661 0.293370 175 175 175
-0.214423 -0.289547 0.294361 177 177 177
-0.209579 -0.290245 0.295476 178 178 178
-0.205569 -0.291373 0.296320 179 179 179
-0.200628 -0.292040 0.297465 179 179 179
-0.194931 -0.292335 0.298853 180 180 180
-0.189531 -0.292791 0.300144 179 179 179
-0.183298 -0.292841 0.301703 181 181 181
-0.177292 -0.293017 0.303186 181 181 181
-0.171418 -0.293271 0.304625 183 183 183
-0.164820 -0.293178 0.306296 184 184 184
-0.158959 -0.293462 0.307727 187 187 187
-0.148852 -0.291665 0.310527 139 139 139
-0.317007 0.100857 0.322190 137 137 137
-0.322210 0.093651 0.319846 175 175 175
-0.323826 0.088973 0.318766 173 173 173
-0.325097 0.084546 0.317808 171 171 171
-0.325105 0.081007 0.317294 170 170 170
-0.325103 0.077479 0.316785 169 169 169
-0.325393 0.073754 0.316174 168 168 168
-0.325750 0.069987 0.315541 168 168 168
-0.326041 0.066272 0.314931 166 166 166
-0.326253 0.062616 0.314349 164 164 164
-0.326839 0.058709 0.313638 164 164 164
-0.327301 0.054893 0.312971 165 165 165
-0.327674 0.051144 0.312336 165 165 165
-0.327664 0.047661 0.311835 165 165 165
-0.327468 0.044310 0.311400 166 166 166
-0.326967 0.041170 0.311072 164 164 164
-0.326632 0.037919 0.310686 164 164 164
-0.326453 0.034567 0.310246 164 164 164
-0.326274 0.031219 0.309807 164 164 164
-0.326383 0.027681 0.309269 164 164 164
-0.327178 0.023687 0.308493 163 163 163
-0.327970 0.019702 0.307719 163 163 163
-0.328669 0.015786 0.306978 162 162 162
-0.329347 0.011890 0.306245 162 162 162
-0.330105 0.007948 0.305486 162 162 162
-0.331492 0.003595 0.304510 162 162 162
-0.333156 -0.000934 0.303439 162 162 162
-0.334424 -0.005191 0.302506 161 161 161
-0.336256 -0.009811 0.301380 155 155 155
-0.336921 -0.013654 0.300658 150 150 150
-0.337651 -0.017534 0.299915 145 145 145
-0.338243 -0.021317 0.299220 144 144 144
-0.339012 -0.025209 0.298465 143 143 143
-0.339048 -0.028618 0.297964 142 142 142
-0.338534 -0.031664 0.297652 140 140 140
-0.337986 -0.034685 0.297353 138 138 138
-0.337439 -0.037705 0.297053 138 138 138
-0.336984 -0.040780 0.296723 138 138 138
-0.336512 -0.043843 0.296398 138 138 138
-0.336041 -0.046903 0.296074 138 138 138
-0.336025 -0.050252 0.295594 138 138 138
-0.336251 -0.053752 0.295032 138 138 138
-0.336478 -0.057248 0.294470 138 138 138
-0.336665 -0.060713 0.293922 138 138 138
-0.336774 -0.064124 0.293402 138 138 138
-0.336928 -0.067559 0.292867 138 138 138
-0.337532 -0.071274 0.292179 138 138 138
-0.338724 -0.075353 0.291291 138 138 138
-0.339897 -0.079413 0.290411 138 138 138
-0.341229 -0.083566 0.289478 138 138 138
-0.342721 -0.087810 0.288491 138 138 138
-0.344460 -0.092200 0.287421 140 140 140
-0.345856 -0.096367 0.286470 143 143 143
-0.347316 -0.100566 0.285498 144 144 144
-0.348629 -0.104665 0.284577 146 146 146
-0.349099 -0.108235 0.283943 146 146 146
-0.349148 -0.111539 0.283454 145 145 145
-0.349034 -0.114738 0.283020 143 143 143
-0.348835 -0.117882 0.282615 143 143 143
-0.348592 -0.120995 0.282226 143 143 143
-0.348350 -0.124105 0.281837 144 144 144
-0.348018 -0.127157 0.281479 144 144 144
-0.347625 -0.130169 0.281142 144 144 144
-0.347462 -0.133317 0.280729 144 144 144
-0.347298 -0.136462 0.280315 145 145 145
-0.346789 -0.139394 0.280019 145 145 145
-0.346201 -0.142276 0.279750 145 145 145
-0.345763 -0.145246 0.279430 146 146 146
-0.345334 -0.148219 0.279108 146 146 146
-0.344605 -0.151010 0.278887 147 147 147
-0.343876 -0.153798 0.278666 148 148 148
-0.343148 -0.156585 0.278446 149 149 149
-0.342324 -0.159314 0.278258 149 149 149
-0.341336 -0.161943 0.278125 148 148 148
-0.340393 -0.164598 0.277978 147 147 147
-0.339436 -0.167243 0.277835 146 146 146
-0.338372 -0.169824 0.277728 146 146 146
-0.337245 -0.172368 0.277643 145 145 145
-0.336114 -0.174908 0.277559 145 145 145
-0.334960 -0.177434 0.277482 145 145 145
-0.333806 -0.179960 0.277406 145 145 145
-0.332531 -0.182414 0.277371 144 144 144
-0.331219 -0.184847 0.277348 144 144 144
-0.329890 -0.187269 0.277330 144 144 144
-0.328536 -0.189677 0.277321 144 144 144
-0.326954 -0.191954 0.277388 144 144 144
-0.325204 -0.194135 0.277511 144 144 144
-0.323453 -0.196316 0.277634 144 144 144
-0.321702 -0.198498 0.277757 144 144 144
-0.320064 -0.200746 0.277842 142 142 142
-0.318267 -0.202904 0.277980 141 141 141
-0.316457 -0.205055 0.278122 143 143 143
-0.314647 -0.207208 0.278264 144 144 144
-0.312922 -0.209411 0.278378 145 145 145
-0.311232 -0.211633 0.278479 146 146 146
-0.309432 -0.213795 0.278617 148 148 148
-0.307659 -0.215973 0.278746 148 148 148
-0.305827 -0.218119 0.278895 150 150 150
-0.303811 -0.220164 0.279104 151 151 151
-0.301706 -0.222161 0.279342 152 152 152
-0.299748 -0.224242 0.279532 153 153 153
-0.297800 -0.226330 0.279718 155 155 155
-0.295924 -0.228459 0.279879 155 155 155
-0.294080 -0.230607 0.280031 155 155 155
-0.292010 -0.232632 0.280256 156 156 156
-0.289906 -0.234641 0.280492 157 157 157
-0.287801 -0.236650 0.280729 159 159 159
-0.285962 -0.238807 0.280878 160 160 160
-0.284368 -0.241098 0.280945 159 159 159
-0.282738 -0.243371 0.281025 159 159 159
-0.281003 -0.245587 0.281139 159 159 159
-0.279196 -0.247765 0.281276 160 160 160
-0.277378 -0.249939 0.281417 161 161 161
-0.275559 -0.252113 0.281559 161 161 161
-0.273591 -0.254209 0.281748 163 163 163
-0.271314 -0.256140 0.282039 164 164 164
-0.269033 -0.258073 0.282330 165 165 165
-0.266490 -0.259868 0.282708 165 165 165
-0.263846 -0.261613 0.283117 165 165 165
-0.261520 -0.263530 0.283422 165 165 165
-0.259179 -0.265441 0.283732 165 165 165
-0.256830 -0.267350 0.284044 166 166 166
-0.254439 -0.269240 0.284370 166 166 166
-0.252025 -0.271121 0.284702 165 165 165
-0.249609 -0.273003 0.285035 165 165 165
-0.247029 -0.274803 0.285420 164 164 164
-0.244298 -0.276527 0.285855 164 164 164
-0.241969 -0.278463 0.286158 164 164 164
-0.239740 -0.280454 0.286428 165 165 165
-0.237562 -0.282473 0.286681 166 166 166
-0.235267 -0.284434 0.286972 167 167 167
-0.232409 -0.286109 0.287446 168 168 168
-0.229549 -0.287786 0.287919 169 169 169
-0.226465 -0.289353 0.288465 171 171 171
-0.223002 -0.290732 0.289132 172 172 172
-0.219307 -0.291998 0.289874 173 173 173
-0.215007 -0.292964 0.290811 175 175 175
-0.210332 -0.293749 0.291867 176 176 176
-0.205138 -0.294281 0.293090 175 175 175
-0.200140 -0.294921 0.294249 177 177 177
-0.194764 -0.295381 0.295528 178 178 178
-0.189091 -0.295704 0.296901 178 178 178
-0.183698 -0.296177 0.298182 179 179 179
-0.178510 -0.296763 0.299396 179 179 179
-0.172990 -0.297194 0.300715 180 180 180
-0.168662 -0.298224 0.301650 180 180 180
-0.163049 -0.298629 0.302996 182 182 182
-0.159077 -0.299853 0.303814 183 183 183
-0.152848 -0.299975 0.305355 189 189 189
-0.268520 0.149446 0.338248 138 138 138
-0.272401 0.143048 0.336360 137 137 137
-0.272450 0.139369 0.335818 189 189 189
-0.324198 0.099307 0.317148 179 179 179
-0.327796 0.093227 0.315376 170 170 170
-0.329070 0.088792 0.314419 168 168 168
-0.329629 0.084865 0.313715 166 166 166
-0.329589 0.081363 0.313220 165 165 165
-0.329550 0.077864 0.312727 165 165 165
-0.329511 0.074370 0.312233 165 165 165
-0.329686 0.070731 0.311666 164 164 164
-0.329896 0.067074 0.311087 161 161 161
-0.330104 0.063422 0.310510 159 159 159
-0.330714 0.059500 0.309793 160 160 160
-0.331340 0.055573 0.309072 161 161 161
-0.331618 0.051891 0.308472 161 161 161
-0.331402 0.048552 0.308045 161 161 161
-0.331176 0.045223 0.307622 162 162 162
-0.330950 0.041898 0.307200 162 162 162
-0.330628 0.038642 0.306812 162 162 162
-0.330312 0.035385 0.306422 162 162 162
-0.329887 0.032205 0.306070 162 162 162
-0.329810 0.028795 0.305598 162 162 162
-0.330600 0.024805 0.304827 161 161 161
-0.331129 0.020996 0.304147 161 161 161
-0.331893 0.017036 0.303386 161 161 161
-0.332630 0.013102 0.302636 161 161 161
-0.333792 0.008890 0.301740 161 161 161
-0.335151 0.004555 0.300777 161 161 161
-0.336236 0.000411 0.299910 161 161 161
-0.337144 -0.003609 0.299105 157 157 157
-0.338380 -0.007838 0.298188 153 153 153
-0.338860 -0.011561 0.297532 150 150 150
-0.339498 -0.015382 0.296823 144 144 144
-0.339748 -0.018942 0.296248 142 142 142
-0.340133 -0.022585 0.295628 141 141 141
-0.340665 -0.026320 0.294958 140 140 140
-0.340257 -0.029436 0.294611 139 139 139
-0.339798 -0.032515 0.294282 138 138 138
-0.339250 -0.035533 0.293984 138 138 138
-0.338712 -0.038557 0.293683 138 138 138
-0.338226 -0.041610 0.293365 138 138 138
-0.337786 -0.044691 0.293031 138 138 138
-0.337386 -0.047794 0.292684 138 138 138
-0.337523 -0.051239 0.292154 138 138 138
-0.337764 -0.054745 0.291589 138 138 138
-0.338006 -0.058247 0.291024 138 138 138
-0.338147 -0.061680 0.290495 138 138 138
-0.338272 -0.065099 0.289972 138 138 138
-0.338397 -0.068512 0.289449 138 138 138
-0.339274 -0.072397 0.288671 138 138 138
-0.340463 -0.076472 0.287788 138 138 138
-0.341650 -0.080537 0.286907 138 138 138
-0.343483 -0.085001 0.285807 138 138 138
-0.345180 -0.089370 0.284756 139 139 139
-0.347238 -0.093955 0.283582 144 144 144
-0.348992 -0.098341 0.282513 144 144 144
-0.350421 -0.102515 0.281556 146 146 146
-0.351166 -0.106257 0.280832 147 147 147
-0.351512 -0.109745 0.280243 147 147 147
-0.351491 -0.113002 0.279780 146 146 146
-0.351249 -0.116119 0.279392 145 145 145
-0.350937 -0.119188 0.279028 145 145 145
-0.350624 -0.122255 0.278664 145 145 145
-0.350393 -0.125369 0.278273 146 146 146
-0.350216 -0.128512 0.277865 147 147 147
-0.350040 -0.131651 0.277457 148 148 148
-0.349863 -0.134788 0.277050 148 148 148
-0.349566 -0.137847 0.276683 149 149 149
-0.349170 -0.140844 0.276351 149 149 149
-0.348775 -0.143838 0.276018 150 150 150
-0.348380 -0.146830 0.275686 150 150 150
-0.347677 -0.149634 0.275457 151 151 151
-0.346870 -0.152374 0.275264 152 152 152
-0.346032 -0.155094 0.275082 152 152 152
-0.345196 -0.157813 0.274899 152 152 152
-0.344214 -0.160444 0.274765 150 150 150
-0.343162 -0.163032 0.274654 149 149 149
-0.342070 -0.165596 0.274558 148 148 148
-0.340979 -0.168159 0.274461 147 147 147
-0.339805 -0.170673 0.274391 146 146 146
-0.338680 -0.173215 0.274306 146 146 146
-0.337555 -0.175756 0.274221 146 146 146
-0.336408 -0.178284 0.274143 146 146 146
-0.335181 -0.180763 0.274092 145 145 145
-0.333904 -0.183215 0.274057 145 145 145
-0.332599 -0.185649 0.274032 144 144 144
-0.331288 -0.188079 0.274010 144 144 144
-0.329899 -0.190465 0.274012 143 143 143
-0.328171 -0.192654 0.274128 143 143 143
-0.326422 -0.194834 0.274250 143 143 143
-0.324673 -0.197014 0.274373 143 143 143
-0.322924 -0.199195 0.274495 143 143 143
-0.321114 -0.201342 0.274637 143 143 143
-0.319316 -0.203498 0.274775 143 143 143
-0.317531 -0.205661 0.274908 142 142 142
-0.315740 -0.207823 0.275044 142 142 142
-0.313967 -0.209996 0.275173 143 143 143
-0.312208 -0.212177 0.275298 144 144 144
-0.310400 -0.214333 0.275438 146 146 146
-0.308611 -0.216500 0.275572 146 146 146
-0.306845 -0.218681 0.275699 147 147 147
-0.305078 -0.220864 0.275825 148 148 148
-0.303319 -0.223050 0.275949 149 149 149
-0.301374 -0.225136 0.276134 151 151 151
-0.299428 -0.227222 0.276319 152 152 152
-0.297532 -0.229337 0.276487 153 153 153
-0.295690 -0.231483 0.276637 153 153 153
-0.293953 -0.233689 0.276753 153 153 153
-0.292126 -0.235846 0.276898 155 155 155
-0.290161 -0.237928 0.277088 156 156 156
-0.288084 -0.239952 0.277314 158 158 158
-0.286492 -0.242241 0.277382 157 157 157
-0.284636 -0.244387 0.277536 158 158 158
-0.282815 -0.246554 0.277678 158 158 158
-0.281148 -0.248805 0.277769 158 158 158
-0.279480 -0.251056 0.277861 157 157 157
-0.277694 -0.253244 0.277992 158 158 158
-0.275686 -0.255315 0.278194 159 159 159
-0.273507 -0.257295 0.278453 160 160 160
-0.271283 -0.259255 0.278725 161 161 161
-0.269059 -0.261216 0.278997 162 162 162
-0.266884 -0.263206 0.279253 163 163 163
-0.264522 -0.265098 0.279570 163 163 163
-0.262094 -0.266959 0.279907 163 163 163
-0.259636 -0.268807 0.280254 163 163 163
-0.257176 -0.270656 0.280601 163 163 163
-0.254848 -0.272577 0.280905 163 163 163
-0.252473 -0.274477 0.281224 163 163 163
-0.249757 -0.276201 0.281653 163 163 163
-0.247007 -0.277912 0.282092 163 163 163
-0.244497 -0.279750 0.282453 163 163 163
-0.242170 -0.281686 0.282755 163 163 163
-0.239822 -0.283614 0.283063 163 163 163
-0.237397 -0.285504 0.283395 163 163 163
-0.234668 -0.287242 0.283825 164 164 164
-0.231824 -0.288923 0.284293 165 165 165
-0.228976 -0.290607 0.284760 166 166 166
-0.226125 -0.292294 0.285228 167 167 167
-0.222778 -0.293732 0.285856 168 168 168
-0.218919 -0.294916 0.286648 172 172 172
-0.214106 -0.295625 0.287746 175 175 175
-0.209231 -0.296312 0.288862 175 175 175
-0.204064 -0.296862 0.290071 175 175 175
-0.199092 -0.297519 0.291216 176 176 176
-0.194036 -0.298143 0.292387 177 177 177
-0.188519 -0.298548 0.293705 177 177 177
-0.183478 -0.299199 0.294868 177 177 177
-0.178616 -0.299949 0.295972 178 178 178
-0.173960 -0.300810 0.297009 178 178 178
-0.169690 -0.301870 0.297921 178 178 178
-0.165863 -0.303155 0.298690 178 178 178
-0.161455 -0.304161 0.299645 180 180 180
-0.157048 -0.305175 0.300597 182 182 182
-0.152345 -0.306053 0.301644 184 184 184
-0.137705 -0.302105 0.305862 139 139 139
-0.278510 0.156909 0.333740 135 135 135
-0.280306 0.151971 0.332586 178 178 178
-0.281381 0.147557 0.331686 183 183 183
-0.282043 0.143444 0.330932 182 182 182
-0.282081 0.139781 0.330397 182 182 182
-0.321864 0.108023 0.315961 178 178 178
-0.327665 0.100365 0.313422 170 170 170
-0.331207 0.094321 0.311675 168 168 168
-0.332674 0.089750 0.310655 165 165 165
-0.333596 0.085570 0.309827 163 163 163
-0.333554 0.082071 0.309335 163 163 163
-0.333406 0.078650 0.308882 162 162 162
-0.333221 0.075260 0.308442 160 160 160
-0.333378 0.071636 0.307883 158 158 158
-0.333544 0.068010 0.307322 156 156 156
-0.333480 0.064549 0.306841 155 155 155
-0.333967 0.060712 0.306170 156 156 156
-0.334303 0.056985 0.305552 157 157 157
-0.334506 0.053354 0.304981 157 157 157
-0.334464 0.049897 0.304496 158 158 158
-0.334345 0.046496 0.304037 158 158 158
-0.334289 0.043057 0.303558 159 159 159
-0.334094 0.039716 0.303127 159 159 159
-0.333722 0.036499 0.302758 159 159 159
-0.333351 0.033285 0.302390 159 159 159
-0.333178 0.029941 0.301953 159 159 159
-0.333696 0.026134 0.301278 159 159 159
-0.334214 0.022334 0.300605 159 159 159
-0.334961 0.018385 0.299853 159 159 159
-0.336121 0.014167 0.298960 160 160 160
-0.337217 0.009999 0.298090 161 161 161
-0.338168 0.005936 0.297271 160 160 160
-0.339039 0.001933 0.296481 157 157 157
-0.339888 -0.002048 0.295699 155 155 155
-0.340372 -0.005781 0.295043 152 152 152
-0.340843 -0.009499 0.294393 150 150 150
-0.341290 -0.013196 0.293752 143 143 143
-0.341551 -0.016765 0.293175 141 141 141
-0.341841 -0.020347 0.292590 139 139 139
-0.342088 -0.023897 0.292019 138 138 138
-0.341872 -0.027139 0.291608 138 138 138
-0.341464 -0.030252 0.291263 138 138 138
-0.341057 -0.033363 0.290918 138 138 138
-0.340515 -0.036383 0.290619 138 138 138
-0.339984 -0.039408 0.290317 138 138 138
-0.339461 -0.042435 0.290013 138 138 138
-0.339022 -0.045514 0.289681 138 138 138
-0.338868 -0.048772 0.289252 138 138 138
-0.338900 -0.052147 0.288759 138 138 138
-0.339141 -0.055651 0.288197 138 138 138
-0.339346 -0.059127 0.287648 138 138 138
-0.339481 -0.062554 0.287123 138 138 138
-0.339605 -0.065969 0.286602 138 138 138
-0.339951 -0.069519 0.286007 138 138 138
-0.341022 -0.073524 0.285167 138 138 138
-0.342208 -0.077594 0.284289 138 138 138
-0.343704 -0.081851 0.283307 138 138 138
-0.345724 -0.086428 0.282148 138 138 138
-0.347768 -0.091010 0.280984 143 143 143
-0.349982 -0.095689 0.279763 144 144 144
-0.352094 -0.100293 0.278578 146 146 146
-0.353166 -0.104240 0.277746 148 148 148
-0.353603 -0.107786 0.277129 148 148 148
-0.353873 -0.111223 0.276568 148 148 148
-0.353768 -0.114424 0.276136 146 146 146
-0.353479 -0.117508 0.275765 147 147 147
-0.353271 -0.120638 0.275368 148 148 148
-0.353063 -0.123765 0.274971 148 148 148
-0.352879 -0.126903 0.274567 149 149 149
-0.352701 -0.130041 0.274161 150 150 150
-0.352501 -0.133162 0.273763 151 151 151
-0.352254 -0.136251 0.273382 152 152 152
-0.351904 -0.139275 0.273035 152 152 152
-0.351554 -0.142296 0.272688 153 153 153
-0.351323 -0.145385 0.272303 154 154 154
-0.350818 -0.148307 0.272009 154 154 154
-0.349809 -0.150923 0.271885 154 154 154
-0.348860 -0.153574 0.271740 154 154 154
-0.348023 -0.156291 0.271559 155 155 155
-0.347077 -0.158941 0.271414 153 153 153
-0.346094 -0.161568 0.271281 152 152 152
-0.345089 -0.164181 0.271156 151 151 151
-0.343998 -0.166742 0.271060 150 150 150
-0.342829 -0.169256 0.270989 149 149 149
-0.341599 -0.171733 0.270940 149 149 149
-0.340334 -0.174190 0.270902 148 148 148
-0.339069 -0.176646 0.270863 147 147 147
-0.337819 -0.179110 0.270821 146 146 146
-0.336543 -0.181560 0.270786 146 146 146
-0.335267 -0.184009 0.270752 145 145 145
-0.333977 -0.186449 0.270722 145 145 145
-0.332667 -0.188878 0.270700 144 144 144
-0.331051 -0.191129 0.270778 144 144 144
-0.329367 -0.193343 0.270879 143 143 143
-0.327636 -0.195530 0.270995 143 143 143
-0.325900 -0.197715 0.271113 142 142 142
-0.324128 -0.199881 0.271243 142 142 142
-0.322239 -0.201981 0.271411 143 143 143
-0.320383 -0.204101 0.271568 143 143 143
-0.318595 -0.206261 0.271702 142 142 142
-0.316806 -0.208422 0.271837 142 142 142
-0.314988 -0.210567 0.271980 142 142 142
-0.313173 -0.212716 0.272123 142 142 142
-0.311367 -0.214870 0.272263 144 144 144
-0.309561 -0.217026 0.272402 145 145 145
-0.307796 -0.219206 0.272528 145 145 145
-0.306084 -0.221417 0.272636 146 146 146
-0.304442 -0.223667 0.272721 147 147 147
-0.302800 -0.225918 0.272806 147 147 147
-0.301054 -0.228112 0.272925 151 151 151
-0.299138 -0.230214 0.273100 150 150 150
-0.297396 -0.232413 0.273217 151 151 151
-0.295666 -0.234619 0.273330 152 152 152
-0.293889 -0.236801 0.273459 153 153 153
-0.292051 -0.238950 0.273608 154 154 154
-0.290211 -0.241099 0.273756 155 155 155
-0.288385 -0.243257 0.273900 156 156 156
-0.286529 -0.245401 0.274054 156 156 156
-0.284673 -0.247545 0.274208 157 157 157
-0.282959 -0.249767 0.274315 157 157 157
-0.281282 -0.252011 0.274409 156 156 156
-0.279431 -0.254162 0.274561 157 157 157
-0.277580 -0.256313 0.274712 157 157 157
-0.275666 -0.258432 0.274883 158 158 158
-0.273564 -0.260453 0.275116 159 159 159
-0.271457 -0.262473 0.275349 160 160 160
-0.269306 -0.264472 0.275597 161 161 161
-0.267075 -0.266430 0.275870 161 161 161
-0.264634 -0.268280 0.276211 161 161 161
-0.262200 -0.270136 0.276550 161 161 161
-0.259781 -0.272003 0.276883 161 161 161
-0.257330 -0.273856 0.277226 162 162 162
-0.254787 -0.275664 0.277598 162 162 162
-0.252210 -0.277457 0.277981 162 162 162
-0.249720 -0.279298 0.278336 162 162 162
-0.247019 -0.281034 0.278758 162 162 162
-0.244668 -0.282953 0.279067 161 161 161
-0.242161 -0.284795 0.279425 161 161 161
-0.239527 -0.286574 0.279824 161 161 161
-0.236895 -0.288358 0.280222 161 161 161
-0.234128 -0.290076 0.280663 163 163 163
-0.231294 -0.291764 0.281125 164 164 164
-0.228261 -0.293353 0.281650 165 165 165
-0.224962 -0.294813 0.282260 166 166 166
-0.221570 -0.296230 0.282900 167 167 167
-0.217668 -0.297395 0.283702 172 172 172
-0.212831 -0.298096 0.284803 174 174 174
-0.208046 -0.298832 0.285886 174 174 174
-0.203056 -0.299474 0.287033 175 175 175
-0.198085 -0.300135 0.288173 175 175 175
-0.193099 -0.300798 0.289317 175 175 175
-0.187958 -0.301394 0.290508 176 176 176
-0.182767 -0.301974 0.291714 175 175 175
-0.178055 -0.302801 0.292766 175 175 175
-0.173660 -0.303793 0.293715 175 175 175
-0.169361 -0.304840 0.294633 175 175 175
-0.165908 -0.306309 0.295280 175 175 175
-0.162495 -0.307804 0.295914 177 177 177
-0.158657 -0.309096 0.296682 179 179 179
-0.154385 -0.310184 0.297587 181 181 181
-0.149982 -0.311215 0.298533 182 182 182
-0.143333 -0.311167 0.300191 188 188 188
-0.130791 -0.308288 0.303719 142 142 142
-0.279901 0.166845 0.331725 135 135 135
-0.283876 0.160324 0.329810 181 181 181
-0.286443 0.154828 0.328390 180 180 180
-0.287694 0.150285 0.327431 180 180 180
-0.289694 0.145217 0.326212 180 180 180
-0.290093 0.141299 0.325554 184 184 184
-0.292756 0.135780 0.324106 185 185 185
-0.324914 0.109376 0.312377 177 177 177
-0.330811 0.101644 0.309813 171 171 171
-0.334522 0.095476 0.308014 163 163 163
-0.335877 0.090982 0.307036 161 161 161
-0.337138 0.086564 0.306093 160 160 160
-0.337075 0.083081 0.305611 158 158 158
-0.337012 0.079603 0.305130 156 156 156
-0.336903 0.076161 0.304665 155 155 155
-0.336844 0.072690 0.304184 153 153 153
-0.336778 0.069226 0.303705 152 152 152
-0.336713 0.065767 0.303227 150 150 150
-0.337054 0.062031 0.302609 154 154 154
-0.337115 0.058494 0.302089 154 154 154
-0.337177 0.054961 0.301569 154 154 154
-0.337192 0.051465 0.301066 155 155 155
-0.337219 0.047964 0.300559 155 155 155
-0.337312 0.044424 0.300030 156 156 156
-0.337178 0.041043 0.299580 156 156 156
-0.336806 0.037828 0.299213 156 156 156
-0.336581 0.034516 0.298795 156 156 156
-0.336409 0.031173 0.298360 157 157 157
-0.336472 0.027674 0.297845 158 158 158
-0.336849 0.023969 0.297222 158 158 158
-0.337454 0.020114 0.296522 158 158 158
-0.338556 0.015933 0.295652 158 158 158
-0.339642 0.011771 0.294789 158 158 158
-0.340634 0.007679 0.293958 159 159 159
-0.341502 0.003676 0.293172 156 156 156
-0.342070 -0.000119 0.292489 154 154 154
-0.342575 -0.003867 0.291829 150 150 150
-0.342796 -0.007421 0.291266 148 148 148
-0.342876 -0.010876 0.290753 145 145 145
-0.342891 -0.014284 0.290262 141 141 141
-0.342899 -0.017684 0.289775 140 140 140
-0.343195 -0.021268 0.289189 138 138 138
-0.343313 -0.024730 0.288666 138 138 138
-0.342987 -0.027898 0.288294 138 138 138
-0.342604 -0.031025 0.287942 138 138 138
-0.342223 -0.034150 0.287590 138 138 138
-0.341754 -0.037215 0.287268 138 138 138
-0.341253 -0.040257 0.286957 138 138 138
-0.340722 -0.043277 0.286657 138 138 138
-0.340365 -0.046406 0.286298 138 138 138
-0.340347 -0.049749 0.285825 138 138 138
-0.340328 -0.053088 0.285353 138 138 138
-0.340515 -0.056555 0.284811 138 138 138
-0.340677 -0.060001 0.284279 138 138 138
-0.340814 -0.063426 0.283756 138 138 138
-0.340939 -0.066839 0.283237 138 138 138
-0.341769 -0.070694 0.282481 138 138 138
-0.342788 -0.074662 0.281662 138 138 138
-0.343950 -0.078714 0.280796 138 138 138
-0.345976 -0.083301 0.279639 138 138 138
-0.348081 -0.087928 0.278457 141 141 141
-0.350513 -0.092749 0.277167 145 145 145
-0.352885 -0.097521 0.275898 146 146 146
-0.355065 -0.102163 0.274695 147 147 147
-0.355909 -0.105964 0.273944 149 149 149
-0.356233 -0.109435 0.273368 149 149 149
-0.356418 -0.112815 0.272839 149 149 149
-0.356188 -0.115934 0.272450 149 149 149
-0.355959 -0.119051 0.272062 150 150 150
-0.355730 -0.122164 0.271673 151 151 151
-0.355528 -0.125290 0.271277 152 152 152
-0.355327 -0.128414 0.270880 153 153 153
-0.355127 -0.131534 0.270484 153 153 153
-0.354914 -0.134644 0.270093 155 155 155
-0.354603 -0.137690 0.269734 155 155 155
-0.354442 -0.140824 0.269326 155 155 155
-0.354281 -0.143955 0.268919 155 155 155
-0.353920 -0.146961 0.268579 155 155 155
-0.353397 -0.149868 0.268293 155 155 155
-0.352473 -0.152531 0.268141 156 156 156
-0.351465 -0.155142 0.268018 156 156 156
-0.350455 -0.157751 0.267895 156 156 156
-0.349302 -0.160274 0.267820 155 155 155
-0.348054 -0.162740 0.267776 154 154 154
-0.346987 -0.165312 0.267673 152 152 152
-0.345871 -0.167855 0.267585 152 152 152
-0.344655 -0.170338 0.267532 151 151 151
-0.343438 -0.172820 0.267478 151 151 151
-0.342182 -0.175279 0.267438 150 150 150
-0.340893 -0.177718 0.267408 149 149 149
-0.339322 -0.179992 0.267472 148 148 148
-0.337971 -0.182395 0.267463 147 147 147
-0.336643 -0.184811 0.267447 146 146 146
-0.335353 -0.187249 0.267418 145 145 145
-0.333838 -0.189556 0.267463 144 144 144
-0.332200 -0.191793 0.267548 144 144 144
-0.330555 -0.194026 0.267637 143 143 143
-0.328826 -0.196212 0.267752 143 143 143
-0.327096 -0.198399 0.267868 142 142 142
-0.325234 -0.200511 0.268027 143 143 143
-0.323362 -0.202618 0.268189 143 143 143
-0.321483 -0.204723 0.268353 143 143 143
-0.319662 -0.206863 0.268498 143 143 143
-0.317874 -0.209022 0.268632 142 142 142
-0.315985 -0.211126 0.268799 142 142 142
-0.314136 -0.213253 0.268953 142 142 142
-0.312332 -0.215406 0.269091 142 142 142
-0.310526 -0.217561 0.269230 143 143 143
-0.308757 -0.219736 0.269357 144 144 144
-0.307117 -0.221985 0.269442 144 144 144
-0.305476 -0.224234 0.269527 144 144 144
-0.303848 -0.226491 0.269607 145 145 145
-0.302236 -0.228758 0.269682 146 146 146
-0.300734 -0.231085 0.269721 146 146 146
-0.299098 -0.233340 0.269804 149 149 149
-0.297377 -0.235548 0.269914 151 151 151
-0.295649 -0.237754 0.270027 152 152 152
-0.293813 -0.239901 0.270174 153 153 153
-0.292033 -0.242080 0.270304 154 154 154
-0.290267 -0.244268 0.270428 156 156 156
-0.288416 -0.246411 0.270580 155 155 155
-0.286565 -0.248555 0.270732 155 155 155
-0.284766 -0.250728 0.270866 155 155 155
-0.282958 -0.252898 0.271004 156 156 156
-0.281196 -0.255093 0.271126 156 156 156
-0.279434 -0.257290 0.271248 156 156 156
-0.277671 -0.259487 0.271371 157 157 157
-0.275809 -0.261632 0.271525 157 157 157
-0.273867 -0.263737 0.271705 158 158 158
-0.271723 -0.265735 0.271950 159 159 159
-0.269574 -0.267733 0.272196 160 160 160
-0.267197 -0.269612 0.272516 160 160 160
-0.264758 -0.271462 0.272855 160 160 160
-0.262178 -0.273241 0.273239 160 160 160
-0.259804 -0.275130 0.273557 161 161 161
-0.257338 -0.276974 0.273904 161 161 161
-0.254765 -0.278765 0.274284 161 161 161
-0.252189 -0.280558 0.274666 161 161 161
-0.249543 -0.282318 0.275069 160 160 160
-0.246791 -0.284027 0.275506 161 161 161
-0.244126 -0.285784 0.275914 161 161 161
-0.241496 -0.287562 0.276311 161 161 161
-0.238864 -0.289343 0.276708 161 161 161
-0.236241 -0.291131 0.277101 162 162 162
-0.233569 -0.292898 0.277510 163 163 163
-0.230339 -0.294384 0.278097 164 164 164
-0.227123 -0.295882 0.278679 165 165 165
-0.223901 -0.297382 0.279262 166 166 166
-0.220459 -0.298775 0.279914 168 168 168
-0.216391 -0.299859 0.280766 172 172 172
-0.211556 -0.300564 0.281862 173 173 173
-0.206708 -0.301273 0.282960 174 174 174
-0.201842 -0.301981 0.284063 173 173 173
-0.196891 -0.302656 0.285192 173 173 173
-0.191924 -0.303332 0.286324 174 174 174
-0.186728 -0.303904 0.287528 174 174 174
-0.181359 -0.304401 0.288786 175 175 175
-0.177360 -0.305583 0.289607 173 173 173
-0.173283 -0.306734 0.290451 173 173 173
-0.169422 -0.307998 0.291226 173 173 173
-0.165971 -0.309468 0.291870 173 173 173
-0.162375 -0.310874 0.292559 173 173 173
-0.158421 -0.312110 0.293360 175 175 175
-0.154523 -0.313381 0.294143 178 178 178
-0.150816 -0.314750 0.294865 180 180 180
-0.147248 -0.316192 0.295542 182 182 182
-0.141569 -0.316624 0.296885 186 186 186
-0.135440 -0.316851 0.298370 188 188 188
-0.127327 -0.316140 0.300479 189 189 189
-0.119114 -0.315398 0.302617 190 190 190
-0.104049 -0.311411 0.306914 141 141 141
-0.282693 0.172116 0.328694 130 130 130
-0.288057 0.164575 0.326298 179 179 179
-0.291278 0.158598 0.324654 178 178 178
-0.293758 0.153168 0.323269 178 178 178
-0.296781 0.147362 0.321698 179 179 179
-0.299277 0.141947 0.320312 180 180 180
-0.306258 0.133345 0.317367 182 182 182
-0.315247 0.123342 0.313728 180 180 180
-0.327731 0.110889 0.308878 161 161 161
-0.333585 0.103178 0.306338 151 151 151
-0.337053 0.097176 0.304629 153 153 153
-0.338056 0.092930 0.303777 153 153 153
-0.339333 0.088498 0.302832 153 153 153
-0.339555 0.084815 0.302253 152 152 152
-0.339486 0.081341 0.301776 151 151 151
-0.339273 0.077972 0.301349 150 150 150
-0.339201 0.074509 0.300874 149 149 149
-0.339229 0.070980 0.300365 148 148 148
-0.339269 0.067449 0.299852 147 147 147
-0.339412 0.063850 0.299305 148 148 148
-0.339367 0.060385 0.298823 150 150 150
-0.339513 0.056793 0.298275 151 151 151
-0.339756 0.053141 0.297696 152 152 152
-0.339936 0.049536 0.297139 153 153 153
-0.340106 0.045943 0.296585 153 153 153
-0.340197 0.042408 0.296060 153 153 153
-0.340128 0.038988 0.295590 154 154 154
-0.339938 0.035655 0.295162 155 155 155
-0.339741 0.032329 0.294738 155 155 155
-0.339802 0.028834 0.294225 156 156 156
-0.339862 0.025342 0.293713 157 157 157
-0.339967 0.021826 0.293187 157 157 157
-0.341002 0.017689 0.292343 157 157 157
-0.342072 0.013535 0.291489 157 157 157
-0.343098 0.009419 0.290650 157 157 157
-0.343693 0.005597 0.289959 154 154 154
-0.344250 0.001808 0.289283 152 152 152
-0.344768 -0.001949 0.288620 150 150 150
-0.344682 -0.005300 0.288164 147 147 147
-0.344597 -0.008647 0.287709 146 146 146
-0.344579 -0.012034 0.287232 141 141 141
-0.344414 -0.015321 0.286804 140 140 140
-0.344250 -0.018604 0.286378 139 139 139
-0.344540 -0.022182 0.285797 138 138 138
-0.344354 -0.025442 0.285379 138 138 138
-0.344068 -0.028634 0.284995 138 138 138
-0.343686 -0.031760 0.284644 138 138 138
-0.343241 -0.034841 0.284316 138 138 138
-0.342716 -0.037868 0.284014 138 138 138
-0.342254 -0.040933 0.283692 138 138 138
-0.341793 -0.043996 0.283370 138 138 138
-0.341697 -0.047291 0.282924 138 138 138
-0.341717 -0.050656 0.282441 138 138 138
-0.341736 -0.054017 0.281958 138 138 138
-0.341836 -0.057425 0.281448 138 138 138
-0.342005 -0.060872 0.280916 138 138 138
-0.342146 -0.064298 0.280394 138 138 138
-0.342565 -0.067895 0.279778 138 138 138
-0.343583 -0.071866 0.278962 138 138 138
-0.344609 -0.075836 0.278144 138 138 138
-0.346281 -0.080205 0.277110 138 138 138
-0.348523 -0.084925 0.275886 140 140 140
-0.351263 -0.089945 0.274496 146 146 146
-0.354043 -0.094980 0.273094 146 146 146
-0.356440 -0.099762 0.271823 147 147 147
-0.357752 -0.103856 0.270917 148 148 148
-0.358824 -0.107794 0.270092 150 150 150
-0.359210 -0.111299 0.269498 149 149 149
-0.359023 -0.114444 0.269097 150 150 150
-0.358818 -0.117574 0.268702 151 151 151
-0.358974 -0.120924 0.268187 152 152 152
-0.358903 -0.124129 0.267748 153 153 153
-0.358601 -0.127189 0.267387 154 154 154
-0.358299 -0.130245 0.267026 155 155 155
-0.358030 -0.133319 0.266655 156 156 156
-0.357699 -0.136352 0.266305 156 156 156
-0.357487 -0.139453 0.265916 157 157 157
-0.357294 -0.142563 0.265521 157 157 157
-0.356960 -0.145585 0.265174 157 157 157
-0.356414 -0.148475 0.264897 157 157 157
-0.355892 -0.151378 0.264612 157 157 157
-0.355131 -0.154134 0.264408 157 157 157
-0.354149 -0.156757 0.264276 157 157 157
-0.353111 -0.159345 0.264164 157 157 157
-0.352072 -0.161932 0.264052 156 156 156
-0.350856 -0.164412 0.263999 155 155 155
-0.349537 -0.166830 0.263980 154 154 154
-0.348070 -0.169162 0.264009 154 154 154
-0.346604 -0.171493 0.264039 153 153 153
-0.345261 -0.173898 0.264028 153 153 153
-0.344027 -0.176366 0.263981 153 153 153
-0.342495 -0.178660 0.264032 151 151 151
-0.340925 -0.180931 0.264096 150 150 150
-0.339473 -0.183272 0.264121 148 148 148
-0.338146 -0.185686 0.264104 147 147 147
-0.336695 -0.188028 0.264129 146 146 146
-0.335013 -0.190237 0.264229 145 145 145
-0.333348 -0.192456 0.264323 144 144 144
-0.331712 -0.194692 0.264408 143 143 143
-0.330014 -0.196894 0.264514 143 143 143
-0.328202 -0.199031 0.264656 143 143 143
-0.326361 -0.201153 0.264808 143 143 143
-0.324484 -0.203256 0.264971 143 143 143
-0.322606 -0.205359 0.265135 143 143 143
-0.320727 -0.207464 0.265298 143 143 143
-0.318873 -0.209583 0.265454 142 142 142
-0.316982 -0.211683 0.265621 142 142 142
-0.315097 -0.213789 0.265786 142 142 142
-0.313294 -0.215941 0.265924 142 142 142
-0.311491 -0.218095 0.266062 142 142 142
-0.309842 -0.220336 0.266150 142 142 142
-0.308273 -0.222623 0.266211 142 142 142
-0.306663 -0.224887 0.266286 143 143 143
-0.305053 -0.227151 0.266360 144 144 144
-0.303477 -0.229435 0.266424 144 144 144
-0.302212 -0.231892 0.266386 146 146 146
-0.300591 -0.234152 0.266464 147 147 147
-0.298956 -0.236405 0.266546 149 149 149
-0.297321 -0.238658 0.266629 150 150 150
-0.295616 -0.240875 0.266733 152 152 152
-0.293865 -0.243067 0.266853 153 153 153
-0.292113 -0.245259 0.266973 155 155 155
-0.290296 -0.247417 0.267114 155 155 155
-0.288446 -0.249559 0.267265 155 155 155
-0.286761 -0.251791 0.267363 155 155 155
-0.284933 -0.253946 0.267507 155 155 155
-0.283123 -0.256113 0.267644 155 155 155
-0.281362 -0.258307 0.267766 156 156 156
-0.279600 -0.260501 0.267888 156 156 156
-0.277866 -0.262712 0.268001 157 157 157
-0.275883 -0.264791 0.268194 157 157 157
-0.273899 -0.266871 0.268387 158 158 158
-0.271937 -0.268964 0.268573 158 158 158
-0.269753 -0.270942 0.268830 159 159 159
-0.267144 -0.272698 0.269223 159 159 159
-0.264518 -0.274448 0.269621 160 160 160
-0.262061 -0.276291 0.269964 160 160 160
-0.259725 -0.278199 0.270269 160 160 160
-0.257281 -0.280054 0.270607 160 160 160
-0.254603 -0.281790 0.271020 160 160 160
-0.251818 -0.283474 0.271467 160 160 160
-0.249039 -0.285165 0.271911 160 160 160
-0.246326 -0.286893 0.272334 160 160 160
-0.243586 -0.288611 0.272765 160 160 160
-0.240832 -0.290326 0.273200 161 161 161
-0.238402 -0.292210 0.273531 161 161 161
-0.236037 -0.294130 0.273840 162 162 162
-0.232969 -0.295695 0.274374 163 163 163
-0.229662 -0.297143 0.274983 164 164 164
-0.226405 -0.298621 0.275576 166 166 166
-0.223172 -0.300116 0.276160 167 167 167
-0.219475 -0.301383 0.276891 170 170 170
-0.215298 -0.302414 0.277773 172 172 172
-0.210577 -0.303181 0.278828 173 173 173
-0.205569 -0.303812 0.279973 174 174 174
-0.200341 -0.304344 0.281186 174 174 174
-0.195388 -0.305022 0.282310 174 174 174
-0.190415 -0.305699 0.283440 173 173 173
-0.185322 -0.306327 0.284606 173 173 173
-0.180626 -0.307160 0.285645 173 173 173
-0.176658 -0.308359 0.286452 172 172 172
-0.172871 -0.309654 0.287201 171 171 171
-0.169298 -0.311060 0.287882 171 171 171
-0.165702 -0.312461 0.288569 172 172 172
-0.162101 -0.313864 0.289257 172 172 172
-0.158877 -0.315456 0.289825 174 174 174
-0.155206 -0.316837 0.290533 177 177 177
-0.151649 -0.318278 0.291205 179 179 179
-0.148254 -0.319803 0.291825 180 180 180
-0.144943 -0.321373 0.292418 179 179 179
-0.140432 -0.322374 0.293387 182 182 182
-0.135287 -0.323080 0.294555 183 183 183
-0.130111 -0.323780 0.295731 186 186 186
-0.122842 -0.323496 0.297563 187 187 187
-0.115088 -0.322998 0.299545 189 189 189
-0.103154 -0.320542 0.302837 139 139 139
-0.285065 0.177689 0.325809 132 132 132
-0.290988 0.169722 0.323225 177 177 177
-0.294275 0.163682 0.321561 175 175 175
-0.298029 0.157323 0.319738 175 175 175
-0.302105 0.150747 0.317805 176 176 176
-0.305572 0.144627 0.316086 176 176 176
-0.308926 0.138603 0.314408 173 173 173
-0.313079 0.132023 0.312456 176 176 176
-0.319953 0.123521 0.309563 171 171 171
-0.328326 0.113978 0.306154 161 161 161
-0.336098 0.104893 0.302957 160 160 160
-0.339857 0.098680 0.301154 147 147 147
-0.340724 0.094528 0.300352 146 146 146
-0.341589 0.090385 0.299552 147 147 147
-0.341989 0.086576 0.298914 146 146 146
-0.341775 0.083205 0.298489 146 146 146
-0.341560 0.079837 0.298064 146 146 146
-0.341421 0.076420 0.297614 145 145 145
-0.341463 0.072882 0.297102 144 144 144
-0.341523 0.069335 0.296584 144 144 144
-0.341627 0.065763 0.296052 145 145 145
-0.341407 0.062420 0.295632 146 146 146
-0.341273 0.059021 0.295183 147 147 147
-0.341424 0.055430 0.294637 148 148 148
-0.341825 0.051671 0.294006 150 150 150
-0.342088 0.048013 0.293422 151 151 151
-0.342253 0.044427 0.292874 152 152 152
-0.342183 0.041008 0.292406 152 152 152
-0.342112 0.037592 0.291939 153 153 153
-0.343014 0.033519 0.291140 156 156 156
-0.343055 0.030038 0.290637 156 156 156
-0.343040 0.026599 0.290153 157 157 157
-0.343083 0.023126 0.289650 157 157 157
-0.344051 0.019033 0.288832 157 157 157
-0.345099 0.014893 0.287988 157 157 157
-0.345447 0.011231 0.287383 156 156 156
-0.345999 0.007438 0.286710 153 153 153
-0.346551 0.003651 0.286038 151 151 151
-0.346800 0.000072 0.285469 150 150 150
-0.346653 -0.003239 0.285036 148 148 148
-0.346546 -0.006572 0.284589 145 145 145
-0.346381 -0.009863 0.284164 141 141 141
-0.346125 -0.013090 0.283769 140 140 140
-0.345935 -0.016357 0.283352 139 139 139
-0.345770 -0.019636 0.282928 138 138 138
-0.345667 -0.022953 0.282483 138 138 138
-0.345392 -0.026153 0.282097 138 138 138
-0.345118 -0.029350 0.281711 138 138 138
-0.344766 -0.032493 0.281352 138 138 138
-0.344233 -0.035516 0.281054 138 138 138
-0.343691 -0.038529 0.280760 138 138 138
-0.343216 -0.041583 0.280444 138 138 138
-0.342904 -0.044740 0.280073 138 138 138
-0.342868 -0.048072 0.279609 138 138 138
-0.342883 -0.051431 0.279129 138 138 138
-0.342911 -0.054795 0.278646 138 138 138
-0.343079 -0.058245 0.278115 138 138 138
-0.343576 -0.061900 0.277475 138 138 138
-0.343741 -0.065337 0.276947 138 138 138
-0.344742 -0.069301 0.276139 138 138 138
-0.345784 -0.073284 0.275319 138 138 138
-0.346964 -0.077346 0.274453 138 138 138
-0.349195 -0.082064 0.273237 142 142 142
-0.351500 -0.086818 0.271997 146 146 146
-0.354563 -0.092037 0.270505 147 147 147
-0.357506 -0.097168 0.269055 148 148 148
-0.359604 -0.101758 0.267889 148 148 148
-0.360663 -0.105689 0.267071 149 149 149
-0.361730 -0.109619 0.266252 150 150 150
-0.362101 -0.113110 0.265666 151 151 151
-0.362255 -0.116461 0.265153 152 152 152
-0.362409 -0.119807 0.264641 153 153 153
-0.362376 -0.123034 0.264192 154 154 154
-0.362103 -0.126110 0.263823 155 155 155
-0.361833 -0.129185 0.263453 156 156 156
-0.361564 -0.132256 0.263084 157 157 157
-0.361253 -0.135298 0.262729 157 157 157
-0.360914 -0.138321 0.262384 157 157 157
-0.360560 -0.141332 0.262044 157 157 157
-0.360244 -0.144362 0.261692 158 158 158
-0.359710 -0.147258 0.261412 158 158 158
-0.359322 -0.150239 0.261085 158 158 158
-0.358934 -0.153218 0.260758 158 158 158
-0.358046 -0.155893 0.260597 161 161 161
-0.357036 -0.158494 0.260476 160 160 160
-0.356026 -0.161094 0.260355 160 160 160
-0.354916 -0.163634 0.260268 158 158 158
-0.353593 -0.166045 0.260251 157 157 157
-0.352141 -0.168381 0.260276 156 156 156
-0.350690 -0.170717 0.260301 156 156 156
-0.349238 -0.173053 0.260327 156 156 156
-0.347786 -0.175389 0.260352 155 155 155
-0.346026 -0.177544 0.260479 154 154 154
-0.344155 -0.179636 0.260642 153 153 153
-0.342525 -0.181869 0.260725 152 152 152
-0.340971 -0.184148 0.260784 150 150 150
-0.339619 -0.186545 0.260776 149 149 149
-0.337938 -0.188750 0.260876 148 148 148
-0.336256 -0.190957 0.260976 146 146 146
-0.334576 -0.193165 0.261076 145 145 145
-0.332896 -0.195374 0.261175 144 144 144
-0.331166 -0.197554 0.261291 143 143 143
-0.329328 -0.199675 0.261441 144 144 144
-0.327480 -0.201790 0.261595 144 144 144
-0.325604 -0.203892 0.261758 143 143 143
-0.323740 -0.206001 0.261917 144 144 144
-0.321840 -0.208091 0.262087 144 144 144
-0.319889 -0.210154 0.262274 143 143 143
-0.317977 -0.212240 0.262447 142 142 142
-0.316087 -0.214341 0.262614 142 142 142
-0.314256 -0.216476 0.262761 142 142 142
-0.312532 -0.218672 0.262873 142 142 142
-0.310918 -0.220931 0.262949 143 143 143
-0.309358 -0.223220 0.263007 142 142 142
-0.307810 -0.225516 0.263062 142 142 142
-0.306255 -0.227810 0.263118 141 141 141
-0.304918 -0.230224 0.263105 144 144 144
-0.303653 -0.232678 0.263067 145 145 145
-0.302081 -0.234962 0.263129 147 147 147
-0.300483 -0.237233 0.263200 148 148 148
-0.299075 -0.239609 0.263209 151 151 151
-0.297746 -0.242027 0.263192 152 152 152
-0.295826 -0.244123 0.263367 153 153 153
-0.293943 -0.246242 0.263528 154 154 154
-0.292171 -0.248421 0.263655 155 155 155
-0.290454 -0.250631 0.263763 155 155 155
-0.288842 -0.252899 0.263837 156 156 156
-0.287138 -0.255118 0.263941 156 156 156
-0.285266 -0.257248 0.264099 156 156 156
-0.283395 -0.259379 0.264256 156 156 156
-0.281583 -0.261544 0.264394 156 156 156
-0.279880 -0.263768 0.264497 156 156 156
-0.278068 -0.265935 0.264635 157 157 157
-0.276087 -0.268013 0.264827 157 157 157
-0.274124 -0.270102 0.265012 158 158 158
-0.271937 -0.272074 0.265270 158 158 158
-0.269466 -0.273900 0.265618 158 158 158
-0.266869 -0.275662 0.266006 159 159 159
-0.264277 -0.277430 0.266391 159 159 159
-0.261944 -0.279337 0.266694 159 159 159
-0.259421 -0.281146 0.267057 158 158 158
-0.256804 -0.282911 0.267450 159 159 159
-0.254087 -0.284626 0.267874 159 159 159
-0.251303 -0.286311 0.268318 159 159 159
-0.248568 -0.288025 0.268747 159 159 159
-0.245856 -0.289754 0.269168 159 159 159
-0.243240 -0.291536 0.269558 160 160 160
-0.240735 -0.293378 0.269911 160 160 160
-0.238322 -0.295270 0.270236 162 162 162
-0.235693 -0.297054 0.270628 163 163 163
-0.232369 -0.298489 0.271241 164 164 164
-0.229041 -0.299927 0.271854 165 165 165
-0.225897 -0.301464 0.272408 166 166 166
-0.222710 -0.302983 0.272976 169 169 169
-0.218715 -0.304101 0.273798 171 171 171
