ply
format ascii 1.0
element vertex 1172
property float x
property float y
property float z
property uchar red
property uchar green
property uchar blue
end_header
-0.318887 -0.304188 0.150414 138 138 138
-0.317248 -0.306887 0.150043 138 138 138
-0.315612 -0.309584 0.149672 139 139 139
-0.313990 -0.312303 0.149295 139 139 139
-0.312225 -0.314737 0.148995 139 139 139
-0.310290 -0.316842 0.148786 139 139 139
-0.308321 -0.318878 0.148596 139 139 139
-0.306323 -0.320855 0.148422 138 138 138
-0.304329 -0.322834 0.148246 138 138 138
-0.302267 -0.324684 0.148107 138 138 138
-0.300213 -0.326543 0.147964 138 138 138
-0.298141 -0.328367 0.147831 138 138 138
-0.296059 -0.330171 0.147704 138 138 138
-0.293978 -0.331974 0.147577 138 138 138
-0.291902 -0.333784 0.147447 138 138 138
-0.289829 -0.335597 0.147317 138 138 138
-0.287756 -0.337407 0.147187 138 138 138
-0.285556 -0.338979 0.147123 138 138 138
-0.283357 -0.340552 0.147059 138 138 138
-0.281115 -0.342043 0.147017 138 138 138
-0.278792 -0.343384 0.147017 138 138 138
-0.276501 -0.344785 0.147000 138 138 138
-0.274190 -0.346147 0.146995 138 138 138
-0.271942 -0.347626 0.146956 138 138 138
-0.269597 -0.348927 0.146968 138 138 138
-0.267228 -0.350185 0.146991 138 138 138
-0.264861 -0.351446 0.147013 138 138 138
-0.262511 -0.352739 0.147027 138 138 138
-0.260175 -0.354055 0.147033 138 138 138
-0.257801 -0.355304 0.147059 138 138 138
-0.255463 -0.356619 0.147067 138 138 138
-0.253150 -0.357980 0.147061 138 138 138
-0.250825 -0.359317 0.147062 138 138 138
-0.248488 -0.360635 0.147069 138 138 138
-0.246087 -0.361838 0.147108 138 138 138
-0.243736 -0.363131 0.147121 138 138 138
-0.241413 -0.364473 0.147121 138 138 138
-0.239106 -0.365842 0.147113 138 138 138
-0.236804 -0.367222 0.147103 138 138 138
-0.234467 -0.368539 0.147109 138 138 138
-0.232086 -0.369779 0.147138 138 138 138
-0.229656 -0.370935 0.147190 138 138 138
-0.227226 -0.372090 0.147243 138 138 138
-0.224771 -0.373204 0.147307 138 138 138
-0.222404 -0.374471 0.147328 138 138 138
-0.220033 -0.375731 0.147351 138 138 138
-0.217661 -0.376991 0.147374 138 138 138
-0.215289 -0.378250 0.147398 138 138 138
-0.213020 -0.379689 0.147370 138 138 138
-0.210795 -0.381202 0.147322 138 138 138
-0.208632 -0.382820 0.147244 138 138 138
-0.206648 -0.384743 0.147079 138 138 138
-0.204664 -0.386665 0.146915 138 138 138
-0.203008 -0.389141 0.146593 138 138 138
-0.201580 -0.391999 0.146162 138 138 138
-0.200132 -0.394816 0.145743 138 138 138
-0.198622 -0.397522 0.145355 138 138 138
-0.197192 -0.400355 0.144930 138 138 138
-0.195798 -0.403242 0.144489 139 139 139
-0.194407 -0.406126 0.144049 141 141 141
-0.192708 -0.408488 0.143756 145 145 145
-0.190701 -0.410330 0.143612 147 147 147
-0.188719 -0.412211 0.143456 150 150 150
-0.186626 -0.413905 0.143353 153 153 153
-0.184283 -0.415184 0.143368 155 155 155
-0.181941 -0.416463 0.143384 158 158 158
-0.179614 -0.417767 0.143392 161 161 161
-0.177019 -0.418632 0.143526 163 163 163
-0.174137 -0.419026 0.143795 167 167 167
-0.171180 -0.419300 0.144099 168 168 168
-0.168138 -0.419442 0.144440 168 168 168
-0.165276 -0.419882 0.144697 168 168 168
-0.162823 -0.420993 0.144761 167 167 167
-0.160361 -0.422090 0.144830 167 167 167
-0.157790 -0.423012 0.144949 165 165 165
-0.155680 -0.424682 0.144854 165 165 165
-0.153440 -0.426139 0.144819 163 163 163
-0.151022 -0.427309 0.144867 161 161 161
-0.148602 -0.428478 0.144915 161 161 161
-0.146505 -0.430164 0.144815 159 159 159
-0.144417 -0.431863 0.144710 158 158 158
-0.142282 -0.433486 0.144627 158 158 158
-0.140185 -0.435167 0.144528 157 157 157
-0.137864 -0.436492 0.144531 156 156 156
-0.135535 -0.437802 0.144538 156 156 156
-0.133217 -0.439132 0.144540 156 156 156
-0.130943 -0.440531 0.144522 155 155 155
-0.128669 -0.441929 0.144504 155 155 155
-0.126371 -0.443290 0.144496 158 158 158
-0.123889 -0.444363 0.144573 157 157 157
-0.121168 -0.445063 0.144757 157 157 157
-0.118445 -0.445763 0.144942 157 157 157
-0.115716 -0.446458 0.145128 158 158 158
-0.112871 -0.446975 0.145366 156 156 156
-0.109805 -0.447154 0.145703 154 154 154
-0.106783 -0.447406 0.146019 153 153 153
-0.103757 -0.447659 0.146336 152 152 152
-0.100729 -0.447912 0.146652 151 151 151
-0.097693 -0.448157 0.146971 150 150 150
-0.094548 -0.448242 0.147338 148 148 148
-0.091737 -0.448842 0.147554 145 145 145
-0.088940 -0.449466 0.147764 148 148 148
-0.086008 -0.449888 0.148033 152 152 152
-0.083482 -0.450930 0.148121 148 148 148
-0.080881 -0.451860 0.148242 147 147 147
-0.078280 -0.452791 0.148363 148 148 148
-0.075676 -0.453721 0.148484 149 149 149
-0.072716 -0.454117 0.148763 160 160 160
-0.069628 -0.454326 0.149096 161 161 161
-0.067055 -0.455309 0.149202 159 159 159
-0.064486 -0.456300 0.149306 158 158 158
-0.061916 -0.457292 0.149410 158 158 158
-0.059345 -0.458284 0.149514 157 157 157
-0.056642 -0.459081 0.149676 160 160 160
-0.053664 -0.459475 0.149957 169 169 169
-0.049873 -0.458675 0.150590 173 173 173
-0.045651 -0.457251 0.151407 175 175 175
-0.040918 -0.455088 0.152443 180 180 180
-0.035122 -0.451385 0.153936 182 182 182
-0.029691 -0.448238 0.155266 183 183 183
-0.024866 -0.445994 0.156331 182 182 182
-0.020016 -0.443729 0.157403 182 182 182
-0.015539 -0.442022 0.158311 181 181 181
-0.011121 -0.440416 0.159191 180 180 180
-0.006082 -0.437924 0.160335 180 180 180
-0.002359 -0.437347 0.160912 179 179 179
0.001695 -0.436304 0.161628 179 179 179
0.005741 -0.435282 0.162339 178 178 178
0.009523 -0.434648 0.162936 176 176 176
0.012720 -0.434859 0.163282 175 175 175
0.015919 -0.435073 0.163628 175 175 175
0.019080 -0.435345 0.163956 174 174 174
0.021851 -0.436177 0.164119 173 173 173
0.024546 -0.437118 0.164249 173 173 173
0.027242 -0.438060 0.164379 173 173 173
0.029938 -0.439004 0.164509 172 172 172
0.032549 -0.440070 0.164602 171 171 171
0.034902 -0.441498 0.164587 171 171 171
0.037740 -0.442249 0.164775 170 170 170
0.040778 -0.442721 0.165047 170 170 170
0.043819 -0.443193 0.165319 170 170 170
0.046842 -0.443695 0.165582 170 170 170
0.050158 -0.443794 0.165966 171 171 171
0.054212 -0.442875 0.166656 172 172 172
0.057866 -0.442519 0.167178 173 173 173
0.061766 -0.441833 0.167800 178 178 178
0.066229 -0.440379 0.168653 180 180 180
0.071200 -0.438242 0.169713 181 181 181
0.077479 -0.434326 0.171310 183 183 183
0.084048 -0.430036 0.173021 184 184 184
0.091868 -0.424066 0.175241 180 180 180
0.097695 -0.420841 0.176635 177 177 177
0.104167 -0.416759 0.178291 173 173 173
0.110012 -0.413552 0.179684 172 172 172
0.115477 -0.410877 0.180918 171 171 171
0.120923 -0.408248 0.182140 171 171 171
0.126342 -0.405670 0.183349 173 173 173
0.132540 -0.402065 0.184869 175 175 175
0.138717 -0.398509 0.186377 179 179 179
0.145407 -0.394287 0.188089 187 187 187
0.169783 -0.366477 0.196955 184 184 184
0.175216 -0.364029 0.198138 181 181 181
0.179766 -0.362774 0.198959 178 178 178
0.184594 -0.361161 0.199891 178 178 178
0.188962 -0.360169 0.200635 179 179 179
0.193240 -0.359306 0.201340 180 180 180
0.197694 -0.358224 0.202114 182 182 182
0.202631 -0.356515 0.203079 187 187 187
0.208533 -0.353554 0.204427 191 191 191
-0.353220 0.164493 0.242251 151 151 151
-0.356795 0.147874 0.238313 138 138 138
-0.358536 0.135741 0.235544 138 138 138
-0.359331 0.125931 0.233379 138 138 138
-0.359542 0.117563 0.231590 138 138 138
-0.359637 0.109508 0.229881 138 138 138
-0.386178 0.038800 0.211748 138 138 138
-0.388614 0.025470 0.208642 138 138 138
-0.404339 -0.019115 0.197332 138 138 138
-0.405380 -0.028944 0.195133 138 138 138
-0.405754 -0.037158 0.193357 138 138 138
-0.406198 -0.045499 0.191545 138 138 138
-0.407955 -0.056862 0.188936 138 138 138
-0.409404 -0.067449 0.186528 138 138 138
-0.411138 -0.078647 0.183957 138 138 138
-0.412775 -0.089565 0.181457 138 138 138
-0.413688 -0.098759 0.179408 138 138 138
-0.413907 -0.106316 0.177788 138 138 138
-0.413799 -0.113091 0.176374 138 138 138
-0.413250 -0.118827 0.175231 138 138 138
-0.412168 -0.123324 0.174415 138 138 138
-0.411069 -0.127765 0.173613 138 138 138
-0.410059 -0.132392 0.172760 138 138 138
-0.409100 -0.137115 0.171882 138 138 138
-0.408403 -0.142410 0.170851 138 138 138
-0.408034 -0.148418 0.169629 138 138 138
-0.407802 -0.154710 0.168331 138 138 138
-0.407224 -0.160200 0.167245 138 138 138
-0.405801 -0.163785 0.166662 138 138 138
-0.404182 -0.166925 0.166197 138 138 138
-0.402622 -0.170182 0.165701 138 138 138
-0.400990 -0.173274 0.165248 138 138 138
-0.399283 -0.176189 0.164841 138 138 138
-0.397614 -0.179178 0.164414 138 138 138
-0.396140 -0.182587 0.163875 138 138 138
-0.394676 -0.186007 0.163332 138 138 138
-0.393108 -0.189188 0.162853 138 138 138
-0.391620 -0.192535 0.162328 138 138 138
-0.390025 -0.195636 0.161869 138 138 138
-0.388426 -0.198723 0.161413 138 138 138
-0.386771 -0.201677 0.160991 138 138 138
-0.384962 -0.204291 0.160661 138 138 138
-0.383271 -0.207153 0.160263 138 138 138
-0.381554 -0.209953 0.159882 138 138 138
-0.379837 -0.212741 0.159503 138 138 138
-0.378184 -0.215661 0.159089 138 138 138
-0.376563 -0.218638 0.158659 138 138 138
-0.374943 -0.221610 0.158230 138 138 138
-0.373367 -0.224665 0.157777 138 138 138
-0.371726 -0.227575 0.157364 138 138 138
-0.370122 -0.230554 0.156931 138 138 138
-0.368511 -0.233512 0.156504 138 138 138
-0.366865 -0.236385 0.156099 138 138 138
-0.365168 -0.239145 0.155723 138 138 138
-0.363473 -0.241903 0.155348 138 138 138
-0.361888 -0.244880 0.154914 138 138 138
-0.360361 -0.247968 0.154449 138 138 138
-0.358767 -0.250909 0.154023 138 138 138
-0.357155 -0.253805 0.153609 138 138 138
-0.355493 -0.256590 0.153224 138 138 138
-0.353833 -0.259372 0.152839 138 138 138
-0.352123 -0.262045 0.152484 138 138 138
-0.350367 -0.264617 0.152156 138 138 138
-0.348571 -0.267103 0.151850 138 138 138
-0.346905 -0.269845 0.151475 138 138 138
-0.345199 -0.272497 0.151124 138 138 138
-0.343458 -0.275075 0.150792 138 138 138
-0.341675 -0.277560 0.150486 138 138 138
-0.339893 -0.280042 0.150179 138 138 138
-0.338113 -0.282521 0.149873 138 138 138
-0.336183 -0.284698 0.149649 138 138 138
-0.334200 -0.286763 0.149455 138 138 138
-0.332217 -0.288827 0.149261 138 138 138
-0.330215 -0.290848 0.149079 138 138 138
-0.328206 -0.292852 0.148901 138 138 138
-0.326371 -0.295196 0.148631 138 138 138
-0.324589 -0.297637 0.148333 138 138 138
-0.322809 -0.300076 0.148035 138 138 138
-0.321039 -0.302529 0.147734 138 138 138
-0.319397 -0.305226 0.147365 138 138 138
-0.317774 -0.307952 0.146988 138 138 138
-0.316153 -0.310675 0.146611 138 138 138
-0.314482 -0.313295 0.146263 138 138 138
-0.312547 -0.315400 0.146054 138 138 138
-0.310613 -0.317504 0.145846 138 138 138
-0.308680 -0.319605 0.145639 138 138 138
-0.306752 -0.321713 0.145429 138 138 138
-0.304702 -0.323582 0.145285 138 138 138
-0.302647 -0.325442 0.145143 138 138 138
-0.300594 -0.327300 0.145001 138 138 138
-0.298529 -0.329136 0.144865 138 138 138
-0.296448 -0.330938 0.144738 138 138 138
-0.294368 -0.332740 0.144612 138 138 138
-0.292288 -0.334539 0.144486 138 138 138
-0.290209 -0.336338 0.144360 138 138 138
-0.288045 -0.337975 0.144278 138 138 138
-0.285794 -0.339451 0.144241 138 138 138
-0.283545 -0.340927 0.144203 138 138 138
-0.281242 -0.342305 0.144193 138 138 138
-0.278873 -0.343559 0.144217 138 138 138
-0.276585 -0.344964 0.144199 138 138 138
-0.274297 -0.346369 0.144182 138 138 138
-0.271964 -0.347690 0.144187 138 138 138
-0.269599 -0.348952 0.144209 138 138 138
-0.267233 -0.350213 0.144231 138 138 138
-0.264875 -0.351490 0.144249 138 138 138
-0.262527 -0.352784 0.144262 138 138 138
-0.260190 -0.354101 0.144269 138 138 138
-0.257854 -0.355417 0.144276 138 138 138
-0.255554 -0.356800 0.144264 138 138 138
-0.253243 -0.358161 0.144258 138 138 138
-0.250918 -0.359498 0.144260 138 138 138
-0.248523 -0.360711 0.144295 138 138 138
-0.246119 -0.361906 0.144336 138 138 138
-0.243769 -0.363198 0.144349 138 138 138
-0.241421 -0.364496 0.144362 138 138 138
-0.239090 -0.365823 0.144365 138 138 138
-0.236789 -0.367203 0.144355 138 138 138
-0.234453 -0.368522 0.144361 138 138 138
-0.232040 -0.369705 0.144405 138 138 138
-0.229610 -0.370860 0.144458 138 138 138
-0.227238 -0.372115 0.144482 138 138 138
-0.224881 -0.373399 0.144498 138 138 138
-0.222460 -0.374571 0.144545 138 138 138
-0.220089 -0.375830 0.144569 138 138 138
-0.217718 -0.377089 0.144592 138 138 138
-0.215407 -0.378454 0.144585 138 138 138
-0.213183 -0.379967 0.144537 138 138 138
-0.211015 -0.381577 0.144462 138 138 138
-0.208901 -0.383279 0.144360 138 138 138
-0.206805 -0.385007 0.144251 138 138 138
-0.204786 -0.386866 0.144105 138 138 138
-0.203268 -0.389577 0.143718 138 138 138
-0.201755 -0.392288 0.143331 138 138 138
-0.200244 -0.394997 0.142944 138 138 138
-0.198744 -0.397719 0.142553 138 138 138
-0.197349 -0.400610 0.142113 138 138 138
-0.195956 -0.403496 0.141674 139 139 139
-0.194687 -0.406585 0.141178 141 141 141
-0.193151 -0.409217 0.140810 143 143 143
-0.191414 -0.411508 0.140538 145 145 145
-0.189470 -0.413449 0.140366 148 148 148
-0.187285 -0.414986 0.140308 150 150 150
-0.185002 -0.416361 0.140296 153 153 153
-0.182726 -0.417745 0.140281 157 157 157
-0.180310 -0.418899 0.140332 159 159 159
-0.177887 -0.420042 0.140385 161 161 161
-0.175226 -0.420794 0.140551 164 164 164
-0.172372 -0.421234 0.140805 166 166 166
-0.169444 -0.421556 0.141094 166 166 166
-0.166587 -0.422000 0.141348 166 166 166
-0.164138 -0.423110 0.141412 165 165 165
-0.161687 -0.424221 0.141476 166 166 166
-0.159214 -0.425295 0.141550 163 163 163
-0.156774 -0.426424 0.141610 162 162 162
-0.154358 -0.427592 0.141657 161 161 161
-0.151941 -0.428761 0.141705 160 160 160
-0.149524 -0.429929 0.141753 160 160 160
-0.147381 -0.431538 0.141675 158 158 158
-0.145295 -0.433236 0.141571 157 157 157
-0.143180 -0.434885 0.141481 156 156 156
-0.140877 -0.436235 0.141476 154 154 154
-0.138555 -0.437555 0.141481 154 154 154
-0.136226 -0.438864 0.141488 154 154 154
-0.133898 -0.440174 0.141495 154 154 154
-0.131625 -0.441571 0.141477 154 154 154
-0.129353 -0.442969 0.141459 153 153 153
-0.126989 -0.444224 0.141482 153 153 153
-0.124326 -0.445010 0.141641 155 155 155
-0.121630 -0.445747 0.141814 156 156 156
-0.118908 -0.446447 0.141997 156 156 156
-0.116185 -0.447148 0.142181 157 157 157
-0.113360 -0.447693 0.142410 155 155 155
-0.110165 -0.447670 0.142803 155 155 155
-0.106860 -0.447484 0.143245 153 153 153
-0.103783 -0.447656 0.143583 151 151 151
-0.100755 -0.447908 0.143898 150 150 150
-0.097640 -0.448033 0.144251 149 149 149
-0.094444 -0.448038 0.144639 147 147 147
-0.091532 -0.448483 0.144899 143 143 143
-0.088691 -0.449040 0.145128 139 139 139
-0.085989 -0.449812 0.145294 143 143 143
-0.083379 -0.450725 0.145419 148 148 148
-0.080786 -0.451668 0.145536 149 149 149
-0.078192 -0.452609 0.145653 150 150 150
-0.075589 -0.453540 0.145773 152 152 152
-0.072986 -0.454470 0.145894 153 153 153
-0.070280 -0.455250 0.146059 155 155 155
-0.067637 -0.456127 0.146196 153 153 153
-0.064932 -0.456913 0.146359 152 152 152
-0.062226 -0.457700 0.146523 151 151 151
-0.059507 -0.458470 0.146691 150 150 150
-0.056869 -0.459362 0.146824 154 154 154
-0.054194 -0.460203 0.146973 158 158 158
-0.051064 -0.460374 0.147317 169 169 169
-0.047137 -0.459379 0.148005 172 172 172
-0.043014 -0.458105 0.148775 174 174 174
-0.038698 -0.456562 0.149626 179 179 179
-0.032524 -0.452316 0.151272 183 183 183
-0.028057 -0.450585 0.152180 184 184 184
-0.023553 -0.448812 0.153102 183 183 183
-0.018016 -0.445555 0.154462 184 184 184
-0.012656 -0.442575 0.155743 182 182 182
-0.008164 -0.440868 0.156649 181 181 181
-0.004201 -0.439937 0.157327 180 180 180
-0.000478 -0.439363 0.157902 180 180 180
0.003413 -0.438556 0.158545 179 179 179
0.007010 -0.438178 0.159062 177 177 177
0.010201 -0.438390 0.159406 177 177 177
0.013395 -0.438602 0.159750 176 176 176
0.016592 -0.438815 0.160094 177 177 177
0.019631 -0.439257 0.160371 175 175 175
0.022279 -0.440258 0.160482 174 174 174
0.024927 -0.441260 0.160593 173 173 173
0.027576 -0.442262 0.160704 172 172 172
0.030226 -0.443265 0.160815 171 171 171
0.032815 -0.444354 0.160901 171 171 171
0.035290 -0.445605 0.160938 170 170 170
0.038554 -0.445754 0.161304 170 170 170
0.042345 -0.445173 0.161888 169 169 169
0.045422 -0.445593 0.162174 169 169 169
0.048654 -0.445803 0.162523 169 169 169
0.052518 -0.445143 0.163132 171 171 171
0.056405 -0.444460 0.163749 171 171 171
0.060019 -0.444161 0.164252 175 175 175
0.064448 -0.442749 0.165088 177 177 177
0.068915 -0.441297 0.165938 180 180 180
0.073789 -0.439300 0.166952 181 181 181
0.080686 -0.434550 0.168792 183 183 183
0.088566 -0.428487 0.171029 183 183 183
0.096096 -0.422933 0.173116 180 180 180
0.103499 -0.417580 0.175145 175 175 175
0.109712 -0.413870 0.176683 171 171 171
0.115212 -0.411148 0.177926 170 170 170
0.120592 -0.408605 0.179117 170 170 170
0.125794 -0.406318 0.180232 171 171 171
0.131314 -0.403621 0.181472 173 173 173
0.137551 -0.399980 0.182998 177 177 177
0.143810 -0.396332 0.184529 183 183 183
0.166089 -0.371314 0.192513 187 187 187
0.172770 -0.367193 0.194194 184 184 184
0.177526 -0.365655 0.195097 179 179 179
0.182042 -0.364448 0.195901 178 178 178
0.187022 -0.362639 0.196888 178 178 178
0.190897 -0.362303 0.197431 179 179 179
0.195011 -0.361659 0.198067 181 181 181
0.199464 -0.360580 0.198836 183 183 183
0.204193 -0.359148 0.199714 186 186 186
-0.354378 0.169574 0.239990 153 153 153
-0.356416 0.156611 0.237023 138 138 138
-0.359084 0.142197 0.233675 138 138 138
-0.359924 0.132244 0.231485 138 138 138
-0.360356 0.123315 0.229559 138 138 138
-0.360435 0.115269 0.227861 138 138 138
-0.383830 0.051833 0.211716 138 138 138
-0.387683 0.035076 0.207733 138 138 138
-0.404490 -0.012210 0.195775 138 138 138
-0.406503 -0.024365 0.192980 138 138 138
-0.406936 -0.032746 0.191169 138 138 138
-0.407245 -0.040798 0.189442 138 138 138
-0.408006 -0.049868 0.187447 138 138 138
-0.410267 -0.062388 0.184546 138 138 138
-0.411920 -0.073433 0.182028 139 139 139
-0.413571 -0.084420 0.179523 138 138 138
-0.414416 -0.093490 0.177517 138 138 138
-0.414815 -0.101490 0.175790 138 138 138
-0.414946 -0.108833 0.174233 138 138 138
-0.414211 -0.114164 0.173204 138 138 138
-0.413399 -0.119294 0.172226 138 138 138
-0.412070 -0.123226 0.171562 138 138 138
-0.410971 -0.127667 0.170763 138 138 138
-0.409971 -0.132316 0.169909 138 138 138
-0.409016 -0.137045 0.169032 138 138 138
-0.408338 -0.142382 0.167994 138 138 138
-0.408220 -0.148955 0.166629 138 138 138
-0.407938 -0.155129 0.165368 138 138 138
-0.407427 -0.160768 0.164247 138 138 138
-0.405839 -0.163983 0.163764 138 138 138
-0.404285 -0.167264 0.163264 138 138 138
-0.402733 -0.170539 0.162765 138 138 138
-0.401039 -0.173491 0.162351 138 138 138
-0.399389 -0.176529 0.161913 138 138 138
-0.397798 -0.179690 0.161443 138 138 138
-0.396325 -0.183098 0.160906 138 138 138
-0.394878 -0.186551 0.160357 138 138 138
-0.393417 -0.189962 0.159818 138 138 138
-0.391856 -0.193147 0.159339 138 138 138
-0.390197 -0.196109 0.158918 138 138 138
-0.388540 -0.199066 0.158499 138 138 138
-0.386846 -0.201933 0.158102 138 138 138
-0.384989 -0.204445 0.157800 138 138 138
-0.383222 -0.207141 0.157448 138 138 138
-0.381534 -0.210001 0.157053 138 138 138
-0.379905 -0.212978 0.156625 138 138 138
-0.378296 -0.215987 0.156189 138 138 138
-0.376674 -0.218962 0.155761 138 138 138
-0.375147 -0.222127 0.155282 138 138 138
-0.373520 -0.225073 0.154861 138 138 138
-0.371920 -0.228067 0.154427 138 138 138
-0.370313 -0.231037 0.153998 138 138 138
-0.368727 -0.234044 0.153559 138 138 138
-0.367158 -0.237075 0.153113 138 138 138
-0.365590 -0.240102 0.152668 138 138 138
-0.364003 -0.243079 0.152236 138 138 138
-0.362405 -0.246026 0.151811 138 138 138
-0.360810 -0.248968 0.151387 138 138 138
-0.359216 -0.251907 0.150963 138 138 138
-0.357560 -0.254708 0.150576 138 138 138
-0.355898 -0.257491 0.150194 138 138 138
-0.354218 -0.260227 0.149823 138 138 138
-0.352512 -0.262904 0.149468 138 138 138
-0.350826 -0.265617 0.149103 138 138 138
-0.349114 -0.268268 0.148754 138 138 138
-0.347337 -0.270781 0.148442 138 138 138
-0.345604 -0.273376 0.148108 138 138 138
-0.343819 -0.275861 0.147802 138 138 138
-0.341991 -0.278253 0.147522 138 138 138
-0.340151 -0.280618 0.147248 138 138 138
-0.338305 -0.282962 0.146980 138 138 138
-0.336432 -0.285250 0.146727 138 138 138
-0.334521 -0.287457 0.146495 138 138 138
-0.332554 -0.289548 0.146295 138 138 138
-0.330559 -0.291580 0.146110 138 138 138
-0.328647 -0.293772 0.145882 138 138 138
-0.326864 -0.296214 0.145585 138 138 138
-0.325074 -0.298637 0.145294 138 138 138
-0.323257 -0.301000 0.145018 138 138 138
-0.321551 -0.303575 0.144685 138 138 138
-0.319933 -0.306314 0.144306 138 138 138
-0.318316 -0.309047 0.143928 138 138 138
-0.316696 -0.311768 0.143554 138 138 138
-0.314804 -0.313959 0.143323 138 138 138
-0.312878 -0.316078 0.143112 138 138 138
-0.310957 -0.318203 0.142899 138 138 138
-0.309037 -0.320327 0.142685 138 138 138
-0.307033 -0.322286 0.142517 138 138 138
-0.305025 -0.324236 0.142351 138 138 138
-0.303019 -0.326185 0.142185 138 138 138
-0.300974 -0.328056 0.142040 138 138 138
-0.298917 -0.329903 0.141902 138 138 138
-0.296837 -0.331705 0.141776 138 138 138
-0.294757 -0.333504 0.141650 138 138 138
-0.292692 -0.335327 0.141518 138 138 138
-0.290611 -0.337119 0.141394 138 138 138
-0.288286 -0.338454 0.141396 138 138 138
-0.285973 -0.339812 0.141391 138 138 138
-0.283699 -0.341241 0.141367 138 138 138
-0.281329 -0.342491 0.141391 138 138 138
-0.278958 -0.343742 0.141416 138 138 138
-0.276666 -0.345138 0.141401 138 138 138
-0.274375 -0.346535 0.141385 138 138 138
-0.272009 -0.347795 0.141408 138 138 138
-0.269603 -0.348982 0.141450 138 138 138
-0.267240 -0.350247 0.141471 138 138 138
-0.264890 -0.351537 0.141485 138 138 138
-0.262542 -0.352830 0.141498 138 138 138
-0.260206 -0.354146 0.141505 138 138 138
-0.257902 -0.355520 0.141496 138 138 138
-0.255615 -0.356925 0.141478 138 138 138
-0.253329 -0.358330 0.141460 138 138 138
-0.250974 -0.359612 0.141476 138 138 138
-0.248556 -0.360781 0.141524 138 138 138
-0.246151 -0.361974 0.141565 138 138 138
-0.243801 -0.363266 0.141579 138 138 138
-0.241462 -0.364579 0.141586 138 138 138
-0.239124 -0.365893 0.141594 138 138 138
-0.236787 -0.367207 0.141602 138 138 138
-0.234430 -0.368487 0.141618 138 138 138
-0.232072 -0.369767 0.141635 138 138 138
-0.229715 -0.371048 0.141652 138 138 138
-0.227363 -0.372338 0.141666 138 138 138
-0.225023 -0.373649 0.141675 138 138 138
-0.222596 -0.374810 0.141725 138 138 138
-0.220169 -0.375970 0.141776 138 138 138
-0.217793 -0.377220 0.141801 138 138 138
-0.215622 -0.378824 0.141728 138 138 138
-0.213458 -0.380441 0.141651 138 138 138
-0.211320 -0.382098 0.141562 138 138 138
-0.209223 -0.383827 0.141453 138 138 138
-0.207162 -0.385614 0.141328 138 138 138
-0.205226 -0.387612 0.141143 138 138 138
-0.203456 -0.389891 0.140879 138 138 138
-0.201866 -0.392470 0.140531 138 138 138
-0.200355 -0.395178 0.140146 138 138 138
-0.198901 -0.397975 0.139735 138 138 138
-0.197577 -0.400985 0.139264 138 138 138
-0.196419 -0.404266 0.138716 138 138 138
-0.195145 -0.407343 0.138224 140 140 140
-0.193407 -0.409634 0.137954 142 142 142
-0.191670 -0.411923 0.137684 144 144 144
-0.190071 -0.414437 0.137351 146 146 146
-0.188150 -0.416409 0.137169 150 150 150
-0.185817 -0.417697 0.137182 153 153 153
-0.183404 -0.418850 0.137232 155 155 155
-0.180990 -0.420003 0.137283 157 157 157
-0.178575 -0.421157 0.137333 159 159 159
-0.176031 -0.422098 0.137444 162 162 162
-0.173385 -0.422874 0.137602 164 164 164
-0.170747 -0.423666 0.137755 164 164 164
-0.167896 -0.424114 0.138006 164 164 164
-0.165440 -0.425207 0.138075 163 163 163
-0.162811 -0.426022 0.138222 162 162 162
-0.160181 -0.426836 0.138370 161 161 161
-0.157727 -0.427938 0.138436 161 161 161
-0.155290 -0.429069 0.138494 160 160 160
-0.152859 -0.430210 0.138549 160 160 160
-0.150444 -0.431378 0.138596 159 159 159
-0.148256 -0.432909 0.138540 158 158 158
-0.146111 -0.434510 0.138464 156 156 156
-0.143846 -0.435917 0.138443 154 154 154
-0.141536 -0.437252 0.138443 154 154 154
-0.139226 -0.438587 0.138443 153 153 153
-0.136918 -0.439925 0.138441 152 152 152
-0.134591 -0.441234 0.138449 152 152 152
-0.132307 -0.442611 0.138437 152 152 152
-0.129917 -0.443821 0.138472 152 152 152
-0.127388 -0.444813 0.138570 152 152 152
-0.124772 -0.445671 0.138707 153 153 153
-0.122100 -0.446442 0.138869 153 153 153
-0.119371 -0.447130 0.139055 155 155 155
-0.116650 -0.447830 0.139238 156 156 156
-0.113820 -0.448367 0.139468 154 154 154
-0.110575 -0.448264 0.139883 155 155 155
-0.107149 -0.447889 0.140377 154 154 154
-0.103914 -0.447815 0.140784 152 152 152
-0.100780 -0.447903 0.141145 150 150 150
-0.097588 -0.447909 0.141531 148 148 148
-0.094392 -0.447914 0.141917 147 147 147
-0.091354 -0.448166 0.142232 144 144 144
-0.088513 -0.448723 0.142460 139 139 139
-0.085737 -0.449383 0.142657 138 138 138
-0.083114 -0.450277 0.142787 140 140 140
-0.080529 -0.451230 0.142901 143 143 143
-0.077936 -0.452173 0.143017 146 146 146
-0.075341 -0.453116 0.143133 147 147 147
-0.072746 -0.454060 0.143250 149 149 149
-0.070225 -0.455116 0.143334 147 147 147
-0.067718 -0.456195 0.143411 146 146 146
-0.065020 -0.456990 0.143571 144 144 144
-0.062304 -0.457761 0.143738 144 144 144
-0.059566 -0.458503 0.143914 147 147 147
-0.056973 -0.459461 0.144027 150 150 150
-0.054414 -0.460472 0.144125 153 153 153
-0.051617 -0.461132 0.144325 159 159 159
-0.048464 -0.461273 0.144678 168 168 168
-0.044401 -0.460083 0.145420 171 171 171
-0.040983 -0.459849 0.145883 174 174 174
-0.037779 -0.459935 0.146253 176 176 176
-0.030882 -0.454642 0.148199 185 185 185
-0.026425 -0.452928 0.149099 186 186 186
-0.022145 -0.451486 0.149920 184 184 184
-0.016902 -0.448660 0.151148 184 184 184
-0.011619 -0.445796 0.152389 183 183 183
-0.006745 -0.443540 0.153453 181 181 181
-0.003016 -0.442948 0.154029 180 180 180
0.000676 -0.442417 0.154588 180 180 180
0.004376 -0.441884 0.155148 180 180 180
0.007559 -0.442096 0.155489 179 179 179
0.010674 -0.442412 0.155800 178 178 178
0.013792 -0.442729 0.156111 177 177 177
0.016912 -0.443046 0.156423 177 177 177
0.019946 -0.443490 0.156697 174 174 174
0.022814 -0.444174 0.156901 173 173 173
0.025459 -0.445175 0.157011 172 172 172
0.028086 -0.446201 0.157114 171 171 171
0.030572 -0.447429 0.157158 170 170 170
0.033408 -0.448166 0.157347 168 168 168
0.036804 -0.448124 0.157767 168 168 168
0.039999 -0.448368 0.158103 168 168 168
0.043689 -0.447929 0.158642 168 168 168
0.047612 -0.447172 0.159276 168 168 168
0.051549 -0.446407 0.159913 168 168 168
0.055326 -0.445871 0.160483 170 170 170
0.058849 -0.445695 0.160947 169 169 169
0.062812 -0.444921 0.161590 173 173 173
0.067003 -0.443842 0.162324 175 175 175
0.071446 -0.442429 0.163159 177 177 177
0.077460 -0.438879 0.164632 182 182 182
0.084996 -0.433273 0.166721 184 184 184
0.093890 -0.425850 0.169356 183 183 183
0.102944 -0.418248 0.172049 177 177 177
0.109384 -0.414228 0.173672 172 172 172
0.114945 -0.411420 0.174935 170 170 170
0.120261 -0.408962 0.176095 170 170 170
0.125459 -0.406680 0.177204 171 171 171
0.130675 -0.404390 0.178316 172 172 172
0.136325 -0.401532 0.179600 175 175 175
0.142639 -0.397806 0.181147 181 181 181
0.151532 -0.390658 0.183724 187 187 187
0.169869 -0.370964 0.190078 185 185 185
0.175264 -0.368567 0.191235 180 180 180
0.179800 -0.367326 0.192044 180 180 180
0.184317 -0.366122 0.192844 179 179 179
0.188769 -0.365016 0.193616 178 178 178
0.192834 -0.364431 0.194231 179 179 179
0.196781 -0.364010 0.194797 181 181 181
0.201379 -0.362741 0.195621 184 184 184
0.206102 -0.361321 0.196491 187 187 187
-0.356007 0.173531 0.237430 105 105 105
-0.357160 0.162669 0.235022 138 138 138
-0.358564 0.151256 0.232469 138 138 138
-0.360192 0.139363 0.229788 138 138 138
-0.360959 0.129593 0.227654 138 138 138
-0.361267 0.120970 0.225816 138 138 138
-0.361100 0.113520 0.224280 138 138 138
-0.387493 0.042966 0.206358 138 138 138
-0.389540 0.030520 0.203511 138 138 138
-0.407544 -0.019579 0.190874 138 138 138
-0.408081 -0.028233 0.189002 138 138 138
-0.408404 -0.036344 0.187268 138 138 138
-0.408722 -0.044405 0.185546 138 138 138
-0.410494 -0.055823 0.182947 138 138 138
-0.412725 -0.068257 0.180081 138 138 138
-0.414342 -0.079200 0.177599 138 138 138
-0.415230 -0.088400 0.175571 138 138 138
-0.415935 -0.097133 0.173661 138 138 138
-0.415940 -0.104213 0.172182 138 138 138
-0.415470 -0.110168 0.170994 138 138 138
-0.414600 -0.115184 0.170052 138 138 138
-0.413443 -0.119522 0.169285 138 138 138
-0.411971 -0.123128 0.168709 138 138 138
-0.410873 -0.127568 0.167914 138 138 138
-0.409904 -0.132286 0.167045 138 138 138
-0.408844 -0.136778 0.166235 138 138 138
-0.408308 -0.142435 0.165117 138 138 138
-0.408266 -0.149176 0.163715 138 138 138
-0.408008 -0.155404 0.162444 138 138 138
-0.407396 -0.160813 0.161388 138 138 138
-0.406018 -0.164495 0.160785 138 138 138
-0.404423 -0.167682 0.160312 138 138 138
-0.402815 -0.170831 0.159848 138 138 138
-0.401182 -0.173915 0.159401 138 138 138
-0.399551 -0.176994 0.158954 138 138 138
-0.397985 -0.180205 0.158473 138 138 138
-0.396535 -0.183662 0.157925 138 138 138
-0.395088 -0.187113 0.157379 138 138 138
-0.393630 -0.190528 0.156841 138 138 138
-0.391969 -0.193492 0.156422 138 138 138
-0.390310 -0.196452 0.156004 138 138 138
-0.388654 -0.199408 0.155586 138 138 138
-0.386873 -0.202087 0.155241 138 138 138
-0.385017 -0.204598 0.154941 138 138 138
-0.383173 -0.207129 0.154635 138 138 138
-0.381486 -0.209988 0.154241 138 138 138
-0.379896 -0.213048 0.153793 138 138 138
-0.378331 -0.216152 0.153334 138 138 138
-0.376765 -0.219242 0.152877 138 138 138
-0.375318 -0.222574 0.152356 138 138 138
-0.373716 -0.225571 0.151923 138 138 138
-0.372116 -0.228563 0.151490 138 138 138
-0.370514 -0.231541 0.151062 138 138 138
-0.368943 -0.234575 0.150617 138 138 138
-0.367379 -0.237617 0.150170 138 138 138
-0.365838 -0.240696 0.149713 138 138 138
-0.364314 -0.243802 0.149248 138 138 138
-0.362796 -0.246909 0.148782 138 138 138
-0.361258 -0.249968 0.148329 138 138 138
-0.359625 -0.252821 0.147930 138 138 138
-0.357926 -0.255532 0.147568 138 138 138
-0.356229 -0.258239 0.147207 138 138 138
-0.354535 -0.260943 0.146847 138 138 138
-0.352814 -0.263587 0.146502 138 138 138
-0.351129 -0.266298 0.146139 138 138 138
-0.349341 -0.268793 0.145833 138 138 138
-0.347680 -0.271538 0.145460 138 138 138
-0.345863 -0.273962 0.145173 138 138 138
-0.344021 -0.276329 0.144901 138 138 138
-0.342181 -0.278695 0.144628 138 138 138
-0.340342 -0.281059 0.144356 138 138 138
-0.338479 -0.283369 0.144098 138 138 138
-0.336613 -0.285668 0.143843 138 138 138
-0.334723 -0.287913 0.143602 138 138 138
-0.332814 -0.290118 0.143372 138 138 138
-0.330928 -0.292363 0.143130 138 138 138
-0.329103 -0.294724 0.142857 138 138 138
-0.327284 -0.297089 0.142583 138 138 138
-0.325465 -0.299453 0.142308 138 138 138
-0.323698 -0.301910 0.142008 138 138 138
-0.322078 -0.304649 0.141631 138 138 138
-0.320460 -0.307385 0.141255 138 138 138
-0.318776 -0.309985 0.140915 138 138 138
-0.317005 -0.312410 0.140622 138 138 138
-0.315161 -0.314690 0.140368 138 138 138
-0.313239 -0.316816 0.140156 138 138 138
-0.311319 -0.318940 0.139944 138 138 138
-0.309344 -0.320954 0.139761 138 138 138
-0.307323 -0.322880 0.139602 138 138 138
-0.305317 -0.324829 0.139437 138 138 138
-0.303312 -0.326777 0.139272 138 138 138
-0.301308 -0.328725 0.139107 138 138 138
-0.299303 -0.330668 0.138943 138 138 138
-0.297243 -0.332502 0.138808 138 138 138
-0.295185 -0.334340 0.138672 138 138 138
-0.293128 -0.336177 0.138537 138 138 138
-0.290911 -0.337710 0.138484 138 138 138
-0.288587 -0.339045 0.138485 138 138 138
-0.286269 -0.340390 0.138484 138 138 138
-0.283816 -0.341485 0.138551 138 138 138
-0.281415 -0.342678 0.138591 138 138 138
-0.279046 -0.343928 0.138616 138 138 138
-0.276748 -0.345313 0.138604 138 138 138
-0.274446 -0.346688 0.138594 138 138 138
-0.272075 -0.347938 0.138619 138 138 138
-0.269670 -0.349124 0.138661 138 138 138
-0.267264 -0.350310 0.138704 138 138 138
-0.264905 -0.351584 0.138722 138 138 138
-0.262557 -0.352875 0.138735 138 138 138
-0.260239 -0.354224 0.138733 138 138 138
-0.257953 -0.355629 0.138715 138 138 138
-0.255644 -0.356991 0.138709 138 138 138
-0.253320 -0.358327 0.138711 138 138 138
-0.250947 -0.359577 0.138736 138 138 138
-0.248589 -0.360852 0.138754 138 138 138
-0.246183 -0.362042 0.138795 138 138 138
-0.243841 -0.363348 0.138805 138 138 138
-0.241504 -0.364662 0.138812 138 138 138
-0.239130 -0.365911 0.138838 138 138 138
-0.236756 -0.367161 0.138863 138 138 138
-0.234474 -0.368572 0.138843 138 138 138
-0.232191 -0.369981 0.138824 138 138 138
-0.229834 -0.371261 0.138841 138 138 138
-0.227496 -0.372575 0.138849 138 138 138
-0.225160 -0.373891 0.138856 138 138 138
-0.222739 -0.375059 0.138904 138 138 138
-0.220312 -0.376219 0.138954 138 138 138
-0.218103 -0.377756 0.138899 138 138 138
-0.215904 -0.379311 0.138840 138 138 138
-0.213738 -0.380921 0.138765 138 138 138
-0.211690 -0.382732 0.138633 138 138 138
-0.209720 -0.384675 0.138465 138 138 138
-0.207777 -0.386662 0.138284 138 138 138
-0.205871 -0.388708 0.138087 138 138 138
-0.204076 -0.390940 0.137837 138 138 138
-0.202328 -0.393247 0.137566 138 138 138
-0.200581 -0.395553 0.137295 138 138 138
-0.199313 -0.398662 0.136798 138 138 138
-0.198153 -0.401946 0.136252 138 138 138
-0.196996 -0.405225 0.135707 138 138 138
-0.195401 -0.407759 0.135370 139 139 139
-0.193799 -0.410278 0.135037 141 141 141
-0.192293 -0.412950 0.134660 143 143 143
-0.190574 -0.415260 0.134385 148 148 148
-0.188676 -0.417268 0.134194 150 150 150
-0.186482 -0.418783 0.134143 152 152 152
-0.184087 -0.419963 0.134185 153 153 153
-0.181669 -0.421106 0.134238 155 155 155
-0.179255 -0.422258 0.134288 157 157 157
-0.176834 -0.423399 0.134342 159 159 159
-0.174195 -0.424182 0.134496 161 161 161
-0.171570 -0.424991 0.134644 161 161 161
-0.168948 -0.425808 0.134790 163 163 163
-0.166373 -0.426703 0.134913 162 162 162
-0.163746 -0.427516 0.135060 161 161 161
-0.161118 -0.428330 0.135207 161 161 161
-0.158677 -0.429449 0.135268 160 160 160
-0.156242 -0.430579 0.135326 159 159 159
-0.153808 -0.431709 0.135383 159 159 159
-0.151372 -0.432840 0.135441 158 158 158
-0.149039 -0.434135 0.135451 157 157 157
-0.146784 -0.435556 0.135427 155 155 155
-0.144506 -0.436939 0.135412 153 153 153
-0.142197 -0.438273 0.135412 153 153 153
-0.139889 -0.439607 0.135412 152 152 152
-0.137580 -0.440941 0.135412 152 152 152
-0.135258 -0.442254 0.135417 151 151 151
-0.132833 -0.443406 0.135469 150 150 150
-0.130372 -0.444501 0.135537 150 150 150
-0.127787 -0.445402 0.135661 150 150 150
-0.125172 -0.446260 0.135797 151 151 151
-0.122556 -0.447117 0.135933 152 152 152
-0.119885 -0.447891 0.136094 153 153 153
-0.117121 -0.448523 0.136295 154 154 154
-0.114210 -0.448930 0.136561 155 155 155
-0.110985 -0.448857 0.136966 155 155 155
-0.107536 -0.448445 0.137468 155 155 155
-0.104205 -0.448221 0.137916 153 153 153
-0.100897 -0.448040 0.138353 151 151 151
-0.097539 -0.447789 0.138810 148 148 148
-0.094341 -0.447790 0.139196 146 146 146
-0.091176 -0.447848 0.139565 144 144 144
-0.088354 -0.448435 0.139783 139 139 139
-0.085647 -0.449198 0.139950 138 138 138
-0.082938 -0.449961 0.140118 138 138 138
-0.080266 -0.450784 0.140268 138 138 138
-0.077678 -0.451735 0.140381 140 140 140
-0.075084 -0.452678 0.140497 143 143 143
-0.072544 -0.453706 0.140589 142 142 142
-0.070038 -0.454785 0.140666 140 140 140
-0.067531 -0.455864 0.140743 138 138 138
-0.065005 -0.456915 0.140828 138 138 138
-0.062362 -0.457794 0.140963 139 139 139
-0.059645 -0.458566 0.141129 142 142 142
-0.057085 -0.459571 0.141228 146 146 146
-0.054527 -0.460582 0.141326 150 150 150
-0.051968 -0.461593 0.141423 153 153 153
-0.049040 -0.462062 0.141678 160 160 160
-0.045785 -0.462056 0.142072 167 167 167
-0.042210 -0.461586 0.142601 171 171 171
-0.039005 -0.461667 0.142971 173 173 173
-0.035802 -0.461754 0.143339 175 175 175
-0.031131 -0.459713 0.144329 180 180 180
-0.027518 -0.459222 0.144867 182 182 182
-0.022295 -0.456407 0.146085 183 183 183
-0.016255 -0.452430 0.147644 184 184 184
-0.010574 -0.448995 0.149047 186 186 186
-0.006184 -0.447439 0.149902 183 183 183
-0.002410 -0.446781 0.150494 181 181 181
0.001339 -0.446166 0.151075 180 180 180
0.004927 -0.445790 0.151586 179 179 179
0.008013 -0.446138 0.151886 178 178 178
0.011093 -0.446498 0.152182 177 177 177
0.014175 -0.446861 0.152478 176 176 176
0.017267 -0.447214 0.152777 176 176 176
0.020223 -0.447764 0.153019 174 174 174
0.023361 -0.448060 0.153335 173 173 173
0.026437 -0.448449 0.153625 170 170 170
0.029342 -0.449081 0.153843 168 168 168
0.032251 -0.449713 0.154062 166 166 166
0.035750 -0.449522 0.154524 166 166 166
0.039254 -0.449331 0.154987 166 166 166
0.042752 -0.449155 0.155445 166 166 166
0.046528 -0.448600 0.156016 166 166 166
0.051033 -0.447043 0.156885 166 166 166
0.054808 -0.446508 0.157452 168 168 168
0.058287 -0.446391 0.157896 165 165 165
0.061937 -0.446044 0.158409 167 167 167
0.065983 -0.445161 0.159081 171 171 171
0.070154 -0.444116 0.159803 172 172 172
0.075013 -0.442142 0.160801 176 176 176
0.081189 -0.438384 0.162331 182 182 182
0.091211 -0.429412 0.165414 184 184 184
0.101646 -0.419925 0.168654 180 180 180
0.109056 -0.414585 0.170664 173 173 173
0.114615 -0.411779 0.171920 170 170 170
0.119923 -0.409330 0.173072 169 169 169
0.125118 -0.407050 0.174175 170 170 170
0.130329 -0.404764 0.175281 171 171 171
0.135551 -0.402479 0.176388 173 173 173
0.141556 -0.399163 0.177805 178 178 178
0.149407 -0.393402 0.179955 184 184 184
0.166237 -0.375707 0.185681 186 186 186
0.172993 -0.371490 0.187377 181 181 181
0.177243 -0.370622 0.188071 180 180 180
0.181825 -0.369324 0.188895 179 179 179
0.186306 -0.368171 0.189676 179 179 179
0.190528 -0.367371 0.190353 179 179 179
0.194716 -0.366626 0.191013 179 179 179
0.198776 -0.366057 0.191622 181 181 181
0.203424 -0.364728 0.192460 182 182 182
0.208118 -0.363349 0.193314 184 184 184
-0.357826 0.177035 0.234749 101 101 101
-0.359312 0.165334 0.232138 138 138 138
-0.359587 0.156624 0.230293 138 138 138
-0.360461 0.146508 0.228084 138 138 138
-0.361294 0.136542 0.225912 138 138 138
-0.362017 0.126889 0.223817 138 138 138
-0.361863 0.119380 0.222274 138 138 138
-0.387609 0.050160 0.204788 138 138 138
-0.389646 0.037691 0.201950 138 138 138
-0.407764 -0.012829 0.189268 138 138 138
-0.409243 -0.023744 0.186821 138 138 138
-0.409745 -0.032303 0.184980 138 138 138
-0.410003 -0.040248 0.183297 138 138 138
-0.410824 -0.049475 0.181280 138 138 138
-0.413261 -0.062431 0.178293 138 138 138
-0.414841 -0.073326 0.175837 138 138 138
-0.415712 -0.082520 0.173821 138 138 138
-0.416478 -0.091428 0.171876 138 138 138
-0.416284 -0.098075 0.170517 138 138 138
-0.416423 -0.105459 0.168965 138 138 138
-0.415706 -0.110842 0.167931 138 138 138
-0.414946 -0.116104 0.166928 138 138 138
-0.413487 -0.119750 0.166345 138 138 138
-0.411969 -0.123250 0.165800 138 138 138
-0.410795 -0.127516 0.165053 138 138 138
-0.409758 -0.132078 0.164229 138 138 138
-0.408629 -0.136414 0.163463 138 138 138
-0.408437 -0.142844 0.162149 138 138 138
-0.408375 -0.149538 0.160764 138 138 138
-0.408119 -0.155768 0.159499 138 138 138
-0.407262 -0.160628 0.158591 138 138 138
-0.405935 -0.164424 0.157961 138 138 138
-0.404616 -0.168223 0.157330 138 138 138
-0.402973 -0.171291 0.156889 138 138 138
-0.401344 -0.174380 0.156442 138 138 138
-0.399713 -0.177458 0.155998 138 138 138
-0.398194 -0.180771 0.155491 138 138 138
-0.396744 -0.184223 0.154947 138 138 138
-0.395292 -0.187661 0.154407 138 138 138
-0.393742 -0.190873 0.153925 138 138 138
-0.392081 -0.193835 0.153508 138 138 138
-0.390423 -0.196795 0.153092 138 138 138
-0.388752 -0.199718 0.152684 138 138 138
-0.386900 -0.202241 0.152382 138 138 138
-0.385044 -0.204751 0.152083 138 138 138
-0.383190 -0.207260 0.151784 138 138 138
-0.381452 -0.210009 0.151421 138 138 138
-0.379882 -0.213108 0.150965 138 138 138
-0.378291 -0.216153 0.150523 138 138 138
-0.376731 -0.219256 0.150065 138 138 138
-0.375284 -0.222588 0.149545 138 138 138
-0.373828 -0.225891 0.149033 138 138 138
-0.372312 -0.229059 0.148557 138 138 138
-0.370733 -0.232082 0.148118 138 138 138
-0.369187 -0.235167 0.147661 138 138 138
-0.367644 -0.238248 0.147206 138 138 138
-0.366109 -0.241338 0.146748 138 138 138
-0.364589 -0.244448 0.146284 138 138 138
-0.363072 -0.247556 0.145819 138 138 138
-0.361552 -0.250649 0.145358 138 138 138
-0.359887 -0.253433 0.144979 138 138 138
-0.358242 -0.256251 0.144591 138 138 138
-0.356545 -0.258956 0.144232 138 138 138
-0.354822 -0.261600 0.143889 138 138 138
-0.353115 -0.264269 0.143539 138 138 138
-0.351292 -0.266696 0.143253 138 138 138
-0.349521 -0.269224 0.142940 138 138 138
-0.347791 -0.271826 0.142607 138 138 138
-0.345988 -0.274277 0.142313 138 138 138
-0.344188 -0.276727 0.142020 138 138 138
-0.342371 -0.279137 0.141737 138 138 138
-0.340521 -0.281475 0.141473 138 138 138
-0.338654 -0.283775 0.141219 138 138 138
-0.336789 -0.286074 0.140965 138 138 138
-0.334925 -0.288370 0.140711 138 138 138
-0.333019 -0.290578 0.140480 138 138 138
-0.331225 -0.293002 0.140192 138 138 138
-0.329447 -0.295453 0.139896 138 138 138
-0.327671 -0.297901 0.139600 138 138 138
-0.325856 -0.300267 0.139326 138 138 138
-0.324199 -0.302938 0.138969 138 138 138
-0.322468 -0.305457 0.138653 138 138 138
-0.320739 -0.307974 0.138337 138 138 138
-0.319011 -0.310486 0.138022 138 138 138
-0.317194 -0.312821 0.137755 138 138 138
-0.315361 -0.315120 0.137497 138 138 138
-0.313530 -0.317417 0.137239 138 138 138
-0.311676 -0.319666 0.136994 138 138 138
-0.309621 -0.321525 0.136854 138 138 138
-0.307606 -0.323457 0.136694 138 138 138
-0.305586 -0.325378 0.136537 138 138 138
-0.303567 -0.327298 0.136380 138 138 138
-0.301549 -0.329217 0.136224 138 138 138
-0.299568 -0.331203 0.136048 138 138 138
-0.297603 -0.333215 0.135866 138 138 138
-0.295620 -0.335190 0.135693 138 138 138
-0.293533 -0.336967 0.135574 138 138 138
-0.291232 -0.338342 0.135565 138 138 138
-0.288928 -0.339711 0.135556 138 138 138
-0.286470 -0.340792 0.135627 138 138 138
-0.284015 -0.341881 0.135695 138 138 138
-0.281573 -0.342996 0.135757 138 138 138
-0.279133 -0.344115 0.135817 138 138 138
-0.276819 -0.345468 0.135813 138 138 138
-0.274517 -0.346842 0.135804 138 138 138
-0.272141 -0.348081 0.135831 138 138 138
-0.269713 -0.349225 0.135885 138 138 138
-0.267303 -0.350401 0.135930 138 138 138
-0.264938 -0.351662 0.135952 138 138 138
-0.262572 -0.352922 0.135974 138 138 138
-0.260249 -0.354259 0.135974 138 138 138
-0.257930 -0.355603 0.135974 138 138 138
-0.255610 -0.356946 0.135973 138 138 138
-0.253230 -0.358180 0.136002 138 138 138
-0.250860 -0.359433 0.136026 138 138 138
-0.248522 -0.360744 0.136034 138 138 138
-0.246178 -0.362045 0.136045 138 138 138
-0.243810 -0.363303 0.136067 138 138 138
-0.241437 -0.364552 0.136093 138 138 138
-0.239063 -0.365801 0.136118 138 138 138
-0.236740 -0.367139 0.136118 138 138 138
-0.234465 -0.368563 0.136096 138 138 138
-0.232191 -0.369987 0.136072 138 138 138
-0.229954 -0.371476 0.136031 138 138 138
-0.227629 -0.372811 0.136033 138 138 138
-0.225294 -0.374127 0.136040 138 138 138
-0.222881 -0.375308 0.136084 138 138 138
-0.220639 -0.376788 0.136045 138 138 138
-0.218441 -0.378342 0.135986 138 138 138
-0.216256 -0.379917 0.135921 138 138 138
-0.214208 -0.381730 0.135790 138 138 138
-0.212276 -0.383738 0.135604 138 138 138
-0.210327 -0.385713 0.135427 138 138 138
-0.208421 -0.387758 0.135231 138 138 138
-0.206516 -0.389803 0.135034 138 138 138
-0.204695 -0.391988 0.134798 138 138 138
-0.202948 -0.394293 0.134529 138 138 138
-0.201355 -0.396856 0.134187 138 138 138
-0.200036 -0.399876 0.133717 138 138 138
-0.198815 -0.403052 0.133204 138 138 138
-0.197517 -0.406091 0.132727 138 138 138
-0.196023 -0.408792 0.132345 138 138 138
-0.194515 -0.411464 0.131970 140 140 140
-0.192997 -0.414112 0.131602 142 142 142
-0.191102 -0.416125 0.131411 149 149 149
-0.189212 -0.418145 0.131218 150 150 150
-0.187128 -0.419838 0.131116 151 151 151
-0.184738 -0.421025 0.131156 152 152 152
-0.182349 -0.422211 0.131196 153 153 153
-0.179947 -0.423378 0.131242 155 155 155
-0.177529 -0.424521 0.131294 157 157 157
-0.174998 -0.425478 0.131399 159 159 159
-0.172370 -0.426278 0.131548 160 160 160
-0.169741 -0.427079 0.131698 161 161 161
-0.167231 -0.428077 0.131791 160 160 160
-0.164666 -0.428987 0.131910 160 160 160
-0.162057 -0.429828 0.132048 160 160 160
-0.159625 -0.430956 0.132106 160 160 160
-0.157152 -0.432019 0.132182 159 159 159
-0.154676 -0.433079 0.132259 157 157 157
-0.152280 -0.434270 0.132299 155 155 155
-0.149885 -0.435461 0.132338 154 154 154
-0.147489 -0.436652 0.132378 153 153 153
-0.145144 -0.437924 0.132395 152 152 152
-0.142800 -0.439199 0.132412 151 151 151
-0.140455 -0.440474 0.132428 150 150 150
-0.138111 -0.441749 0.132444 150 150 150
-0.135623 -0.442797 0.132525 149 149 149
-0.133193 -0.443938 0.132580 149 149 149
-0.130786 -0.445117 0.132624 148 148 148
-0.128197 -0.446010 0.132749 149 149 149
-0.125572 -0.446848 0.132890 150 150 150
-0.122957 -0.447706 0.133025 150 150 150
-0.120341 -0.448563 0.133161 151 151 151
-0.117672 -0.449339 0.133320 152 152 152
-0.114619 -0.449525 0.133648 154 154 154
-0.111394 -0.449449 0.134051 155 155 155
-0.107948 -0.449038 0.134550 155 155 155
-0.104496 -0.448626 0.135050 155 155 155
-0.101129 -0.448353 0.135511 153 153 153
-0.097704 -0.447998 0.135997 151 151 151
-0.094301 -0.447685 0.136470 148 148 148
-0.091093 -0.447676 0.136857 144 144 144
-0.088264 -0.448251 0.137077 142 142 142
-0.085556 -0.449013 0.137244 140 140 140
-0.082847 -0.449776 0.137410 139 139 139
-0.080137 -0.450540 0.137577 138 138 138
-0.077425 -0.451304 0.137744 138 138 138
-0.074863 -0.452296 0.137845 138 138 138
-0.072338 -0.453345 0.137930 138 138 138
-0.069809 -0.454390 0.138017 138 138 138
-0.067279 -0.455435 0.138103 138 138 138
-0.064759 -0.456495 0.138185 138 138 138
-0.062244 -0.457565 0.138264 138 138 138
-0.059755 -0.458674 0.138333 138 138 138
-0.057196 -0.459681 0.138431 141 141 141
-0.054639 -0.460691 0.138527 145 145 145
-0.052081 -0.461702 0.138624 149 149 149
-0.049522 -0.462714 0.138721 153 153 153
-0.046462 -0.462991 0.139031 161 161 161
-0.043459 -0.463357 0.139315 167 167 167
-0.040229 -0.463394 0.139695 170 170 170
-0.037029 -0.463483 0.140061 172 172 172
-0.033837 -0.463587 0.140423 174 174 174
-0.030556 -0.463569 0.140820 176 176 176
-0.027222 -0.463480 0.141239 179 179 179
-0.023524 -0.462871 0.141810 182 182 182
-0.018040 -0.459695 0.143129 184 184 184
-0.011012 -0.454319 0.145091 183 183 183
-0.005673 -0.451397 0.146339 184 184 184
-0.001819 -0.450621 0.146964 182 182 182
0.002043 -0.449843 0.147589 180 180 180
0.005805 -0.449217 0.148171 178 178 178
0.009059 -0.449323 0.148540 176 176 176
0.012330 -0.449410 0.148914 175 175 175
0.015599 -0.449506 0.149287 174 174 174
0.018809 -0.449691 0.149634 172 172 172
0.021923 -0.450016 0.149940 170 170 170
0.025013 -0.450380 0.150235 168 168 168
0.028105 -0.450745 0.150531 166 166 166
0.031103 -0.451245 0.150787 164 164 164
0.034590 -0.451067 0.151243 164 164 164
0.038255 -0.450648 0.151770 164 164 164
0.041983 -0.450148 0.152321 164 164 164
0.045812 -0.449516 0.152912 164 164 164
0.050208 -0.448107 0.153733 164 164 164
0.054291 -0.447145 0.154424 166 166 166
0.057842 -0.446925 0.154896 164 164 164
0.061485 -0.446586 0.155404 164 164 164
0.065134 -0.446246 0.155912 165 165 165
0.069158 -0.445400 0.156572 168 168 168
0.073940 -0.443526 0.157535 173 173 173
0.079048 -0.441223 0.158628 176 176 176
0.087013 -0.435044 0.160869 185 185 185
0.099120 -0.423272 0.164771 183 183 183
0.108670 -0.415022 0.167633 173 173 173
0.114468 -0.411890 0.168981 169 169 169
0.119535 -0.409764 0.170031 169 169 169
0.124774 -0.407423 0.171147 169 169 169
0.129982 -0.405140 0.172247 171 171 171
0.135206 -0.402851 0.173351 173 173 173
0.140774 -0.400117 0.174588 175 175 175
0.147979 -0.395216 0.176472 182 182 182
0.162238 -0.380941 0.181153 186 186 186
0.170760 -0.374364 0.183544 183 183 183
0.175128 -0.373332 0.184283 181 181 181
0.179347 -0.372507 0.184961 180 180 180
0.183809 -0.371372 0.185733 179 179 179
0.188057 -0.370530 0.186418 178 178 178
0.192300 -0.369704 0.187099 178 178 178
0.196460 -0.368997 0.187746 179 179 179
0.201192 -0.367549 0.188615 180 180 180
0.205856 -0.366204 0.189455 182 182 182
