ply
format ascii 1.0
element vertex 1180
property float x
property float y
property float z
property uchar red
property uchar green
property uchar blue
end_header
0.228607 -0.367872 0.161032 171 171 171
0.231537 -0.365885 0.161516 171 171 171
0.234529 -0.363250 0.162157 172 172 172
0.237535 -0.360517 0.162822 174 174 174
0.240604 -0.357162 0.163639 178 178 178
0.243722 -0.353344 0.164568 180 180 180
0.246891 -0.349077 0.165606 180 180 180
0.250042 -0.345093 0.166576 180 180 180
0.253220 -0.340911 0.167593 181 181 181
0.256472 -0.336058 0.168775 183 183 183
0.259802 -0.330512 0.170124 184 184 184
0.263105 -0.325355 0.171379 184 184 184
0.266403 -0.320359 0.172595 186 186 186
0.269512 -0.317335 0.173331 186 186 186
0.272701 -0.313596 0.174241 186 186 186
0.275873 -0.310092 0.175094 185 185 185
0.279022 -0.306884 0.175875 184 184 184
0.282043 -0.304955 0.176344 183 183 183
0.285157 -0.302193 0.177016 182 182 182
0.288199 -0.300151 0.177513 182 182 182
0.291269 -0.297896 0.178062 183 183 183
0.294371 -0.295391 0.178672 183 183 183
0.297488 -0.292791 0.179305 183 183 183
0.300612 -0.290186 0.179938 183 183 183
0.303763 -0.287385 0.180620 183 183 183
0.307038 -0.283536 0.181557 183 183 183
0.310308 -0.279811 0.182463 183 183 183
0.313587 -0.276077 0.183372 183 183 183
0.317006 -0.271205 0.184558 183 183 183
0.320441 -0.266284 0.185755 184 184 184
0.323884 -0.261379 0.186949 185 185 185
0.327519 -0.254969 0.188509 187 187 187
0.331366 -0.246908 0.190471 190 190 190
0.338168 -0.214745 0.198299 196 196 196
0.343077 -0.198527 0.202246 190 190 190
0.346873 -0.191564 0.203940 180 180 180
0.350553 -0.185647 0.205380 179 179 179
0.354077 -0.181060 0.206497 177 177 177
0.357618 -0.176418 0.207626 177 177 177
0.361264 -0.171033 0.208937 176 176 176
0.364878 -0.165984 0.210166 176 176 176
0.368444 -0.161384 0.211285 177 177 177
0.372040 -0.156626 0.212443 179 179 179
0.375698 -0.151482 0.213695 181 181 181
0.379731 -0.143598 0.215614 185 185 185
0.385398 -0.123700 0.220456 197 197 197
-0.395692 -0.157430 0.209194 125 125 125
-0.390281 -0.174992 0.204939 138 138 138
-0.386102 -0.183877 0.202787 138 138 138
-0.382067 -0.191836 0.200858 140 140 140
-0.377956 -0.200485 0.198762 141 141 141
-0.373819 -0.209462 0.196588 145 145 145
-0.369854 -0.217289 0.194691 147 147 147
-0.366296 -0.222166 0.193509 143 143 143
-0.362894 -0.225933 0.192597 144 144 144
-0.359485 -0.229822 0.191655 146 146 146
-0.356097 -0.233605 0.190738 147 147 147
-0.352664 -0.237798 0.189722 141 141 141
-0.349213 -0.242210 0.188653 138 138 138
-0.345706 -0.247133 0.187460 138 138 138
-0.341878 -0.254712 0.185624 138 138 138
-0.337964 -0.263107 0.183590 138 138 138
-0.334396 -0.268832 0.182203 138 138 138
-0.330911 -0.273976 0.180956 141 141 141
-0.327622 -0.277591 0.180080 143 143 143
-0.324280 -0.281703 0.179084 145 145 145
-0.320988 -0.285480 0.178169 148 148 148
-0.317723 -0.289079 0.177297 150 150 150
-0.314444 -0.292879 0.176376 152 152 152
-0.311256 -0.295947 0.175633 152 152 152
-0.308077 -0.299000 0.174893 153 153 153
-0.304791 -0.303050 0.173912 153 153 153
-0.301386 -0.308238 0.172655 155 155 155
-0.297867 -0.314541 0.171127 157 157 157
-0.294402 -0.320481 0.169688 157 157 157
-0.291035 -0.325632 0.168440 152 152 152
-0.287799 -0.329681 0.167459 149 149 149
-0.284632 -0.333158 0.166617 148 148 148
-0.281439 -0.336956 0.165696 146 146 146
-0.278328 -0.340042 0.164949 141 141 141
-0.275296 -0.342432 0.164370 140 140 140
-0.272271 -0.344808 0.163794 139 139 139
-0.269251 -0.347176 0.163220 139 139 139
-0.266252 -0.349390 0.162684 138 138 138
-0.263264 -0.351540 0.162163 138 138 138
-0.260305 -0.353449 0.161700 138 138 138
-0.257340 -0.355452 0.161215 138 138 138
-0.254390 -0.357346 0.160756 138 138 138
-0.251445 -0.359229 0.160300 138 138 138
-0.248491 -0.361250 0.159810 138 138 138
-0.245555 -0.363122 0.159357 138 138 138
-0.242627 -0.364942 0.158916 138 138 138
-0.239722 -0.366561 0.158523 138 138 138
-0.236823 -0.368157 0.158137 138 138 138
-0.233927 -0.369752 0.157750 138 138 138
-0.231040 -0.371276 0.157381 138 138 138
-0.228178 -0.372563 0.157069 138 138 138
-0.225323 -0.373786 0.156773 138 138 138
-0.222473 -0.374989 0.156481 138 138 138
-0.219623 -0.376226 0.156181 138 138 138
-0.216728 -0.378032 0.155744 138 138 138
-0.213841 -0.379780 0.155320 138 138 138
-0.210959 -0.381526 0.154897 138 138 138
-0.208034 -0.383846 0.154335 138 138 138
-0.205095 -0.386401 0.153716 138 138 138
-0.202074 -0.390090 0.152822 139 139 139
-0.198905 -0.395804 0.151438 144 144 144
-0.195743 -0.401584 0.150038 149 149 149
-0.192639 -0.406751 0.148785 157 157 157
-0.189713 -0.409644 0.148085 158 158 158
-0.186810 -0.412306 0.147440 157 157 157
-0.183948 -0.414474 0.146914 160 160 160
-0.181126 -0.416130 0.146513 164 164 164
-0.178360 -0.417044 0.146292 167 167 167
-0.175602 -0.417860 0.146094 168 168 168
-0.172848 -0.418646 0.145903 171 171 171
-0.170119 -0.419073 0.145800 170 170 170
-0.167396 -0.419412 0.145718 169 169 169
-0.164640 -0.420303 0.145502 169 169 169
-0.161836 -0.421960 0.145101 168 168 168
-0.159051 -0.423380 0.144756 168 168 168
-0.156210 -0.425766 0.144178 166 166 166
-0.153409 -0.427572 0.143741 163 163 163
-0.150623 -0.429184 0.143350 163 163 163
-0.147815 -0.431227 0.142855 162 162 162
-0.144978 -0.433861 0.142217 159 159 159
-0.142165 -0.436172 0.141657 157 157 157
-0.139384 -0.437981 0.141219 156 156 156
-0.136609 -0.439747 0.140791 155 155 155
-0.133837 -0.441526 0.140360 155 155 155
-0.131062 -0.443445 0.139895 154 154 154
-0.128310 -0.444980 0.139523 153 153 153
-0.125587 -0.445981 0.139280 153 153 153
-0.122871 -0.446904 0.139057 154 154 154
-0.120164 -0.447665 0.138872 155 155 155
-0.117457 -0.448475 0.138676 156 156 156
-0.114755 -0.449189 0.138503 155 155 155
-0.112083 -0.449277 0.138482 154 154 154
-0.109423 -0.449078 0.138530 153 153 153
-0.106765 -0.448822 0.138592 152 152 152
-0.104097 -0.448798 0.138598 149 149 149
-0.101431 -0.448722 0.138616 148 148 148
-0.098772 -0.448480 0.138675 147 147 147
-0.096103 -0.448450 0.138682 145 145 145
-0.093435 -0.448441 0.138684 144 144 144
-0.090763 -0.448510 0.138668 144 144 144
-0.088072 -0.449129 0.138517 141 141 141
-0.085379 -0.449860 0.138340 139 139 139
-0.082687 -0.450591 0.138163 138 138 138
-0.079997 -0.451322 0.137986 138 138 138
-0.077308 -0.452070 0.137805 138 138 138
-0.074613 -0.453075 0.137561 138 138 138
-0.071919 -0.454117 0.137309 138 138 138
-0.069227 -0.455159 0.137056 138 138 138
-0.066538 -0.456203 0.136803 138 138 138
-0.063849 -0.457278 0.136543 138 138 138
-0.061157 -0.458608 0.136221 138 138 138
-0.058466 -0.460003 0.135883 138 138 138
-0.055783 -0.461204 0.135592 138 138 138
-0.053104 -0.462273 0.135333 142 142 142
-0.050428 -0.463342 0.135074 146 146 146
-0.047753 -0.464465 0.134802 149 149 149
-0.045085 -0.465381 0.134580 153 153 153
-0.042420 -0.466159 0.134391 156 156 156
-0.039757 -0.466937 0.134203 159 159 159
-0.037097 -0.467622 0.134037 162 162 162
-0.034442 -0.468049 0.133933 164 164 164
-0.031792 -0.468196 0.133898 165 165 165
-0.029142 -0.468259 0.133882 166 166 166
-0.026493 -0.468322 0.133867 166 166 166
-0.023844 -0.468385 0.133852 167 167 167
-0.021198 -0.468200 0.133897 168 168 168
-0.018554 -0.467467 0.134074 170 170 170
-0.015910 -0.466638 0.134275 172 172 172
-0.013266 -0.465494 0.134552 174 174 174
-0.010620 -0.464177 0.134871 175 175 175
-0.007972 -0.462885 0.135184 175 175 175
-0.005320 -0.461813 0.135444 175 175 175
-0.002665 -0.461030 0.135634 175 175 175
-0.000009 -0.460246 0.135824 174 174 174
0.002649 -0.459332 0.136045 173 173 173
0.005309 -0.458146 0.136333 173 173 173
0.007971 -0.457037 0.136601 172 172 172
0.010635 -0.456288 0.136783 170 170 170
0.013301 -0.455402 0.136997 168 168 168
0.015968 -0.454453 0.137227 164 164 164
0.018637 -0.453690 0.137412 162 162 162
0.021307 -0.452926 0.137597 159 159 159
0.023979 -0.452163 0.137782 156 156 156
0.026652 -0.451471 0.137950 153 153 153
0.029323 -0.451037 0.138055 150 150 150
0.031992 -0.450814 0.138109 149 149 149
0.034662 -0.450592 0.138163 148 148 148
0.037333 -0.450314 0.138230 147 147 147
0.040008 -0.449810 0.138352 146 146 146
0.042685 -0.449305 0.138475 145 145 145
0.045362 -0.448800 0.138597 144 144 144
0.048040 -0.448343 0.138708 144 144 144
0.050714 -0.448092 0.138769 144 144 144
0.053387 -0.447941 0.138805 144 144 144
0.056060 -0.447791 0.138841 144 144 144
0.058733 -0.447641 0.138878 144 144 144
0.061407 -0.447497 0.138913 144 144 144
0.064081 -0.447359 0.138946 147 147 147
0.066755 -0.447206 0.138983 149 149 149
0.069428 -0.447136 0.139000 151 151 151
0.072109 -0.446774 0.139088 151 151 151
0.074800 -0.446088 0.139254 159 159 159
0.077505 -0.445006 0.139516 159 159 159
0.080212 -0.443922 0.139779 160 160 160
0.082921 -0.442838 0.140042 161 161 161
0.085634 -0.441701 0.140317 162 162 162
0.088359 -0.440299 0.140657 166 166 166
0.091128 -0.437760 0.141272 167 167 167
0.093902 -0.435216 0.141888 168 168 168
0.096684 -0.432617 0.142518 171 171 171
0.099505 -0.429127 0.143364 173 173 173
0.102322 -0.425941 0.144136 173 173 173
0.105139 -0.422908 0.144871 174 174 174
0.107936 -0.420516 0.145450 173 173 173
0.110708 -0.418796 0.145867 171 171 171
0.113488 -0.417007 0.146300 170 170 170
0.116271 -0.415215 0.146734 169 169 169
0.119015 -0.414346 0.146945 168 168 168
0.121747 -0.413795 0.147079 168 168 168
0.124479 -0.413243 0.147212 168 168 168
0.127226 -0.412411 0.147414 168 168 168
0.129988 -0.411334 0.147675 168 168 168
0.132749 -0.410301 0.147925 168 168 168
0.135512 -0.409276 0.148173 168 168 168
0.138278 -0.408250 0.148422 168 168 168
0.141049 -0.407164 0.148685 168 168 168
0.143835 -0.405835 0.149007 168 168 168
0.146625 -0.404505 0.149330 167 167 167
0.149420 -0.403120 0.149665 167 167 167
0.152226 -0.401612 0.150030 168 168 168
0.155002 -0.400644 0.150265 168 168 168
0.157781 -0.399675 0.150500 168 168 168
0.160562 -0.398706 0.150734 169 169 169
0.163338 -0.397831 0.150946 169 169 169
0.166102 -0.397193 0.151101 169 169 169
0.168873 -0.396449 0.151281 168 168 168
0.171646 -0.395705 0.151461 168 168 168
0.174421 -0.394961 0.151642 167 167 167
0.177217 -0.393936 0.151890 167 167 167
0.180016 -0.392886 0.152145 167 167 167
0.182818 -0.391835 0.152399 166 166 166
0.185630 -0.390668 0.152682 166 166 166
0.188470 -0.389149 0.153050 166 166 166
0.191339 -0.387276 0.153504 165 165 165
0.194194 -0.385644 0.153899 165 165 165
0.197043 -0.384147 0.154262 165 165 165
0.199888 -0.382732 0.154605 164 164 164
0.202734 -0.381348 0.154940 163 163 163
0.205583 -0.379961 0.155276 162 162 162
0.208433 -0.378603 0.155605 161 161 161
0.211276 -0.377361 0.155906 161 161 161
0.214125 -0.376077 0.156217 162 162 162
0.216977 -0.374801 0.156526 162 162 162
0.219831 -0.373523 0.156836 163 163 163
0.222688 -0.372233 0.157149 163 163 163
0.225554 -0.370879 0.157477 165 165 165
0.228446 -0.369260 0.157869 169 169 169
0.231374 -0.367276 0.158350 169 169 169
0.234390 -0.364346 0.159060 170 170 170
0.237419 -0.361347 0.159786 172 172 172
0.240399 -0.358950 0.160367 175 175 175
0.243488 -0.355428 0.161220 177 177 177
0.246634 -0.351369 0.162204 177 177 177
0.249800 -0.347191 0.163216 178 178 178
0.253006 -0.342700 0.164304 179 179 179
0.256261 -0.337780 0.165496 181 181 181
0.259534 -0.332798 0.166704 183 183 183
0.262861 -0.327371 0.168018 182 182 182
0.266007 -0.323865 0.168868 183 183 183
0.269222 -0.319754 0.169864 184 184 184
0.272325 -0.316824 0.170574 184 184 184
0.275447 -0.313766 0.171315 184 184 184
0.278559 -0.310871 0.172016 184 184 184
0.281666 -0.308086 0.172691 183 183 183
0.284795 -0.305137 0.173406 182 182 182
0.287878 -0.302683 0.174000 181 181 181
0.290921 -0.300642 0.174494 181 181 181
0.293995 -0.298363 0.175047 181 181 181
0.297113 -0.295726 0.175686 182 182 182
0.300234 -0.293111 0.176319 182 182 182
0.303394 -0.290200 0.177025 182 182 182
0.306649 -0.286498 0.177922 183 183 183
0.309927 -0.282667 0.178850 183 183 183
0.313222 -0.278764 0.179795 183 183 183
0.316693 -0.273420 0.181090 183 183 183
0.320056 -0.269083 0.182141 183 183 183
0.323532 -0.263876 0.183403 183 183 183
0.327139 -0.257671 0.184906 185 185 185
0.330785 -0.251243 0.186464 187 187 187
0.334999 -0.240265 0.189124 190 190 190
0.342296 -0.204400 0.197813 191 191 191
0.346636 -0.192991 0.200578 181 181 181
0.350323 -0.186997 0.202030 179 179 179
0.353919 -0.181830 0.203282 178 178 178
0.357479 -0.177028 0.204445 177 177 177
0.361127 -0.171615 0.205757 177 177 177
0.364712 -0.166778 0.206929 177 177 177
0.368285 -0.162115 0.208059 177 177 177
0.371845 -0.157620 0.209148 178 178 178
0.375536 -0.152208 0.210459 180 180 180
0.379371 -0.145805 0.212010 184 184 184
0.384008 -0.133541 0.214982 191 191 191
-0.394024 -0.168881 0.203380 144 144 144
-0.389650 -0.179059 0.200925 138 138 138
-0.385541 -0.187468 0.198896 138 138 138
-0.381614 -0.194670 0.197159 138 138 138
-0.377258 -0.205156 0.194630 138 138 138
-0.373043 -0.214749 0.192316 140 140 140
-0.369390 -0.220285 0.190980 139 139 139
-0.365984 -0.224050 0.190072 138 138 138
-0.362599 -0.227702 0.189191 141 141 141
-0.359185 -0.231644 0.188240 145 145 145
-0.355719 -0.236054 0.187177 142 142 142
-0.352289 -0.240248 0.186165 138 138 138
-0.348872 -0.244417 0.185159 138 138 138
-0.345307 -0.249826 0.183855 138 138 138
-0.341347 -0.258481 0.181767 138 138 138
-0.337597 -0.265598 0.180050 138 138 138
-0.334001 -0.271581 0.178607 138 138 138
-0.330634 -0.275782 0.177594 141 141 141
-0.327182 -0.280766 0.176391 144 144 144
-0.323884 -0.284548 0.175479 147 147 147
-0.320593 -0.288334 0.174566 150 150 150
-0.317285 -0.292335 0.173601 153 153 153
-0.314037 -0.295902 0.172740 154 154 154
-0.310859 -0.298918 0.172013 153 153 153
-0.307564 -0.303017 0.171024 153 153 153
-0.304181 -0.307963 0.169831 155 155 155
-0.300755 -0.313391 0.168522 156 156 156
-0.297253 -0.319598 0.167025 157 157 157
-0.293954 -0.324081 0.165943 151 151 151
-0.290689 -0.328347 0.164914 147 147 147
-0.287565 -0.331383 0.164182 147 147 147
-0.284390 -0.334954 0.163320 146 146 146
-0.281216 -0.338594 0.162442 143 143 143
-0.278144 -0.341341 0.161780 139 139 139
-0.275113 -0.343735 0.161202 138 138 138
-0.272090 -0.346109 0.160630 138 138 138
-0.269085 -0.348355 0.160088 138 138 138
-0.266111 -0.350335 0.159610 138 138 138
-0.263158 -0.352151 0.159172 138 138 138
-0.260220 -0.353855 0.158761 138 138 138
-0.257281 -0.355597 0.158341 138 138 138
-0.254339 -0.357412 0.157903 138 138 138
-0.251396 -0.359287 0.157451 138 138 138
-0.248449 -0.361239 0.156980 138 138 138
-0.245515 -0.363097 0.156532 138 138 138
-0.242594 -0.364853 0.156108 138 138 138
-0.239685 -0.366521 0.155706 138 138 138
-0.236781 -0.368173 0.155308 138 138 138
-0.233888 -0.369729 0.154932 138 138 138
-0.231003 -0.371249 0.154566 138 138 138
-0.228142 -0.372527 0.154257 138 138 138
-0.225289 -0.373731 0.153967 138 138 138
-0.222437 -0.374958 0.153671 138 138 138
-0.219570 -0.376399 0.153323 138 138 138
-0.216695 -0.377973 0.152943 138 138 138
-0.213809 -0.379721 0.152522 138 138 138
-0.210911 -0.381664 0.152053 138 138 138
-0.207984 -0.384015 0.151486 138 138 138
-0.205034 -0.386732 0.150831 138 138 138
-0.201965 -0.391044 0.149791 138 138 138
-0.198722 -0.397737 0.148176 138 138 138
-0.195540 -0.403819 0.146709 143 143 143
-0.192469 -0.408590 0.145558 153 153 153
-0.189549 -0.411431 0.144873 152 152 152
-0.186634 -0.414295 0.144182 156 156 156
-0.183804 -0.416051 0.143759 159 159 159
-0.180977 -0.417804 0.143336 162 162 162
-0.178164 -0.419425 0.142945 163 163 163
-0.175414 -0.420170 0.142765 166 166 166
-0.172675 -0.420771 0.142620 168 168 168
-0.169949 -0.421197 0.142517 168 168 168
-0.167213 -0.421787 0.142375 168 168 168
-0.164422 -0.423252 0.142021 167 167 167
-0.161623 -0.424904 0.141623 167 167 167
-0.158835 -0.426430 0.141255 163 163 163
-0.156047 -0.427995 0.140877 163 163 163
-0.153260 -0.429606 0.140489 163 163 163
-0.150477 -0.431216 0.140100 162 162 162
-0.147657 -0.433521 0.139544 160 160 160
-0.144842 -0.435830 0.138987 158 158 158
-0.142057 -0.437676 0.138542 156 156 156
-0.139278 -0.439480 0.138107 155 155 155
-0.136503 -0.441283 0.137672 153 153 153
-0.133732 -0.443083 0.137238 153 153 153
-0.130981 -0.444566 0.136880 152 152 152
-0.128249 -0.445742 0.136596 152 152 152
-0.125529 -0.446729 0.136358 152 152 152
-0.122811 -0.447714 0.136121 153 153 153
-0.120099 -0.448613 0.135904 153 153 153
-0.117396 -0.449346 0.135727 154 154 154
-0.114709 -0.449781 0.135622 155 155 155
-0.112038 -0.449844 0.135607 154 154 154
-0.109381 -0.449620 0.135661 153 153 153
-0.106724 -0.449365 0.135723 152 152 152
-0.104063 -0.449198 0.135763 150 150 150
-0.101402 -0.449010 0.135808 149 149 149
-0.098743 -0.448768 0.135867 149 149 149
-0.096084 -0.448526 0.135925 148 148 148
-0.093422 -0.448338 0.135970 147 147 147
-0.090749 -0.448463 0.135940 146 146 146
-0.088062 -0.448976 0.135816 144 144 144
-0.085369 -0.449715 0.135638 143 143 143
-0.082678 -0.450454 0.135460 141 141 141
-0.079988 -0.451192 0.135282 139 139 139
-0.077299 -0.451934 0.135103 138 138 138
-0.074611 -0.452702 0.134917 138 138 138
-0.071922 -0.453590 0.134703 138 138 138
-0.069230 -0.454632 0.134452 138 138 138
-0.066540 -0.455686 0.134198 138 138 138
-0.063848 -0.456896 0.133906 138 138 138
-0.061150 -0.458456 0.133529 138 138 138
-0.058458 -0.459928 0.133174 138 138 138
-0.055773 -0.461214 0.132864 138 138 138
-0.053091 -0.462498 0.132554 138 138 138
-0.050413 -0.463671 0.132272 139 139 139
-0.047738 -0.464841 0.131990 144 144 144
-0.045067 -0.465906 0.131732 149 149 149
-0.042403 -0.466715 0.131537 152 152 152
-0.039742 -0.467493 0.131350 155 155 155
-0.037081 -0.468270 0.131162 158 158 158
-0.034425 -0.468862 0.131020 159 159 159
-0.031772 -0.469311 0.130911 158 158 158
-0.029123 -0.469498 0.130866 160 160 160
-0.026475 -0.469671 0.130824 161 161 161
-0.023827 -0.469830 0.130786 162 162 162
-0.021184 -0.469329 0.130907 163 163 163
-0.018543 -0.468596 0.131084 165 165 165
-0.015900 -0.467863 0.131260 167 167 167
-0.013256 -0.467045 0.131458 170 170 170
-0.010611 -0.466067 0.131694 173 173 173
-0.007964 -0.464856 0.131986 174 174 174
-0.005315 -0.463567 0.132297 174 174 174
-0.002663 -0.462723 0.132500 173 173 173
-0.000009 -0.461979 0.132680 173 173 173
0.002646 -0.460901 0.132940 172 172 172
0.005305 -0.459717 0.133225 172 172 172
0.007965 -0.458532 0.133511 172 172 172
0.010629 -0.457345 0.133797 172 172 172
0.013296 -0.455900 0.134146 170 170 170
0.015966 -0.454365 0.134516 167 167 167
0.018636 -0.453362 0.134758 162 162 162
0.021306 -0.452589 0.134945 159 159 159
0.023978 -0.451851 0.135123 156 156 156
0.026650 -0.451181 0.135284 154 154 154
0.029323 -0.450597 0.135425 151 151 151
0.031995 -0.450185 0.135524 147 147 147
0.034667 -0.449825 0.135611 144 144 144
0.037340 -0.449396 0.135715 143 143 143
0.040015 -0.448967 0.135818 142 142 142
0.042690 -0.448538 0.135922 142 142 142
0.045367 -0.448109 0.136025 142 142 142
0.048043 -0.447741 0.136114 141 141 141
0.050716 -0.447575 0.136154 141 141 141
0.053389 -0.447408 0.136194 140 140 140
0.056062 -0.447246 0.136234 140 140 140
0.058736 -0.447096 0.136270 140 140 140
0.061409 -0.446977 0.136298 143 143 143
0.064082 -0.446881 0.136322 145 145 145
0.066753 -0.446859 0.136327 147 147 147
0.069424 -0.446838 0.136332 149 149 149
0.072107 -0.446413 0.136434 149 149 149
0.074798 -0.445725 0.136600 150 150 150
0.077492 -0.444986 0.136779 153 153 153
0.080195 -0.444010 0.137014 158 158 158
0.082904 -0.442926 0.137276 159 159 159
0.085622 -0.441640 0.137586 162 162 162
0.088346 -0.440253 0.137920 165 165 165
0.091102 -0.438035 0.138455 167 167 167
0.093876 -0.435492 0.139069 168 168 168
0.096663 -0.432724 0.139736 173 173 173
0.099449 -0.430134 0.140361 174 174 174
0.102258 -0.427109 0.141091 175 175 175
0.105072 -0.424102 0.141816 175 175 175
0.107868 -0.421687 0.142399 174 174 174
0.110645 -0.419815 0.142850 173 173 173
0.113416 -0.418197 0.143240 172 172 172
0.116191 -0.416533 0.143642 171 171 171
0.118933 -0.415678 0.143848 170 170 170
0.121677 -0.414817 0.144056 169 169 169
0.124411 -0.414213 0.144202 168 168 168
0.127152 -0.413476 0.144379 168 168 168
0.129911 -0.412410 0.144637 168 168 168
0.132671 -0.411378 0.144885 168 168 168
0.135432 -0.410353 0.145132 168 168 168
0.138202 -0.409217 0.145407 168 168 168
0.140976 -0.408043 0.145690 167 167 167
0.143743 -0.407042 0.145931 167 167 167
0.146531 -0.405710 0.146253 167 167 167
0.149324 -0.404336 0.146584 166 166 166
0.152135 -0.402715 0.146975 166 166 166
0.154912 -0.401706 0.147218 165 165 165
0.157691 -0.400706 0.147460 166 166 166
0.160472 -0.399704 0.147701 166 166 166
0.163245 -0.398866 0.147903 167 167 167
0.166003 -0.398284 0.148044 167 167 167
0.168773 -0.397545 0.148222 167 167 167
0.171544 -0.396802 0.148401 166 166 166
0.174326 -0.395934 0.148611 165 165 165
0.177121 -0.394885 0.148864 165 165 165
0.179919 -0.393836 0.149117 165 165 165
0.182719 -0.392786 0.149370 165 165 165
0.185533 -0.391578 0.149661 164 164 164
0.188385 -0.389868 0.150074 164 164 164
0.191249 -0.388054 0.150511 164 164 164
0.194118 -0.386221 0.150954 163 163 163
0.196981 -0.384516 0.151365 163 163 163
0.199823 -0.383133 0.151698 162 162 162
0.202674 -0.381668 0.152052 161 161 161
0.205530 -0.380193 0.152408 160 160 160
0.208385 -0.378759 0.152754 159 159 159
0.211215 -0.377666 0.153017 159 159 159
0.214063 -0.376391 0.153325 160 160 160
0.216913 -0.375115 0.153632 160 160 160
0.219766 -0.373836 0.153941 160 160 160
0.222624 -0.372542 0.154253 161 161 161
0.225484 -0.371248 0.154565 162 162 162
0.228346 -0.369953 0.154878 163 163 163
0.231244 -0.368295 0.155278 167 167 167
0.234252 -0.365440 0.155966 169 169 169
0.237286 -0.362366 0.156708 170 170 170
0.240281 -0.359781 0.157331 173 173 173
0.243362 -0.356331 0.158163 175 175 175
0.246525 -0.352084 0.159188 175 175 175
0.249686 -0.347946 0.160186 176 176 176
0.252821 -0.344173 0.161096 178 178 178
0.256044 -0.339573 0.162206 179 179 179
0.259301 -0.334722 0.163376 182 182 182
0.262616 -0.329384 0.164664 181 181 181
0.265760 -0.325883 0.165508 181 181 181
0.268911 -0.322373 0.166355 181 181 181
0.272028 -0.319275 0.167102 182 182 182
0.275123 -0.316454 0.167782 182 182 182
0.278225 -0.313627 0.168464 182 182 182
0.281327 -0.310848 0.169135 182 182 182
0.284414 -0.308267 0.169757 182 182 182
0.287546 -0.305319 0.170468 181 181 181
0.290597 -0.303173 0.170986 181 181 181
0.293673 -0.300843 0.171548 181 181 181
0.296761 -0.298453 0.172124 181 181 181
0.299854 -0.296059 0.172702 181 181 181
0.303025 -0.293009 0.173438 182 182 182
0.306275 -0.289327 0.174326 183 183 183
0.309537 -0.285606 0.175223 183 183 183
0.312869 -0.281347 0.176251 183 183 183
0.316336 -0.276013 0.177537 182 182 182
0.319791 -0.270869 0.178778 182 182 182
0.323239 -0.265873 0.179983 182 182 182
0.326769 -0.260285 0.181331 182 182 182
0.330457 -0.253481 0.182972 184 184 184
0.334264 -0.245822 0.184820 188 188 188
0.340622 -0.217537 0.191643 198 198 198
0.346160 -0.196351 0.196753 190 190 190
0.350071 -0.188528 0.198640 181 181 181
0.353736 -0.182790 0.200024 178 178 178
0.357339 -0.177638 0.201267 177 177 177
0.360990 -0.172198 0.202579 177 177 177
0.364549 -0.167555 0.203699 177 177 177
0.368117 -0.162912 0.204819 178 178 178
0.371676 -0.158422 0.205902 179 179 179
0.375339 -0.153213 0.207159 180 180 180
0.379098 -0.147362 0.208570 183 183 183
0.383538 -0.136546 0.211179 188 188 188
0.389992 -0.111029 0.217334 143 143 143
-0.397683 -0.163445 0.201646 100 100 100
-0.393116 -0.174892 0.198897 138 138 138
-0.389039 -0.182977 0.196956 138 138 138
-0.385160 -0.189747 0.195330 138 138 138
-0.380976 -0.198859 0.193142 138 138 138
-0.376544 -0.209944 0.190480 138 138 138
-0.372562 -0.217850 0.188581 138 138 138
-0.369068 -0.222223 0.187531 138 138 138
-0.365691 -0.225782 0.186677 138 138 138
-0.362305 -0.229468 0.185792 138 138 138
-0.358858 -0.233680 0.184780 138 138 138
-0.355396 -0.238077 0.183724 138 138 138
-0.351971 -0.242259 0.182720 138 138 138
-0.348526 -0.246666 0.181661 138 138 138
-0.344834 -0.253107 0.180115 138 138 138
-0.340959 -0.261115 0.178192 138 138 138
-0.337283 -0.267662 0.176620 138 138 138
-0.333595 -0.274415 0.174998 142 142 142
-0.330095 -0.279737 0.173720 143 143 143
-0.326781 -0.283612 0.172789 146 146 146
-0.323488 -0.287389 0.171882 149 149 149
-0.320179 -0.291357 0.170929 152 152 152
-0.316903 -0.295120 0.170026 153 153 153
-0.313659 -0.298679 0.169171 152 152 152
-0.310317 -0.303143 0.168099 153 153 153
-0.306971 -0.307734 0.166997 155 155 155
-0.303595 -0.312670 0.165811 155 155 155
-0.300104 -0.318721 0.164358 156 156 156
-0.296859 -0.322669 0.163410 151 151 151
-0.293603 -0.326803 0.162418 146 146 146
-0.290447 -0.330096 0.161627 145 145 145
-0.287331 -0.333083 0.160910 145 145 145
-0.284149 -0.336748 0.160029 144 144 144
-0.281039 -0.339803 0.159296 139 139 139
-0.277986 -0.342382 0.158676 138 138 138
-0.274939 -0.344957 0.158058 138 138 138
-0.271931 -0.347200 0.157519 138 138 138
-0.268959 -0.349128 0.157056 138 138 138
-0.265994 -0.351044 0.156596 138 138 138
-0.263053 -0.352750 0.156187 138 138 138
-0.260131 -0.354295 0.155816 138 138 138
-0.257215 -0.355826 0.155448 138 138 138
-0.254285 -0.357520 0.155041 138 138 138
-0.251348 -0.359332 0.154606 138 138 138
-0.248408 -0.361216 0.154154 138 138 138
-0.245475 -0.363072 0.153708 138 138 138
-0.242560 -0.364763 0.153302 138 138 138
-0.239652 -0.366431 0.152901 138 138 138
-0.236744 -0.368130 0.152493 138 138 138
-0.233850 -0.369707 0.152115 138 138 138
-0.230965 -0.371221 0.151751 138 138 138
-0.228107 -0.372476 0.151450 138 138 138
-0.225249 -0.373740 0.151146 138 138 138
-0.222391 -0.375047 0.150832 138 138 138
-0.219514 -0.376617 0.150455 138 138 138
-0.216640 -0.378186 0.150079 138 138 138
-0.213770 -0.379748 0.149703 138 138 138
-0.210862 -0.381814 0.149207 138 138 138
-0.207933 -0.384201 0.148634 138 138 138
-0.204967 -0.387124 0.147932 138 138 138
-0.201826 -0.392378 0.146670 138 138 138
-0.198628 -0.398515 0.145197 138 138 138
-0.195398 -0.405250 0.143579 140 140 140
-0.192289 -0.410557 0.142305 146 146 146
-0.189352 -0.413664 0.141559 151 151 151
-0.186487 -0.415871 0.141029 154 154 154
-0.183639 -0.417916 0.140538 159 159 159
-0.180826 -0.419509 0.140155 161 161 161
-0.178021 -0.421049 0.139785 162 162 162
-0.175256 -0.422034 0.139549 165 165 165
-0.172496 -0.422982 0.139321 166 166 166
-0.169762 -0.423572 0.139180 166 166 166
-0.167005 -0.424543 0.138946 166 166 166
-0.164212 -0.426091 0.138575 165 165 165
-0.161451 -0.427184 0.138312 163 163 163
-0.158677 -0.428529 0.137989 162 162 162
-0.155893 -0.430092 0.137614 162 162 162
-0.153111 -0.431653 0.137239 161 161 161
-0.150332 -0.433243 0.136857 161 161 161
-0.147521 -0.435440 0.136330 158 158 158
-0.144729 -0.437374 0.135865 155 155 155
-0.141949 -0.439178 0.135432 154 154 154
-0.139172 -0.440980 0.134999 153 153 153
-0.136405 -0.442681 0.134591 152 152 152
-0.133658 -0.444065 0.134258 151 151 151
-0.130911 -0.445493 0.133915 150 150 150
-0.128189 -0.446490 0.133676 150 150 150
-0.125470 -0.447475 0.133439 151 151 151
-0.122753 -0.448460 0.133203 151 151 151
-0.120039 -0.449444 0.132967 152 152 152
-0.117331 -0.450320 0.132756 153 153 153
-0.114661 -0.450400 0.132737 153 153 153
-0.111995 -0.450379 0.132742 153 153 153
-0.109335 -0.450229 0.132778 153 153 153
-0.106679 -0.449995 0.132834 152 152 152
-0.104022 -0.449756 0.132892 151 151 151
-0.101363 -0.449545 0.132942 150 150 150
-0.098704 -0.449354 0.132988 150 150 150
-0.096043 -0.449162 0.133034 149 149 149
-0.093382 -0.448983 0.133077 149 149 149
-0.090716 -0.448934 0.133089 149 149 149
-0.088042 -0.449120 0.133044 147 147 147
-0.085357 -0.449624 0.132924 145 145 145
-0.082666 -0.450362 0.132746 144 144 144
-0.079977 -0.451101 0.132569 142 142 142
-0.077288 -0.451859 0.132387 139 139 139
-0.074601 -0.452627 0.132202 138 138 138
-0.071915 -0.453395 0.132018 138 138 138
-0.069231 -0.454164 0.131833 138 138 138
-0.066538 -0.455299 0.131561 138 138 138
-0.063841 -0.456744 0.131214 138 138 138
-0.061144 -0.458305 0.130839 138 138 138
-0.058450 -0.459853 0.130467 138 138 138
-0.055765 -0.461138 0.130158 138 138 138
-0.053083 -0.462422 0.129850 138 138 138
-0.050400 -0.463912 0.129492 138 138 138
-0.047723 -0.465216 0.129179 138 138 138
-0.045053 -0.466281 0.128923 144 144 144
-0.042387 -0.467271 0.128686 149 149 149
-0.039726 -0.468048 0.128499 152 152 152
-0.037067 -0.468801 0.128318 155 155 155
-0.034414 -0.469252 0.128210 155 155 155
-0.031762 -0.469701 0.128102 154 154 154
-0.029111 -0.470118 0.128002 153 153 153
-0.026463 -0.470381 0.127939 155 155 155
-0.023817 -0.470407 0.127933 157 157 157
-0.021174 -0.470120 0.128002 160 160 160
-0.018533 -0.469467 0.128158 162 162 162
-0.015891 -0.468802 0.128318 163 163 163
-0.013248 -0.468137 0.128478 165 165 165
-0.010603 -0.467409 0.128652 167 167 167
-0.007957 -0.466513 0.128868 170 170 170
-0.005310 -0.465535 0.129102 172 172 172
-0.002661 -0.464413 0.129372 172 172 172
-0.000009 -0.463649 0.129555 171 171 171
0.002644 -0.462468 0.129839 171 171 171
0.005300 -0.461261 0.130129 171 171 171
0.007959 -0.460034 0.130423 171 171 171
0.010621 -0.458806 0.130718 171 171 171
0.013288 -0.456920 0.131171 170 170 170
0.015960 -0.454984 0.131636 169 169 169
0.018633 -0.453326 0.132034 166 166 166
0.021305 -0.452374 0.132263 161 161 161
0.023976 -0.451561 0.132458 157 157 157
0.026649 -0.450891 0.132619 154 154 154
0.029322 -0.450220 0.132780 152 152 152
0.031995 -0.449746 0.132894 148 148 148
0.034668 -0.449290 0.133004 144 144 144
0.037343 -0.448756 0.133132 141 141 141
0.040018 -0.448305 0.133240 140 140 140
0.042694 -0.447876 0.133343 139 139 139
0.045371 -0.447447 0.133446 139 139 139
0.048044 -0.447223 0.133500 138 138 138
0.050717 -0.447057 0.133540 138 138 138
0.053391 -0.446891 0.133580 138 138 138
0.056064 -0.446722 0.133620 138 138 138
0.058739 -0.446523 0.133668 139 139 139
0.061407 -0.446604 0.133648 140 140 140
0.064078 -0.446582 0.133654 142 142 142
0.066749 -0.446561 0.133659 144 144 144
0.069421 -0.446489 0.133676 146 146 146
0.072108 -0.445930 0.133810 146 146 146
0.074800 -0.445222 0.133980 148 148 148
0.077493 -0.444512 0.134151 149 149 149
0.080188 -0.443802 0.134321 150 150 150
0.082887 -0.442998 0.134514 157 157 157
0.085609 -0.441585 0.134854 161 161 161
0.088332 -0.440198 0.135187 165 165 165
0.091077 -0.438311 0.135640 168 168 168
0.093850 -0.435751 0.136255 169 169 169
0.096628 -0.433198 0.136868 172 172 172
0.099400 -0.430951 0.137407 174 174 174
0.102192 -0.428305 0.138043 175 175 175
0.104998 -0.425457 0.138727 177 177 177
0.107792 -0.423044 0.139306 175 175 175
0.110588 -0.420712 0.139866 174 174 174
0.113356 -0.419114 0.140250 173 173 173
0.116109 -0.417921 0.140536 172 172 172
0.118846 -0.417115 0.140730 172 172 172
0.121586 -0.416306 0.140924 171 171 171
0.124328 -0.415468 0.141125 171 171 171
0.127077 -0.414544 0.141347 168 168 168
0.129834 -0.413485 0.141602 168 168 168
0.132593 -0.412453 0.141849 168 168 168
0.135363 -0.411238 0.142141 168 168 168
0.138139 -0.409948 0.142451 167 167 167
0.140908 -0.408842 0.142717 167 167 167
0.143677 -0.407794 0.142968 166 166 166
0.146444 -0.406797 0.143208 166 166 166
0.149218 -0.405733 0.143463 166 166 166
0.152035 -0.403971 0.143886 165 165 165
0.154849 -0.402305 0.144286 164 164 164
0.157626 -0.401323 0.144522 164 164 164
0.160405 -0.400341 0.144758 163 163 163
0.163170 -0.399607 0.144934 163 163 163
0.165922 -0.399100 0.145056 163 163 163
0.168680 -0.398521 0.145195 164 164 164
0.171442 -0.397897 0.145345 164 164 164
0.174232 -0.396881 0.145589 164 164 164
0.177034 -0.395720 0.145867 164 164 164
0.179842 -0.394502 0.146160 164 164 164
0.182653 -0.393282 0.146453 164 164 164
0.185480 -0.391867 0.146793 163 163 163
0.188347 -0.389944 0.147254 163 163 163
0.191192 -0.388372 0.147632 161 161 161
0.194049 -0.386701 0.148033 160 160 160
0.196936 -0.384656 0.148525 160 160 160
0.199807 -0.382886 0.148949 160 160 160
0.202659 -0.381413 0.149303 159 159 159
0.205513 -0.379950 0.149655 158 158 158
0.208360 -0.378615 0.149975 157 157 157
0.211191 -0.377514 0.150240 157 157 157
0.214011 -0.376571 0.150466 157 157 157
0.216849 -0.375429 0.150740 158 158 158
0.219702 -0.374144 0.151049 158 158 158
0.222559 -0.372852 0.151359 159 159 159
0.225422 -0.371510 0.151681 160 160 160
0.228289 -0.370157 0.152006 161 161 161
0.231194 -0.368409 0.152426 163 163 163
0.234168 -0.365927 0.153022 165 165 165
0.237151 -0.363399 0.153629 168 168 168
0.240168 -0.360561 0.154311 170 170 170
0.243274 -0.356829 0.155207 173 173 173
0.246423 -0.352713 0.156195 174 174 174
0.249559 -0.348829 0.157128 175 175 175
0.252684 -0.345153 0.158011 175 175 175
0.255878 -0.340837 0.159047 178 178 178
0.259109 -0.336228 0.160154 179 179 179
0.262373 -0.331392 0.161315 179 179 179
0.265544 -0.327580 0.162231 179 179 179
0.268749 -0.323523 0.163205 180 180 180
0.271835 -0.320710 0.163880 180 180 180
0.274901 -0.318147 0.164496 180 180 180
0.277997 -0.315357 0.165166 181 181 181
0.281068 -0.312847 0.165768 181 181 181
0.284113 -0.310643 0.166298 180 180 180
0.287195 -0.308136 0.166900 180 180 180
0.290274 -0.305698 0.167485 180 180 180
0.293353 -0.303309 0.168059 180 180 180
0.296448 -0.300823 0.168656 180 180 180
0.299549 -0.298333 0.169254 180 180 180
0.302686 -0.295567 0.169918 181 181 181
0.305897 -0.292193 0.170728 182 182 182
0.309158 -0.288454 0.171626 183 183 183
0.312564 -0.283519 0.172811 183 183 183
0.316041 -0.278072 0.174119 182 182 182
0.319496 -0.272906 0.175360 182 182 182
0.323033 -0.267140 0.176744 181 181 181
0.326563 -0.261534 0.178090 181 181 181
0.330157 -0.255492 0.179541 182 182 182
0.333788 -0.249259 0.181038 185 185 185
0.337864 -0.239506 0.183380 190 190 190
0.345398 -0.202014 0.192384 194 194 194
0.349806 -0.190166 0.195229 183 183 183
0.353465 -0.184458 0.196599 180 180 180
0.357177 -0.178430 0.198047 178 178 178
0.360842 -0.172866 0.199383 177 177 177
0.364386 -0.168330 0.200472 177 177 177
0.367947 -0.163728 0.201577 178 178 178
0.371474 -0.159470 0.202600 179 179 179
0.375074 -0.154726 0.203739 180 180 180
0.378860 -0.148659 0.205196 182 182 182
0.383181 -0.138705 0.207587 187 187 187
0.388888 -0.118677 0.212396 194 194 194
-0.396676 -0.170113 0.197008 138 138 138
-0.392575 -0.178275 0.195057 138 138 138
-0.388709 -0.184875 0.193479 138 138 138
-0.384727 -0.192414 0.191677 138 138 138
-0.380204 -0.204032 0.188899 138 138 138
-0.376082 -0.212870 0.186787 138 138 138
-0.372340 -0.219019 0.185316 138 138 138
-0.368843 -0.223430 0.184262 138 138 138
-0.365399 -0.227511 0.183287 138 138 138
-0.362002 -0.231302 0.182380 138 138 138
-0.358540 -0.235648 0.181341 138 138 138
-0.355117 -0.239763 0.180358 138 138 138
-0.351629 -0.244456 0.179235 138 138 138
-0.348183 -0.248891 0.178175 138 138 138
-0.344416 -0.255947 0.176488 138 138 138
-0.340631 -0.263270 0.174738 138 138 138
-0.336809 -0.271018 0.172886 138 138 138
-0.333162 -0.277463 0.171345 141 141 141
-0.329703 -0.282487 0.170144 144 144 144
-0.326382 -0.286450 0.169196 148 148 148
-0.323080 -0.290331 0.168269 150 150 150
-0.319828 -0.293851 0.167427 152 152 152
-0.316582 -0.297388 0.166582 151 151 151
-0.313197 -0.302176 0.165437 152 152 152
-0.309777 -0.307356 0.164199 153 153 153
-0.306381 -0.312426 0.162986 155 155 155
-0.302956 -0.317840 0.161692 156 156 156
-0.299745 -0.321448 0.160830 151 151 151
-0.296488 -0.325548 0.159850 146 146 146
-0.293347 -0.328661 0.159105 144 144 144
-0.290216 -0.331754 0.158366 143 143 143
-0.287098 -0.334779 0.157643 143 143 143
-0.283957 -0.338087 0.156852 139 139 139
-0.280880 -0.340846 0.156193 138 138 138
-0.277833 -0.343382 0.155586 138 138 138
-0.274811 -0.345725 0.155026 138 138 138
-0.271830 -0.347721 0.154549 138 138 138
-0.268840 -0.349848 0.154040 138 138 138
-0.265895 -0.351570 0.153629 138 138 138
-0.262980 -0.353024 0.153281 138 138 138
-0.260065 -0.354508 0.152926 138 138 138
-0.257146 -0.356074 0.152552 138 138 138
-0.254217 -0.357767 0.152147 138 138 138
-0.251290 -0.359482 0.151737 138 138 138
-0.248367 -0.361193 0.151328 138 138 138
-0.245439 -0.363004 0.150895 138 138 138
-0.242525 -0.364696 0.150491 138 138 138
-0.239613 -0.366397 0.150084 138 138 138
-0.236703 -0.368125 0.149671 138 138 138
-0.233810 -0.369703 0.149294 138 138 138
-0.230929 -0.371182 0.148940 138 138 138
-0.228063 -0.372521 0.148620 138 138 138
-0.225207 -0.373785 0.148318 138 138 138
-0.222334 -0.375267 0.147964 138 138 138
-0.219459 -0.376823 0.147592 138 138 138
-0.216588 -0.378366 0.147223 138 138 138
-0.213702 -0.380130 0.146801 138 138 138
-0.210798 -0.382161 0.146316 138 138 138
-0.207866 -0.384594 0.145734 138 138 138
-0.204901 -0.387516 0.145036 138 138 138
-0.201720 -0.393298 0.143653 138 138 138
-0.198540 -0.399217 0.142238 138 138 138
-0.195235 -0.406967 0.140386 140 140 140
-0.192163 -0.411796 0.139231 146 146 146
-0.189160 -0.415832 0.138266 150 150 150
-0.186303 -0.417971 0.137755 156 156 156
-0.183493 -0.419513 0.137386 157 157 157
-0.180686 -0.421052 0.137018 159 159 159
-0.177883 -0.422590 0.136651 161 161 161
-0.175115 -0.423656 0.136396 164 164 164
-0.172350 -0.424716 0.136142 164 164 164
-0.169587 -0.425775 0.135889 164 164 164
-0.166823 -0.426892 0.135622 163 163 163
-0.164062 -0.427985 0.135361 163 163 163
-0.161304 -0.429076 0.135100 162 162 162
-0.158520 -0.430624 0.134730 161 161 161
-0.155738 -0.432184 0.134357 162 162 162
-0.152964 -0.433677 0.134000 160 160 160
-0.150185 -0.435294 0.133614 157 157 157
-0.147404 -0.437027 0.133199 155 155 155
-0.144620 -0.438847 0.132764 154 154 154
-0.141851 -0.440498 0.132370 152 152 152
-0.139084 -0.442146 0.131976 151 151 151
-0.136341 -0.443426 0.131669 150 150 150
-0.133597 -0.444772 0.131348 149 149 149
-0.130855 -0.446145 0.131020 148 148 148
-0.128121 -0.447405 0.130718 148 148 148
-0.125402 -0.448430 0.130473 149 149 149
-0.122687 -0.449405 0.130240 149 149 149
-0.119974 -0.450373 0.130009 150 150 150
-0.117288 -0.450796 0.129907 153 153 153
-0.114625 -0.450760 0.129916 153 153 153
-0.111959 -0.450766 0.129915 153 153 153
-0.109293 -0.450771 0.129914 154 154 154
-0.106628 -0.450776 0.129912 154 154 154
-0.103972 -0.450534 0.129970 153 153 153
-0.101317 -0.450279 0.130031 152 152 152
-0.098658 -0.450081 0.130078 152 152 152
-0.095999 -0.449891 0.130124 151 151 151
-0.093339 -0.449728 0.130163 151 151 151
-0.090671 -0.449752 0.130157 151 151 151
-0.088004 -0.449776 0.130151 150 150 150
-0.085337 -0.449800 0.130146 149 149 149
-0.082655 -0.450271 0.130033 146 146 146
-0.079965 -0.451016 0.129855 144 144 144
-0.077277 -0.451784 0.129671 140 140 140
-0.074590 -0.452552 0.129488 138 138 138
-0.071905 -0.453320 0.129304 138 138 138
-0.069216 -0.454246 0.129083 138 138 138
-0.066528 -0.455272 0.128837 138 138 138
-0.063834 -0.456593 0.128522 138 138 138
-0.061137 -0.458153 0.128149 138 138 138
-0.058443 -0.459712 0.127776 138 138 138
-0.055757 -0.461062 0.127453 138 138 138
-0.053074 -0.462419 0.127129 138 138 138
-0.050392 -0.463833 0.126791 138 138 138
-0.047715 -0.465185 0.126468 138 138 138
-0.045041 -0.466527 0.126147 138 138 138
-0.042372 -0.467720 0.125862 144 144 144
-0.039710 -0.468603 0.125650 148 148 148
-0.037055 -0.469193 0.125510 150 150 150
-0.034403 -0.469642 0.125402 150 150 150
-0.031753 -0.469985 0.125320 150 150 150
-0.029104 -0.470312 0.125242 151 151 151
-0.026455 -0.470642 0.125163 152 152 152
-0.023810 -0.470721 0.125144 153 153 153
-0.021167 -0.470532 0.125189 156 156 156
-0.018525 -0.470191 0.125271 158 158 158
-0.015884 -0.469527 0.125430 160 160 160
-0.013242 -0.468861 0.125589 162 162 162
-0.010598 -0.468181 0.125751 165 165 165
-0.007953 -0.467383 0.125942 167 167 167
-0.005307 -0.466578 0.126135 169 169 169
-0.002659 -0.465812 0.126318 171 171 171
-0.000009 -0.465130 0.126481 171 171 171
0.002642 -0.463928 0.126768 171 171 171
0.005297 -0.462704 0.127061 170 170 170
0.007953 -0.461478 0.127354 170 170 170
0.010614 -0.460054 0.127694 170 170 170
0.013279 -0.458123 0.128156 169 169 169
0.015949 -0.456189 0.128618 168 168 168
0.018623 -0.454253 0.129081 166 166 166
0.021301 -0.452369 0.129531 165 165 165
0.023973 -0.451528 0.129733 160 160 160
0.026646 -0.450729 0.129923 156 156 156
0.029320 -0.449957 0.130108 152 152 152
0.031995 -0.449306 0.130264 149 149 149
0.034669 -0.448772 0.130391 146 146 146
0.037345 -0.448214 0.130525 142 142 142
0.040021 -0.447701 0.130647 139 139 139
0.042698 -0.447223 0.130762 138 138 138
0.045373 -0.446872 0.130846 138 138 138
0.048047 -0.446632 0.130903 138 138 138
0.050722 -0.446361 0.130968 138 138 138
0.053398 -0.446090 0.131033 138 138 138
0.056075 -0.445818 0.131097 138 138 138
0.058744 -0.445855 0.131089 138 138 138
0.061410 -0.446046 0.131043 138 138 138
0.064076 -0.446238 0.130997 140 140 140
0.066745 -0.446263 0.130991 142 142 142
0.069419 -0.446128 0.131023 144 144 144
0.072110 -0.445427 0.131191 144 144 144
0.074801 -0.444718 0.131360 146 146 146
0.077492 -0.444106 0.131507 147 147 147
0.080183 -0.443520 0.131647 149 149 149
0.082884 -0.442649 0.131855 157 157 157
0.085594 -0.441582 0.132110 159 159 159
0.088319 -0.440142 0.132454 164 164 164
0.091051 -0.438585 0.132827 168 168 168
0.093825 -0.436001 0.133444 171 171 171
0.096590 -0.433760 0.133980 172 172 172
0.099361 -0.431514 0.134517 173 173 173
0.102136 -0.429264 0.135055 175 175 175
0.104914 -0.427064 0.135581 176 176 176
0.107706 -0.424647 0.136159 176 176 176
0.110514 -0.421987 0.136794 175 175 175
0.113297 -0.420011 0.137267 174 174 174
0.116034 -0.419126 0.137478 173 173 173
0.118768 -0.418361 0.137661 173 173 173
0.121506 -0.417554 0.137854 172 172 172
0.124245 -0.416746 0.138047 171 171 171
0.126995 -0.415756 0.138284 171 171 171
0.129756 -0.414594 0.138562 169 169 169
0.132528 -0.413255 0.138882 168 168 168
0.135301 -0.411964 0.139191 167 167 167
0.138073 -0.410746 0.139482 166 166 166
0.140840 -0.409641 0.139746 166 166 166
0.143610 -0.408546 0.140008 166 166 166
0.146376 -0.407549 0.140246 166 166 166
0.149154 -0.406395 0.140522 165 165 165
0.151951 -0.404952 0.140867 164 164 164
0.154758 -0.403391 0.141240 163 163 163
0.157562 -0.401922 0.141591 162 162 162
0.160343 -0.400895 0.141837 162 162 162
0.163137 -0.399685 0.142126 161 161 161
0.165888 -0.399179 0.142247 162 162 162
0.168641 -0.398672 0.142368 162 162 162
0.171397 -0.398123 0.142499 161 161 161
0.174177 -0.397243 0.142710 159 159 159
0.176970 -0.396200 0.142959 163 163 163
0.179777 -0.394982 0.143250 163 163 163
0.182587 -0.393763 0.143542 163 163 163
0.185432 -0.392086 0.143943 161 161 161
0.188311 -0.389991 0.144443 162 162 162
0.191156 -0.388420 0.144819 160 160 160
0.194004 -0.386846 0.145195 158 158 158
0.196894 -0.384766 0.145692 157 157 157
0.199789 -0.382679 0.146191 158 158 158
0.202644 -0.381158 0.146555 157 157 157
0.205489 -0.379804 0.146879 154 154 154
0.208336 -0.378471 0.147197 155 155 155
0.211175 -0.377259 0.147487 155 155 155
0.213995 -0.376317 0.147712 155 155 155
0.216817 -0.375374 0.147938 155 155 155
0.219655 -0.374258 0.148204 156 156 156
0.222512 -0.372950 0.148517 157 157 157
0.225376 -0.371599 0.148840 158 158 158
0.228242 -0.370247 0.149163 160 160 160
0.231172 -0.368209 0.149651 162 162 162
0.234126 -0.365947 0.150191 164 164 164
0.237106 -0.363450 0.150788 166 166 166
0.240124 -0.360593 0.151471 168 168 168
0.243194 -0.357242 0.152272 170 170 170
0.246322 -0.353341 0.153205 172 172 172
0.249440 -0.349634 0.154091 173 173 173
0.252566 -0.345926 0.154977 175 175 175
0.255712 -0.342096 0.155893 177 177 177
0.258942 -0.337486 0.156995 178 178 178
0.262179 -0.332900 0.158092 178 178 178
0.265400 -0.328564 0.159128 178 178 178
0.268593 -0.324606 0.160074 178 178 178
0.271664 -0.321928 0.160715 178 178 178
0.274719 -0.319458 0.161305 179 179 179
0.277783 -0.316948 0.161905 179 179 179
0.280838 -0.314579 0.162471 179 179 179
0.283880 -0.312378 0.162997 179 179 179
0.286927 -0.310174 0.163524 179 179 179
0.289985 -0.307903 0.164067 179 179 179
0.293072 -0.305416 0.164662 180 180 180
0.296163 -0.302950 0.165251 180 180 180
0.299260 -0.300463 0.165846 180 180 180
0.302403 -0.297614 0.166527 180 180 180
0.305568 -0.294630 0.167240 181 181 181
0.308766 -0.291408 0.168011 182 182 182
0.312216 -0.286069 0.169287 182 182 182
0.315781 -0.279835 0.170777 182 182 182
0.319294 -0.274152 0.172136 181 181 181
0.322861 -0.268118 0.173578 181 181 181
0.326390 -0.262510 0.174919 180 180 180
0.329905 -0.257110 0.176210 180 180 180
0.333529 -0.250908 0.177692 183 183 183
0.337118 -0.245104 0.179080 186 186 186
0.341251 -0.235001 0.181495 191 191 191
0.349377 -0.193115 0.191509 186 186 186
0.353244 -0.185726 0.193275 183 183 183
0.356966 -0.179606 0.194738 181 181 181
0.360627 -0.174054 0.196065 179 179 179
0.364216 -0.169159 0.197236 178 178 178
0.367744 -0.164806 0.198276 179 179 179
0.371272 -0.160516 0.199302 180 180 180
0.374861 -0.155842 0.200419 181 181 181
0.378592 -0.150177 0.201773 182 182 182
0.382527 -0.143081 0.203470 185 185 185
0.387769 -0.126443 0.207447 195 195 195
0.395532 -0.091595 0.215778 199 199 199
-0.400356 -0.164545 0.195298 100 100 100
-0.396115 -0.173613 0.193139 138 138 138
-0.392297 -0.179784 0.191671 138 138 138
-0.388380 -0.186767 0.190009 138 138 138
-0.384075 -0.196669 0.187653 138 138 138
-0.379661 -0.207534 0.185067 138 138 138
-0.375736 -0.214948 0.183302 138 138 138
-0.372132 -0.220091 0.182078 138 138 138
-0.368658 -0.224346 0.181066 138 138 138
-0.365191 -0.228608 0.180051 138 138 138
-0.361688 -0.233214 0.178955 138 138 138
-0.358239 -0.237484 0.177939 138 138 138
-0.354778 -0.241913 0.176885 138 138 138
-0.351287 -0.246649 0.175758 138 138 138
-0.347663 -0.252508 0.174364 138 138 138
-0.343955 -0.259138 0.172786 138 138 138
-0.340094 -0.267100 0.170891 138 138 138
-0.336303 -0.274633 0.169098 141 141 141
-0.332705 -0.280715 0.167651 139 139 139
-0.329354 -0.284881 0.166659 144 144 144
-0.326036 -0.288851 0.165715 148 148 148
-0.322754 -0.292581 0.164827 150 150 150
-0.319506 -0.296096 0.163990 152 152 152
-0.316147 -0.300623 0.162913 149 149 149
-0.312721 -0.305793 0.161683 152 152 152
-0.309293 -0.311086 0.160423 152 152 152
-0.305828 -0.316791 0.159065 155 155 155
-0.302602 -0.320500 0.158183 151 151 151
-0.299374 -0.324293 0.157280 146 146 146
-0.296230 -0.327400 0.156540 139 139 139
-0.293131 -0.330162 0.155883 142 142 142
-0.290000 -0.333276 0.155142 141 141 141
-0.286877 -0.336368 0.154406 140 140 140
-0.283778 -0.339294 0.153710 138 138 138
-0.280738 -0.341728 0.153131 138 138 138
-0.277704 -0.344157 0.152553 138 138 138
-0.274725 -0.346102 0.152090 138 138 138
-0.271744 -0.348106 0.151613 138 138 138
-0.268761 -0.350167 0.151122 138 138 138
-0.265834 -0.351718 0.150753 138 138 138
-0.262916 -0.353208 0.150399 138 138 138
-0.259996 -0.354754 0.150031 138 138 138
-0.257077 -0.356322 0.149658 138 138 138
-0.254148 -0.358030 0.149251 138 138 138
-0.251220 -0.359763 0.148839 138 138 138
-0.248301 -0.361445 0.148438 138 138 138
-0.245397 -0.362999 0.148068 138 138 138
-0.242485 -0.364667 0.147672 138 138 138
-0.239574 -0.366378 0.147264 138 138 138
-0.236663 -0.368120 0.146850 138 138 138
-0.233770 -0.369699 0.146474 138 138 138
-0.230897 -0.371098 0.146141 138 138 138
-0.228030 -0.372446 0.145820 138 138 138
-0.225154 -0.373951 0.145462 138 138 138
-0.222281 -0.375439 0.145108 138 138 138
-0.219408 -0.376983 0.144741 138 138 138
-0.216536 -0.378546 0.144369 138 138 138
-0.213624 -0.380625 0.143874 138 138 138
-0.210697 -0.382963 0.143317 138 138 138
-0.207757 -0.385510 0.142711 138 138 138
-0.204787 -0.388514 0.141996 138 138 138
-0.201644 -0.393826 0.140732 138 138 138
-0.198445 -0.400014 0.139259 138 138 138
-0.195078 -0.408600 0.137216 141 141 141
-0.192022 -0.413250 0.136110 145 145 145
-0.189017 -0.417336 0.135137 152 152 152
-0.186159 -0.419509 0.134620 154 154 154
-0.183351 -0.421064 0.134250 156 156 156
-0.180547 -0.422593 0.133886 158 158 158
-0.177746 -0.424129 0.133521 160 160 160
-0.174972 -0.425310 0.133239 161 161 161
-0.172210 -0.426356 0.132990 162 162 162
-0.169450 -0.427405 0.132741 163 163 163
-0.166675 -0.428717 0.132429 162 162 162
-0.163913 -0.429875 0.132153 162 162 162
-0.161145 -0.431156 0.131848 162 162 162
-0.158371 -0.432585 0.131508 160 160 160
-0.155598 -0.434053 0.131159 157 157 157
-0.152816 -0.435704 0.130766 155 155 155
-0.150054 -0.437079 0.130439 153 153 153
