ply
format ascii 1.0
element vertex 1190
property float x
property float y
property float z
property uchar red
property uchar green
property uchar blue
end_header
0.422508 -0.104480 0.039145 178 178 178
0.422781 -0.098079 0.040184 178 178 178
0.423208 -0.092007 0.041152 177 177 177
0.423689 -0.086035 0.042099 176 176 176
0.424327 -0.080403 0.042975 176 176 176
0.424910 -0.074621 0.043880 175 175 175
0.425364 -0.068507 0.044853 175 175 175
0.425831 -0.062400 0.045824 175 175 175
0.426438 -0.056596 0.046731 174 174 174
0.426968 -0.050584 0.047680 174 174 174
0.427535 -0.044634 0.048615 173 173 173
0.428048 -0.038528 0.049581 173 173 173
0.428419 -0.032056 0.050622 172 172 172
0.428741 -0.025434 0.051692 172 172 172
0.428909 -0.018414 0.052843 172 172 172
0.428760 -0.010592 0.054158 171 171 171
0.428607 -0.002724 0.055481 170 170 170
0.428772 0.004406 0.056651 169 169 169
0.428633 0.012312 0.057979 169 169 169
0.428669 0.019829 0.059226 170 170 170
0.428401 0.028127 0.060632 170 170 170
0.427861 0.037134 0.062181 170 170 170
0.427289 0.046264 0.063755 171 171 171
0.426096 0.056976 0.065651 174 174 174
0.424783 0.068042 0.067617 175 175 175
0.423404 0.079329 0.069626 180 180 180
-0.334408 -0.292098 0.077539 100 100 100
-0.323239 -0.301343 0.074944 138 138 138
-0.309091 -0.314388 0.071436 138 138 138
-0.219415 -0.422930 0.044922 138 138 138
-0.213152 -0.426313 0.043765 138 138 138
-0.207210 -0.429310 0.042702 138 138 138
-0.203680 -0.429259 0.042373 138 138 138
-0.200155 -0.429208 0.042045 138 138 138
-0.196771 -0.428982 0.041759 138 138 138
-0.193434 -0.428700 0.041487 138 138 138
-0.190238 -0.428243 0.041258 138 138 138
-0.186762 -0.428150 0.040941 138 138 138
-0.183253 -0.428105 0.040614 138 138 138
-0.179594 -0.428259 0.040239 138 138 138
-0.175881 -0.428490 0.039846 138 138 138
-0.171975 -0.428977 0.039393 138 138 138
-0.167458 -0.430267 0.038748 138 138 138
-0.163347 -0.431039 0.038228 138 138 138
-0.159342 -0.431682 0.037739 138 138 138
-0.155695 -0.431865 0.037361 138 138 138
-0.152075 -0.432021 0.036989 138 138 138
-0.149507 -0.430803 0.036945 138 138 138
-0.146613 -0.430013 0.036800 139 139 139
-0.143531 -0.429474 0.036594 139 139 139
-0.140452 -0.428936 0.036389 139 139 139
-0.137750 -0.427901 0.036303 140 140 140
-0.134485 -0.427615 0.036038 140 140 140
-0.126358 -0.433798 0.034240 138 138 138
-0.118681 -0.439413 0.032578 138 138 138
-0.113312 -0.441977 0.031641 138 138 138
-0.107933 -0.444570 0.030699 138 138 138
-0.103770 -0.445552 0.030139 138 138 138
-0.099721 -0.446390 0.029614 138 138 138
-0.094728 -0.448509 0.028787 138 138 138
-0.090121 -0.450121 0.028080 138 138 138
-0.085368 -0.451944 0.027325 138 138 138
-0.080974 -0.453294 0.026682 138 138 138
-0.077087 -0.453968 0.026199 138 138 138
-0.073145 -0.454725 0.025698 138 138 138
-0.069101 -0.455630 0.025162 138 138 138
-0.065568 -0.455848 0.024789 138 138 138
-0.062174 -0.455881 0.024459 138 138 138
-0.058958 -0.455675 0.024186 138 138 138
-0.055787 -0.455414 0.023926 138 138 138
-0.052631 -0.455136 0.023671 138 138 138
-0.049503 -0.454825 0.023424 138 138 138
-0.046378 -0.454512 0.023177 138 138 138
-0.043333 -0.454095 0.022956 138 138 138
-0.040361 -0.453579 0.022757 138 138 138
-0.037392 -0.453064 0.022559 138 138 138
-0.034471 -0.452485 0.022376 138 138 138
-0.031604 -0.451834 0.022209 138 138 138
-0.028670 -0.451279 0.022021 138 138 138
-0.025739 -0.450725 0.021833 138 138 138
-0.022810 -0.450170 0.021645 139 139 139
-0.019654 -0.449941 0.021382 140 140 140
-0.016367 -0.449901 0.021074 142 142 142
-0.013085 -0.449861 0.020768 143 143 143
-0.009770 -0.449871 0.020449 145 145 145
-0.006320 -0.450083 0.020085 142 142 142
-0.002817 -0.450375 0.019702 142 142 142
0.000668 -0.450649 0.019324 141 141 141
0.004237 -0.451051 0.018917 141 141 141
0.007964 -0.451689 0.018455 142 142 142
0.011685 -0.452325 0.017995 142 142 142
0.015438 -0.453017 0.017522 143 143 143
0.019573 -0.454271 0.016920 143 143 143
0.023526 -0.455272 0.016377 144 144 144
0.027350 -0.456097 0.015875 145 145 145
0.030685 -0.456218 0.015537 146 146 146
0.034004 -0.456324 0.015203 147 147 147
0.037319 -0.456429 0.014869 148 148 148
0.040523 -0.456378 0.014571 149 149 149
0.043384 -0.455829 0.014389 149 149 149
0.046244 -0.455282 0.014206 148 148 148
0.049101 -0.454734 0.014024 148 148 148
0.051897 -0.454099 0.013862 148 148 148
0.054483 -0.453155 0.013771 150 150 150
0.057058 -0.452198 0.013684 151 151 151
0.059623 -0.451228 0.013599 153 153 153
0.062187 -0.450257 0.013515 154 154 154
0.064635 -0.449115 0.013470 155 155 155
0.066995 -0.447840 0.013455 157 157 157
0.069320 -0.446515 0.013453 159 159 159
0.071581 -0.445092 0.013472 160 160 160
0.073734 -0.443506 0.013529 161 161 161
0.076046 -0.442161 0.013530 162 162 162
0.078375 -0.440840 0.013527 163 163 163
0.080613 -0.439381 0.013554 163 163 163
0.082815 -0.437867 0.013594 164 164 164
0.085037 -0.436383 0.013628 163 163 163
0.087286 -0.434938 0.013652 163 163 163
0.089602 -0.433597 0.013652 163 163 163
0.091918 -0.432255 0.013653 163 163 163
0.094262 -0.430957 0.013644 161 161 161
0.096748 -0.429878 0.013585 161 161 161
0.099270 -0.428856 0.013513 160 160 160
0.101798 -0.427846 0.013439 160 160 160
0.104326 -0.426836 0.013365 160 160 160
0.106991 -0.426041 0.013242 158 158 158
0.109689 -0.425299 0.013107 158 158 158
0.112368 -0.424532 0.012978 158 158 158
0.115035 -0.423748 0.012853 156 156 156
0.117798 -0.423118 0.012693 155 155 155
0.120639 -0.422614 0.012505 155 155 155
0.123600 -0.422303 0.012274 156 156 156
0.126509 -0.421916 0.012060 155 155 155
0.129282 -0.421315 0.011895 156 156 156
0.132016 -0.420657 0.011743 155 155 155
0.134749 -0.419999 0.011590 155 155 155
0.137479 -0.419342 0.011438 155 155 155
0.140067 -0.418459 0.011337 155 155 155
0.142594 -0.417479 0.011258 155 155 155
0.145221 -0.416664 0.011142 156 156 156
0.147847 -0.415848 0.011026 157 157 157
0.150530 -0.415126 0.010890 158 158 158
0.153232 -0.414439 0.010745 159 159 159
0.155891 -0.413686 0.010616 160 160 160
0.158549 -0.412932 0.010487 160 160 160
0.161192 -0.412157 0.010363 161 161 161
0.163683 -0.411137 0.010293 162 162 162
0.166175 -0.410118 0.010224 162 162 162
0.168655 -0.409083 0.010158 162 162 162
0.171130 -0.408039 0.010095 162 162 162
0.173449 -0.406740 0.010088 162 162 162
0.175703 -0.405333 0.010106 162 162 162
0.177936 -0.403892 0.010131 162 162 162
0.180158 -0.402430 0.010160 162 162 162
0.182457 -0.401097 0.010161 162 162 162
0.185031 -0.400224 0.010060 162 162 162
0.187554 -0.399268 0.009977 162 162 162
0.190077 -0.398312 0.009894 162 162 162
0.192599 -0.397357 0.009811 162 162 162
0.195084 -0.396342 0.009742 161 161 161
0.197562 -0.395315 0.009675 160 160 160
0.200038 -0.394288 0.009609 160 160 160
0.202560 -0.393339 0.009525 159 159 159
0.204951 -0.392170 0.009490 159 159 159
0.207118 -0.390619 0.009539 158 158 158
0.209309 -0.389107 0.009580 157 157 157
0.211523 -0.387635 0.009612 156 156 156
0.213818 -0.386299 0.009614 157 157 157
0.216221 -0.385153 0.009574 152 152 152
0.218644 -0.384040 0.009527 151 151 151
0.220915 -0.382664 0.009537 150 150 150
0.223156 -0.381238 0.009559 149 149 149
0.225367 -0.379759 0.009593 149 149 149
0.227508 -0.378155 0.009654 148 148 148
0.229693 -0.376629 0.009697 147 147 147
0.231893 -0.375126 0.009736 146 146 146
0.234092 -0.373622 0.009775 144 144 144
0.236178 -0.371918 0.009857 141 141 141
0.238156 -0.370020 0.009982 141 141 141
0.240061 -0.367992 0.010136 143 143 143
0.241969 -0.365965 0.010289 144 144 144
0.243906 -0.363986 0.010431 143 143 143
0.245906 -0.362117 0.010549 143 143 143
0.247894 -0.360223 0.010673 144 144 144
0.249882 -0.358327 0.010796 144 144 144
0.251818 -0.356334 0.010941 145 145 145
0.253812 -0.354443 0.011064 146 146 146
0.255824 -0.352582 0.011179 146 146 146
0.257836 -0.350717 0.011296 146 146 146
0.259834 -0.348824 0.011418 147 147 147
0.261831 -0.346927 0.011541 147 147 147
0.263830 -0.345032 0.011663 147 147 147
0.265946 -0.343346 0.011740 147 147 147
0.268073 -0.341681 0.011813 146 146 146
0.270196 -0.340005 0.011887 149 149 149
0.272290 -0.338274 0.011973 148 148 148
0.274363 -0.336503 0.012068 148 148 148
0.276348 -0.334566 0.012199 147 147 147
0.278334 -0.332628 0.012330 147 147 147
0.280332 -0.330710 0.012456 147 147 147
0.282508 -0.329122 0.012511 148 148 148
0.284388 -0.326977 0.012687 145 145 145
0.286234 -0.324766 0.012876 146 146 146
0.288092 -0.322572 0.013061 146 146 146
0.290071 -0.320603 0.013198 147 147 147
0.292052 -0.318633 0.013335 149 149 149
0.294083 -0.316756 0.013451 151 151 151
0.295867 -0.314407 0.013669 153 153 153
0.297550 -0.311859 0.013930 154 154 154
0.299234 -0.309308 0.014191 155 155 155
0.300919 -0.306755 0.014452 156 156 156
0.302672 -0.304324 0.014687 158 158 158
0.304393 -0.301825 0.014936 161 161 161
0.306098 -0.299292 0.015192 162 162 162
0.307790 -0.296724 0.015455 165 165 165
0.309482 -0.294154 0.015719 165 165 165
0.311266 -0.291753 0.015945 165 165 165
0.313215 -0.289669 0.016104 165 165 165
0.315193 -0.287638 0.016251 166 166 166
0.317172 -0.285607 0.016398 166 166 166
0.319148 -0.283563 0.016547 166 166 166
0.321118 -0.281508 0.016699 166 166 166
0.323091 -0.279451 0.016851 165 165 165
0.325118 -0.277500 0.016980 165 165 165
0.327151 -0.275557 0.017107 165 165 165
0.329186 -0.273613 0.017234 165 165 165
0.331126 -0.271479 0.017402 164 164 164
0.333207 -0.269622 0.017510 163 163 163
0.335400 -0.267986 0.017572 163 163 163
0.337594 -0.266350 0.017633 162 162 162
0.339759 -0.264655 0.017706 159 159 159
0.341840 -0.262789 0.017816 159 159 159
0.343922 -0.260922 0.017926 159 159 159
0.346005 -0.259054 0.018036 159 159 159
0.348090 -0.257188 0.018146 160 160 160
0.350137 -0.255241 0.018272 158 158 158
0.352103 -0.253127 0.018434 158 158 158
0.354074 -0.251017 0.018595 158 158 158
0.356050 -0.248914 0.018754 158 158 158
0.358005 -0.246765 0.018923 158 158 158
0.359749 -0.244173 0.019185 158 158 158
0.361478 -0.241546 0.019454 158 158 158
0.363395 -0.239303 0.019642 159 159 159
0.364923 -0.236243 0.020002 159 159 159
0.366435 -0.233141 0.020371 158 158 158
0.367954 -0.230045 0.020738 158 158 158
0.369314 -0.226607 0.021177 159 159 159
0.370835 -0.223495 0.021546 159 159 159
0.372346 -0.220354 0.021921 159 159 159
0.373860 -0.217209 0.022297 159 159 159
0.375404 -0.214118 0.022661 160 160 160
0.376998 -0.211124 0.023004 161 161 161
0.378594 -0.208126 0.023347 162 162 162
0.380179 -0.205096 0.023697 161 161 161
0.381813 -0.202160 0.024026 161 161 161
0.383517 -0.199368 0.024325 161 161 161
0.385264 -0.196659 0.024606 162 162 162
0.387012 -0.193948 0.024888 162 162 162
0.388763 -0.191233 0.025170 163 163 163
0.390430 -0.188331 0.025490 164 164 164
0.392011 -0.185231 0.025852 164 164 164
0.393625 -0.182195 0.026200 164 164 164
0.395242 -0.179156 0.026548 165 165 165
0.396744 -0.175853 0.026951 165 165 165
0.398231 -0.172510 0.027362 166 166 166
0.399875 -0.169500 0.027703 166 166 166
0.401557 -0.166569 0.028027 167 167 167
0.403242 -0.163632 0.028352 168 168 168
0.404960 -0.160763 0.028662 168 168 168
0.406745 -0.158033 0.028943 169 169 169
0.408643 -0.155550 0.029173 169 169 169
0.410373 -0.152684 0.029481 170 170 170
0.412054 -0.149697 0.029815 171 171 171
0.413736 -0.146707 0.030149 171 171 171
0.415436 -0.143746 0.030476 172 172 172
0.416866 -0.140162 0.030932 173 173 173
0.418075 -0.136065 0.031494 174 174 174
0.419283 -0.131949 0.032060 175 175 175
0.420297 -0.127374 0.032720 176 176 176
0.421195 -0.122513 0.033438 176 176 176
0.421929 -0.117257 0.034237 176 176 176
0.422423 -0.111421 0.035155 177 177 177
0.422918 -0.105566 0.036076 177 177 177
0.423159 -0.099092 0.037124 177 177 177
0.423666 -0.093211 0.038048 177 177 177
0.424096 -0.087125 0.039013 176 176 176
0.424694 -0.081407 0.039902 176 176 176
0.425058 -0.075113 0.040908 175 175 175
0.425525 -0.069033 0.041869 175 175 175
0.425955 -0.062841 0.042852 175 175 175
0.426526 -0.056954 0.043771 174 174 174
0.427043 -0.050912 0.044721 174 174 174
0.427565 -0.044857 0.045672 173 173 173
0.427824 -0.038147 0.046757 173 173 173
0.428195 -0.031673 0.047792 172 172 172
0.428452 -0.024897 0.048889 172 172 172
0.428589 -0.017803 0.050049 171 171 171
0.428334 -0.009725 0.051409 170 170 170
0.428096 -0.001649 0.052767 169 169 169
0.427956 0.006225 0.054083 167 167 167
0.427803 0.014170 0.055411 168 168 168
0.427668 0.022107 0.056737 169 169 169
0.427245 0.030790 0.058213 169 169 169
0.426758 0.039674 0.059729 169 169 169
0.426384 0.048321 0.061195 170 170 170
0.425573 0.058093 0.062888 171 171 171
0.424315 0.069022 0.064816 173 173 173
0.423156 0.079764 0.066703 178 178 178
-0.333618 -0.292972 0.074242 100 100 100
-0.323089 -0.301415 0.071854 138 138 138
-0.310916 -0.311971 0.068962 138 138 138
-0.220053 -0.422013 0.042236 138 138 138
-0.213641 -0.425586 0.041040 138 138 138
-0.207649 -0.428645 0.039968 138 138 138
-0.204153 -0.428551 0.039651 138 138 138
-0.200744 -0.428350 0.039361 138 138 138
-0.197290 -0.428213 0.039055 138 138 138
-0.194060 -0.427794 0.038817 138 138 138
-0.190873 -0.427325 0.038592 138 138 138
-0.187390 -0.427239 0.038275 138 138 138
-0.183839 -0.427247 0.037937 138 138 138
-0.180257 -0.427301 0.037588 138 138 138
-0.176680 -0.427355 0.037239 138 138 138
-0.172848 -0.427744 0.036812 138 138 138
-0.168275 -0.429105 0.036154 138 138 138
-0.163966 -0.430133 0.035575 138 138 138
-0.159812 -0.430971 0.035043 138 138 138
-0.156165 -0.431154 0.034667 138 138 138
-0.152780 -0.431001 0.034370 138 138 138
-0.149628 -0.430547 0.034146 139 139 139
-0.146582 -0.429958 0.033953 140 140 140
-0.143501 -0.429419 0.033749 140 140 140
-0.140422 -0.428881 0.033546 140 140 140
-0.137345 -0.428343 0.033342 141 141 141
-0.132862 -0.429675 0.032697 141 141 141
-0.123912 -0.436957 0.030650 138 138 138
-0.118259 -0.439884 0.029632 138 138 138
-0.112978 -0.442332 0.028727 138 138 138
-0.108071 -0.444296 0.027939 138 138 138
-0.104056 -0.445079 0.027429 138 138 138
-0.100006 -0.445918 0.026906 138 138 138
-0.095330 -0.447610 0.026184 138 138 138
-0.090752 -0.449183 0.025490 138 138 138
-0.086109 -0.450857 0.024774 138 138 138
-0.081736 -0.452177 0.024142 138 138 138
-0.077833 -0.452870 0.023657 138 138 138
-0.073951 -0.453544 0.023178 138 138 138
-0.069959 -0.454378 0.022662 138 138 138
-0.066482 -0.454516 0.022309 138 138 138
-0.063065 -0.454578 0.021974 138 138 138
-0.059673 -0.454613 0.021646 138 138 138
-0.056318 -0.454603 0.021329 138 138 138
-0.053166 -0.454319 0.021077 138 138 138
-0.050038 -0.454007 0.020831 138 138 138
-0.046913 -0.453694 0.020586 138 138 138
-0.043913 -0.453213 0.020380 138 138 138
-0.040940 -0.452698 0.020183 138 138 138
-0.037955 -0.452203 0.019981 138 138 138
-0.034945 -0.451747 0.019770 138 138 138
-0.031803 -0.451481 0.019515 138 138 138
-0.028818 -0.450998 0.019311 138 138 138
-0.025887 -0.450444 0.019124 138 138 138
-0.022928 -0.449933 0.018927 139 139 139
-0.019668 -0.449850 0.018631 142 142 142
-0.016375 -0.449819 0.018324 143 143 143
-0.013007 -0.449901 0.017990 143 143 143
-0.009604 -0.450039 0.017644 145 145 145
-0.006146 -0.450261 0.017280 145 145 145
-0.002696 -0.450480 0.016916 143 143 143
0.000780 -0.450743 0.016543 143 143 143
0.004491 -0.451350 0.016090 143 143 143
0.008200 -0.451962 0.015638 143 143 143
0.011884 -0.452547 0.015192 144 144 144
0.015697 -0.453328 0.014701 143 143 143
0.019635 -0.454298 0.014168 143 143 143
0.023701 -0.455465 0.013590 144 144 144
0.027394 -0.456100 0.013135 145 145 145
0.030718 -0.456205 0.012802 146 146 146
0.034045 -0.456323 0.012466 147 147 147
0.037377 -0.456455 0.012128 147 147 147
0.040427 -0.456179 0.011884 146 146 146
0.043323 -0.455682 0.011691 146 146 146
0.046207 -0.455170 0.011501 145 145 145
0.049064 -0.454622 0.011320 145 145 145
0.051743 -0.453816 0.011198 146 146 146
0.054329 -0.452872 0.011108 148 148 148
0.056910 -0.451925 0.011019 149 149 149
0.059475 -0.450954 0.010935 151 151 151
0.062018 -0.449952 0.010858 152 152 152
0.064520 -0.448890 0.010795 154 154 154
0.066880 -0.447616 0.010781 155 155 155
0.069239 -0.446342 0.010766 156 156 156
0.071598 -0.445068 0.010752 157 157 157
0.073982 -0.443832 0.010729 161 161 161
0.076310 -0.442511 0.010725 162 162 162
0.078637 -0.441190 0.010721 163 163 163
0.080907 -0.439781 0.010737 163 163 163
0.083118 -0.438282 0.010774 163 163 163
0.085343 -0.436804 0.010806 163 163 163
0.087568 -0.435326 0.010837 163 163 163
0.089884 -0.433985 0.010838 163 163 163
0.092211 -0.432664 0.010834 162 162 162
0.094536 -0.431337 0.010832 161 161 161
0.096981 -0.430198 0.010787 161 161 161
0.099480 -0.429141 0.010723 161 161 161
0.101978 -0.428085 0.010660 161 161 161
0.104540 -0.427130 0.010574 159 159 159
0.107221 -0.426362 0.010446 159 159 159
0.109890 -0.425577 0.010321 157 157 157
0.112558 -0.424793 0.010197 157 157 157
0.115260 -0.424065 0.010060 156 156 156
0.118048 -0.423476 0.009892 155 155 155
0.120834 -0.422887 0.009724 153 153 153
0.123732 -0.422479 0.009516 153 153 153
0.126644 -0.422096 0.009303 154 154 154
0.129430 -0.421519 0.009133 155 155 155
0.132169 -0.420870 0.008980 155 155 155
0.134901 -0.420212 0.008829 154 154 154
0.137606 -0.419515 0.008686 154 154 154
0.140110 -0.418499 0.008616 154 154 154
0.142613 -0.417482 0.008545 153 153 153
0.145225 -0.416642 0.008435 155 155 155
0.147851 -0.415827 0.008320 156 156 156
0.150563 -0.415155 0.008173 156 156 156
0.153391 -0.414673 0.007984 157 157 157
0.156238 -0.414225 0.007787 159 159 159
0.158926 -0.413523 0.007648 160 160 160
0.161472 -0.412592 0.007559 160 160 160
0.163949 -0.411551 0.007495 160 160 160
0.166424 -0.410506 0.007432 161 161 161
0.168898 -0.409462 0.007368 161 161 161
0.171311 -0.408319 0.007327 161 161 161
0.173564 -0.406912 0.007345 160 160 160
0.175769 -0.405426 0.007380 160 160 160
0.178007 -0.403993 0.007403 160 160 160
0.180255 -0.402577 0.007422 160 160 160
0.182625 -0.401364 0.007397 161 161 161
0.185064 -0.400265 0.007346 161 161 161
0.187574 -0.399287 0.007269 161 161 161
0.190096 -0.398332 0.007186 161 161 161
0.192604 -0.397355 0.007109 161 161 161
0.195082 -0.396328 0.007042 160 160 160
0.197635 -0.395430 0.006948 160 160 160
0.200223 -0.394594 0.006839 160 160 160
0.202811 -0.393759 0.006731 159 159 159
0.204989 -0.392228 0.006776 158 158 158
0.207157 -0.390680 0.006825 157 157 157
0.209324 -0.389129 0.006874 157 157 157
0.211492 -0.387578 0.006923 156 156 156
0.213646 -0.386002 0.006978 152 152 152
0.215845 -0.384502 0.007016 150 150 150
0.218086 -0.383075 0.007038 150 150 150
0.220328 -0.381648 0.007059 149 149 149
0.222570 -0.380221 0.007081 148 148 148
0.224744 -0.378675 0.007129 147 147 147
0.226885 -0.377071 0.007189 146 146 146
0.229037 -0.375485 0.007246 145 145 145
0.231237 -0.373981 0.007284 144 144 144
0.233437 -0.372477 0.007323 143 143 143
0.235484 -0.370702 0.007421 139 139 139
0.237448 -0.368779 0.007550 139 139 139
0.239414 -0.366855 0.007680 140 140 140
0.241380 -0.364930 0.007810 140 140 140
0.243334 -0.362979 0.007945 141 141 141
0.245381 -0.361193 0.008045 141 141 141
0.247377 -0.359311 0.008165 142 142 142
0.249365 -0.357414 0.008288 142 142 142
0.251348 -0.355504 0.008414 143 143 143
0.253368 -0.353658 0.008525 144 144 144
0.255379 -0.351794 0.008641 144 144 144
0.257391 -0.349928 0.008757 144 144 144
0.259397 -0.348051 0.008875 144 144 144
0.261395 -0.346154 0.008997 145 145 145
0.263428 -0.344320 0.009106 145 145 145
0.265538 -0.342621 0.009185 145 145 145
0.267665 -0.340955 0.009257 145 145 145
0.269793 -0.339288 0.009329 146 146 146
0.271892 -0.337566 0.009413 146 146 146
0.273847 -0.335576 0.009555 146 146 146
0.275927 -0.333813 0.009647 146 146 146
0.278005 -0.332046 0.009740 146 146 146
0.279992 -0.330107 0.009871 146 146 146
0.281973 -0.328153 0.010004 142 142 142
0.283823 -0.325951 0.010190 142 142 142
0.285670 -0.323739 0.010379 142 142 142
0.287518 -0.321527 0.010567 142 142 142
0.289426 -0.319420 0.010732 143 143 143
0.291406 -0.317449 0.010869 145 145 145
0.293468 -0.315627 0.010972 148 148 148
0.295534 -0.313810 0.011075 150 150 150
0.297216 -0.311262 0.011335 152 152 152
0.298900 -0.308710 0.011594 153 153 153
0.300585 -0.306156 0.011854 155 155 155
0.302495 -0.304025 0.012023 157 157 157
0.304227 -0.301548 0.012266 158 158 158
0.305949 -0.299047 0.012514 159 159 159
0.307672 -0.296542 0.012762 161 161 161
0.309414 -0.294067 0.013004 162 162 162
0.311341 -0.291946 0.013170 165 165 165
0.313343 -0.289966 0.013306 165 165 165
0.315321 -0.287938 0.013451 166 166 166
0.317300 -0.285907 0.013597 166 166 166
0.319275 -0.283863 0.013746 166 166 166
0.321245 -0.281809 0.013897 166 166 166
0.323217 -0.279753 0.014047 166 166 166
0.325199 -0.277713 0.014195 165 165 165
0.327231 -0.275770 0.014321 165 165 165
0.329239 -0.273775 0.014459 165 165 165
0.331146 -0.271576 0.014639 164 164 164
0.333113 -0.269493 0.014795 163 163 163
0.335306 -0.267857 0.014856 163 163 163
0.337498 -0.266218 0.014918 162 162 162
0.339586 -0.264370 0.015023 160 160 160
0.341684 -0.262537 0.015125 160 160 160
0.343782 -0.260703 0.015228 160 160 160
0.345881 -0.258869 0.015330 159 159 159
0.347970 -0.257012 0.015437 158 158 158
0.349945 -0.254918 0.015594 158 158 158
0.351912 -0.252804 0.015755 158 158 158
0.353880 -0.250689 0.015916 157 157 157
0.355855 -0.248586 0.016074 158 158 158
0.357686 -0.246180 0.016296 157 157 157
0.359379 -0.243485 0.016579 157 157 157
0.361075 -0.240786 0.016861 157 157 157
0.362932 -0.238418 0.017075 158 158 158
0.364462 -0.235360 0.017432 158 158 158
0.365974 -0.232259 0.017799 157 157 157
0.367496 -0.229168 0.018162 158 158 158
0.368906 -0.225832 0.018577 158 158 158
0.370473 -0.222818 0.018924 159 159 159
0.371985 -0.219676 0.019297 159 159 159
0.373499 -0.216530 0.019671 159 159 159
0.375052 -0.213458 0.020029 159 159 159
0.376656 -0.210485 0.020365 159 159 159
0.378262 -0.207507 0.020703 159 159 159
0.379868 -0.204521 0.021041 159 159 159
0.381500 -0.201581 0.021370 160 160 160
0.383267 -0.198925 0.021639 160 160 160
0.385051 -0.196296 0.021902 161 161 161
0.386822 -0.193633 0.022172 162 162 162
0.388587 -0.190949 0.022445 162 162 162
0.390333 -0.188219 0.022728 164 164 164
0.391940 -0.185178 0.023076 164 164 164
0.393555 -0.182143 0.023422 164 164 164
0.395171 -0.179104 0.023768 164 164 164
0.396719 -0.175905 0.024147 165 165 165
0.398217 -0.172585 0.024551 165 165 165
0.399898 -0.169660 0.024873 166 166 166
0.401583 -0.166736 0.025193 166 166 166
0.403266 -0.163797 0.025517 167 167 167
0.404991 -0.160943 0.025822 168 168 168
0.406866 -0.158418 0.026060 168 168 168
0.408675 -0.155737 0.026329 169 169 169
0.410469 -0.153017 0.026606 170 170 170
0.412150 -0.150032 0.026937 170 170 170
0.413832 -0.147042 0.027269 171 171 171
0.415541 -0.144106 0.027590 170 170 170
0.417085 -0.140783 0.027990 171 171 171
0.418283 -0.136662 0.028554 173 173 173
0.419490 -0.132549 0.029116 175 175 175
0.420686 -0.128393 0.029685 175 175 175
0.421561 -0.123483 0.030410 175 175 175
0.422228 -0.118075 0.031236 176 176 176
0.422715 -0.112230 0.032151 176 176 176
0.423300 -0.106585 0.033024 177 177 177
0.423539 -0.100111 0.034066 177 177 177
0.424120 -0.094409 0.034948 177 177 177
0.424552 -0.088332 0.035907 176 176 176
0.424875 -0.081971 0.036922 176 176 176
0.425236 -0.075674 0.037924 175 175 175
0.425675 -0.069532 0.038892 175 175 175
0.426090 -0.063306 0.039877 175 175 175
0.426614 -0.057311 0.040813 174 174 174
0.427118 -0.051241 0.041763 174 174 174
0.427491 -0.044834 0.042781 173 173 173
0.427770 -0.038173 0.043850 173 173 173
0.427974 -0.031302 0.044961 173 173 173
0.428150 -0.024332 0.046091 172 172 172
0.428062 -0.016691 0.047356 171 171 171
0.427696 -0.008345 0.048763 170 170 170
0.427139 0.000508 0.050272 168 168 168
0.427027 0.008318 0.051567 168 168 168
0.426733 0.016611 0.052959 168 168 168
0.426537 0.024703 0.054308 167 167 167
0.426248 0.033064 0.055711 167 167 167
0.425908 0.041589 0.057145 167 167 167
0.425487 0.050357 0.058627 168 168 168
0.424821 0.059773 0.060239 168 168 168
0.423802 0.070115 0.062037 172 172 172
0.422787 0.080498 0.063840 177 177 177
0.419071 0.097679 0.067019 142 142 142
-0.332337 -0.294462 0.070801 138 138 138
-0.322828 -0.301625 0.068732 138 138 138
-0.312745 -0.309549 0.066484 138 138 138
-0.306012 -0.313279 0.065238 138 138 138
-0.213623 -0.425499 0.038161 138 138 138
-0.208198 -0.427841 0.037266 138 138 138
-0.204520 -0.427977 0.036897 138 138 138
-0.201096 -0.427796 0.036603 138 138 138
-0.197804 -0.427451 0.036349 138 138 138
-0.194696 -0.426875 0.036149 138 138 138
-0.191507 -0.426407 0.035925 138 138 138
-0.187998 -0.426354 0.035602 138 138 138
-0.184426 -0.426388 0.035259 138 138 138
-0.180843 -0.426442 0.034912 138 138 138
-0.177185 -0.426600 0.034541 138 138 138
-0.173322 -0.427030 0.034106 138 138 138
-0.169093 -0.427943 0.033557 138 138 138
-0.164585 -0.429228 0.032921 138 138 138
-0.160168 -0.430406 0.032312 138 138 138
-0.156534 -0.430574 0.031941 138 138 138
-0.152742 -0.430952 0.031521 138 138 138
-0.149400 -0.430750 0.031239 140 140 140
-0.145986 -0.430646 0.030933 140 140 140
-0.142778 -0.430277 0.030691 140 140 140
-0.139679 -0.429768 0.030481 142 142 142
-0.135969 -0.430070 0.030082 143 143 143
-0.130557 -0.432640 0.029150 141 141 141
-0.123230 -0.437771 0.027619 139 139 139
-0.118114 -0.439985 0.026774 138 138 138
-0.112913 -0.442328 0.025900 138 138 138
-0.108448 -0.443702 0.025254 138 138 138
-0.104419 -0.444503 0.024742 138 138 138
-0.100313 -0.445418 0.024205 138 138 138
-0.095963 -0.446671 0.023589 138 138 138
-0.091383 -0.448245 0.022899 138 138 138
-0.086815 -0.449815 0.022211 138 138 138
-0.082558 -0.450978 0.021619 138 138 138
-0.078621 -0.451716 0.021127 138 138 138
-0.074697 -0.452446 0.020637 138 138 138
-0.070892 -0.453022 0.020183 138 138 138
-0.067413 -0.453161 0.019832 138 138 138
-0.063958 -0.453274 0.019487 138 138 138
-0.060564 -0.453310 0.019161 138 138 138
-0.057147 -0.453383 0.018826 138 138 138
-0.053859 -0.453283 0.018532 138 138 138
-0.050598 -0.453154 0.018245 138 138 138
-0.047468 -0.452847 0.018000 138 138 138
-0.044467 -0.452367 0.017795 138 138 138
-0.041451 -0.451910 0.017585 138 138 138
-0.038438 -0.451455 0.017375 138 138 138
-0.035388 -0.451053 0.017153 138 138 138
-0.032247 -0.450785 0.016900 138 138 138
-0.029093 -0.450539 0.016642 138 138 138
-0.026071 -0.450112 0.016427 138 138 138
-0.022964 -0.449810 0.016183 141 141 141
-0.019623 -0.449841 0.015862 143 143 143
-0.016252 -0.449923 0.015531 143 143 143
-0.012884 -0.450005 0.015199 145 145 145
-0.009437 -0.450207 0.014841 144 144 144
-0.005981 -0.450429 0.014478 144 144 144
-0.002529 -0.450651 0.014116 144 144 144
0.000997 -0.450987 0.013728 144 144 144
0.004683 -0.451559 0.013286 144 144 144
0.008373 -0.452146 0.012842 144 144 144
0.012056 -0.452731 0.012399 144 144 144
0.015968 -0.453655 0.011878 144 144 144
0.019908 -0.454630 0.011347 142 142 142
0.023905 -0.455697 0.010795 144 144 144
0.027441 -0.456107 0.010394 145 145 145
0.030782 -0.456238 0.010057 144 144 144
0.034118 -0.456370 0.009720 144 144 144
0.037423 -0.456462 0.009393 144 144 144
0.040321 -0.455965 0.009201 144 144 144
0.043217 -0.455468 0.009009 143 143 143
0.046111 -0.454972 0.008817 142 142 142
0.048897 -0.454320 0.008660 142 142 142
0.051589 -0.453532 0.008535 144 144 144
0.054174 -0.452588 0.008445 145 145 145
0.056759 -0.451645 0.008355 147 147 147
0.059327 -0.450680 0.008270 149 149 149
0.061847 -0.449644 0.008202 150 150 150
0.064356 -0.448594 0.008137 152 152 152
0.066764 -0.447392 0.008106 153 153 153
0.069123 -0.446118 0.008092 155 155 155
0.071500 -0.444871 0.008071 158 158 158
0.073971 -0.443766 0.008019 158 158 158
0.076445 -0.442668 0.007964 158 158 158
0.078875 -0.441504 0.007925 162 162 162
0.081200 -0.440180 0.007923 163 163 163
0.083424 -0.438702 0.007954 163 163 163
0.085648 -0.437224 0.007986 163 163 163
0.087872 -0.435746 0.008018 163 163 163
0.090165 -0.434373 0.008026 162 162 162
0.092493 -0.433053 0.008022 162 162 162
0.094809 -0.431716 0.008022 161 161 161
0.097208 -0.430506 0.007993 161 161 161
0.099705 -0.429449 0.007930 161 161 161
0.102203 -0.428394 0.007867 160 160 160
0.104796 -0.427488 0.007770 159 159 159
0.107430 -0.426649 0.007659 158 158 158
0.110084 -0.425842 0.007540 157 157 157
0.112748 -0.425055 0.007417 156 156 156
0.115510 -0.424423 0.007260 155 155 155
0.118297 -0.423834 0.007093 154 154 154
0.121083 -0.423245 0.006926 153 153 153
0.123866 -0.422657 0.006760 152 152 152
0.126691 -0.422138 0.006578 152 152 152
0.129459 -0.421533 0.006415 151 151 151
0.132225 -0.420928 0.006253 151 151 151
0.135049 -0.420418 0.006070 153 153 153
0.137649 -0.419554 0.005966 153 153 153
0.140152 -0.418538 0.005895 153 153 153
0.142655 -0.417522 0.005825 153 153 153
0.145228 -0.416621 0.005730 153 153 153
0.147883 -0.415854 0.005604 154 154 154
0.150616 -0.415215 0.005451 154 154 154
0.153404 -0.414669 0.005277 155 155 155
0.156250 -0.414221 0.005081 157 157 157
0.159062 -0.413722 0.004897 158 158 158
0.161684 -0.412917 0.004782 159 159 159
0.164194 -0.411930 0.004706 159 159 159
0.166668 -0.410886 0.004643 159 159 159
0.169141 -0.409842 0.004580 159 159 159
0.171426 -0.408490 0.004586 159 159 159
0.173631 -0.407005 0.004620 158 158 158
0.175836 -0.405519 0.004655 158 158 158
0.178070 -0.404081 0.004679 158 158 158
0.180351 -0.402721 0.004686 158 158 158
0.182745 -0.401548 0.004652 158 158 158
0.185188 -0.400459 0.004600 158 158 158
0.187658 -0.399415 0.004537 159 159 159
0.190127 -0.398373 0.004475 160 160 160
0.192709 -0.397521 0.004370 160 160 160
0.195299 -0.396685 0.004262 160 160 160
0.197888 -0.395849 0.004155 160 160 160
0.200476 -0.395013 0.004047 159 159 159
0.202855 -0.393827 0.004016 159 159 159
0.205026 -0.392285 0.004063 158 158 158
0.207196 -0.390741 0.004111 157 157 157
0.209363 -0.389190 0.004160 156 156 156
0.211530 -0.387639 0.004209 156 156 156
0.213550 -0.385833 0.004314 152 152 152
0.215511 -0.383925 0.004440 150 150 150
0.217654 -0.382327 0.004500 149 149 149
0.219797 -0.380728 0.004559 147 147 147
0.221979 -0.379196 0.004603 146 146 146
0.224120 -0.377592 0.004663 145 145 145
0.226262 -0.375987 0.004724 144 144 144
0.228404 -0.374382 0.004784 143 143 143
0.230581 -0.372836 0.004831 142 142 142
0.232721 -0.371224 0.004893 139 139 139
0.234773 -0.369456 0.004988 138 138 138
0.236738 -0.367532 0.005117 138 138 138
0.238700 -0.365600 0.005248 138 138 138
0.240627 -0.363603 0.005393 138 138 138
0.242575 -0.361640 0.005530 139 139 139
0.244591 -0.359795 0.005641 139 139 139
0.246648 -0.358021 0.005737 140 140 140
0.248722 -0.356276 0.005827 140 140 140
0.250830 -0.354588 0.005904 141 141 141
0.252922 -0.352870 0.005987 141 141 141
0.254933 -0.351005 0.006102 142 142 142
0.256945 -0.349139 0.006217 142 142 142
0.258958 -0.347272 0.006332 142 142 142
0.260959 -0.345380 0.006453 143 143 143
0.263027 -0.343607 0.006548 142 142 142
0.265129 -0.341896 0.006629 142 142 142
0.267257 -0.340229 0.006701 143 143 143
0.269329 -0.338458 0.006795 143 143 143
0.271317 -0.336530 0.006922 143 143 143
0.273231 -0.334463 0.007080 143 143 143
0.275236 -0.332561 0.007201 144 144 144
0.277317 -0.330797 0.007293 144 144 144
0.279399 -0.329032 0.007386 144 144 144
0.281311 -0.326948 0.007546 139 139 139
0.283199 -0.324816 0.007716 138 138 138
0.285089 -0.322683 0.007886 138 138 138
0.286953 -0.320498 0.008068 138 138 138
0.288804 -0.318282 0.008256 138 138 138
0.290781 -0.316303 0.008392 140 140 140
0.292853 -0.314498 0.008492 144 144 144
0.294933 -0.312707 0.008589 147 147 147
0.296882 -0.310664 0.008739 150 150 150
0.298566 -0.308112 0.008997 151 151 151
0.300357 -0.305759 0.009213 153 153 153
0.302270 -0.303633 0.009380 156 156 156
0.304061 -0.301271 0.009597 157 157 157
0.305783 -0.298770 0.009843 158 158 158
0.307506 -0.296266 0.010090 160 160 160
0.309394 -0.294073 0.010271 163 163 163
0.311410 -0.292125 0.010399 163 163 163
0.313445 -0.290213 0.010519 164 164 164
0.315435 -0.288208 0.010659 165 165 165
0.317419 -0.286188 0.010802 166 166 166
0.319396 -0.284152 0.010949 166 166 166
0.321371 -0.282107 0.011097 166 166 166
0.323344 -0.280055 0.011246 166 166 166
0.325316 -0.277999 0.011396 166 166 166
0.327312 -0.275985 0.011537 165 165 165
0.329263 -0.273880 0.011697 165 165 165
0.331166 -0.271672 0.011878 164 164 164
0.333069 -0.269464 0.012060 163 163 163
0.335212 -0.267729 0.012141 163 163 163
0.337376 -0.266034 0.012214 162 162 162
0.339432 -0.264122 0.012333 161 161 161
0.341511 -0.262252 0.012442 160 160 160
0.343609 -0.260418 0.012544 160 160 160
0.345708 -0.258584 0.012646 159 159 159
0.347710 -0.256549 0.012789 158 158 158
0.349609 -0.254301 0.012978 158 158 158
0.351643 -0.252324 0.013109 157 157 157
0.353678 -0.250346 0.013240 157 157 157
0.355567 -0.248065 0.013435 156 156 156
0.357317 -0.245493 0.013691 156 156 156
0.359010 -0.242796 0.013972 156 156 156
0.360705 -0.240097 0.014253 156 156 156
0.362469 -0.237532 0.014506 157 157 157
0.364000 -0.234478 0.014861 157 157 157
0.365516 -0.231382 0.015224 157 157 157
0.367039 -0.228291 0.015586 157 157 157
0.368498 -0.225057 0.015977 157 157 157
0.370107 -0.222131 0.016303 158 158 158
0.371623 -0.218998 0.016673 158 158 158
0.373144 -0.215867 0.017041 158 158 158
0.374694 -0.212787 0.017399 158 158 158
0.376298 -0.209812 0.017734 158 158 158
0.377904 -0.206834 0.018069 158 158 158
0.379512 -0.203851 0.018405 158 158 158
0.381150 -0.200923 0.018729 158 158 158
0.382936 -0.198307 0.018988 158 158 158
0.384720 -0.195679 0.019250 159 159 159
0.386506 -0.193048 0.019511 160 160 160
0.388294 -0.190414 0.019773 160 160 160
0.390036 -0.187672 0.020057 161 161 161
0.391702 -0.184759 0.020376 162 162 162
0.393370 -0.181842 0.020696 163 163 163
0.395040 -0.178921 0.021016 163 163 163
0.396672 -0.175907 0.021355 164 164 164
0.398238 -0.172739 0.021725 165 165 165
0.399921 -0.169820 0.022043 165 165 165
0.401606 -0.166896 0.022362 166 166 166
0.403291 -0.163962 0.022683 167 167 167
0.405068 -0.161228 0.022963 167 167 167
0.406905 -0.158618 0.023216 168 168 168
0.408707 -0.155924 0.023486 168 168 168
0.410511 -0.153228 0.023757 169 169 169
0.412245 -0.150366 0.024061 170 170 170
0.413929 -0.147383 0.024390 170 170 170
0.415566 -0.144284 0.024742 170 170 170
0.417147 -0.141047 0.025123 170 170 170
0.418483 -0.137243 0.025619 172 172 172
0.419697 -0.133148 0.026174 174 174 174
0.420991 -0.129219 0.026694 175 175 175
0.421839 -0.124252 0.027426 175 175 175
0.422477 -0.118781 0.028261 175 175 175
0.423008 -0.113039 0.029150 176 176 176
0.423562 -0.107326 0.030032 177 177 177
0.423949 -0.101201 0.030997 176 176 176
0.424553 -0.095554 0.031863 176 176 176
0.424878 -0.089234 0.032866 175 175 175
0.425096 -0.082632 0.033925 175 175 175
0.425416 -0.076241 0.034940 175 175 175
0.425825 -0.070031 0.035917 175 175 175
0.426271 -0.063881 0.036881 175 175 175
0.426702 -0.057668 0.037856 174 174 174
0.427136 -0.051435 0.038835 174 174 174
0.427471 -0.044939 0.039865 174 174 174
0.427681 -0.038114 0.040962 173 173 173
0.427868 -0.031204 0.042074 173 173 173
0.427718 -0.023450 0.043357 172 172 172
0.427637 -0.015829 0.044611 171 171 171
0.426919 -0.006628 0.046183 170 170 170
0.426179 0.002670 0.047774 168 168 168
0.425931 0.010818 0.049130 167 167 167
0.425641 0.019105 0.050512 167 167 167
0.425389 0.027340 0.051883 166 166 166
0.425250 0.035340 0.053204 164 164 164
0.425049 0.043528 0.054562 165 165 165
0.424552 0.052488 0.056075 162 162 162
0.423994 0.061641 0.057624 168 168 168
0.423209 0.071405 0.059295 172 172 172
0.422408 0.081257 0.060982 177 177 177
0.419503 0.096412 0.063735 142 142 142
-0.330635 -0.296481 0.067240 138 138 138
-0.322324 -0.302143 0.065539 138 138 138
-0.314377 -0.307375 0.063941 138 138 138
-0.307666 -0.311074 0.062710 138 138 138
-0.213606 -0.425412 0.035284 138 138 138
-0.208747 -0.427036 0.034564 138 138 138
-0.204887 -0.427402 0.034142 138 138 138
-0.201455 -0.427231 0.033847 138 138 138
-0.198219 -0.426816 0.033611 138 138 138
-0.195134 -0.426209 0.033420 138 138 138
-0.191919 -0.425774 0.033189 138 138 138
-0.188602 -0.425474 0.032926 138 138 138
-0.184909 -0.425662 0.032549 138 138 138
-0.181202 -0.425876 0.032166 138 138 138
-0.177501 -0.426089 0.031784 138 138 138
-0.173500 -0.426698 0.031309 138 138 138
-0.169392 -0.427454 0.030801 138 138 138
-0.165292 -0.428208 0.030293 138 138 138
-0.160526 -0.429842 0.029580 138 138 138
-0.156729 -0.430220 0.029162 138 138 138
-0.152217 -0.431543 0.028523 139 139 139
-0.148982 -0.431201 0.028275 139 139 139
-0.145571 -0.431097 0.027971 140 140 140
-0.142163 -0.430992 0.027668 141 141 141
-0.138755 -0.430894 0.027365 144 144 144
-0.134444 -0.431996 0.026780 143 143 143
-0.127774 -0.436239 0.025464 142 142 142
-0.122694 -0.438392 0.024637 138 138 138
-0.117972 -0.440083 0.023919 138 138 138
-0.112850 -0.442322 0.023074 138 138 138
-0.108900 -0.443009 0.022591 138 138 138
-0.104784 -0.443926 0.022055 138 138 138
-0.100834 -0.444630 0.021570 138 138 138
-0.096909 -0.445309 0.021091 138 138 138
-0.092248 -0.446991 0.020380 138 138 138
-0.087661 -0.448585 0.019690 138 138 138
-0.083500 -0.449615 0.019132 138 138 138
-0.079553 -0.450366 0.018639 138 138 138
-0.075613 -0.451115 0.018147 138 138 138
-0.072019 -0.451402 0.017763 138 138 138
-0.068344 -0.451805 0.017353 138 138 138
-0.064868 -0.451946 0.017003 138 138 138
-0.061454 -0.452006 0.016673 138 138 138
-0.058028 -0.452090 0.016338 138 138 138
-0.054666 -0.452092 0.016022 138 138 138
-0.051402 -0.451964 0.015736 138 138 138
-0.048101 -0.451892 0.015438 138 138 138
-0.044974 -0.451585 0.015194 138 138 138
-0.041934 -0.451162 0.014978 138 138 138
-0.038920 -0.450707 0.014769 138 138 138
-0.035828 -0.450365 0.014534 138 138 138
-0.032691 -0.450089 0.014284 138 138 138
-0.029536 -0.449843 0.014028 138 138 138
-0.026384 -0.449599 0.013772 138 138 138
-0.022920 -0.449800 0.013414 138 138 138
-0.019509 -0.449931 0.013072 141 141 141
-0.016128 -0.450028 0.012739 143 143 143
-0.012731 -0.450153 0.012400 144 144 144
-0.009266 -0.450381 0.012037 144 144 144
-0.005717 -0.450737 0.011646 143 143 143
-0.002174 -0.451091 0.011256 141 141 141
0.001384 -0.451473 0.010860 143 143 143
0.004948 -0.451873 0.010460 143 143 143
0.008546 -0.452329 0.010048 145 145 145
0.012297 -0.453013 0.009585 145 145 145
0.016240 -0.453983 0.009057 144 144 144
0.020181 -0.454962 0.008527 142 142 142
0.024110 -0.455933 0.008001 144 144 144
0.027487 -0.456112 0.007654 142 142 142
0.030856 -0.456286 0.007310 141 141 141
0.034191 -0.456417 0.006975 141 141 141
0.037317 -0.456248 0.006709 141 141 141
0.040215 -0.455751 0.006518 141 141 141
0.042968 -0.455045 0.006374 140 140 140
0.045714 -0.454329 0.006233 139 139 139
0.048427 -0.453569 0.006102 139 139 139
0.051119 -0.452781 0.005977 141 141 141
0.053850 -0.452052 0.005839 143 143 143
0.056579 -0.451323 0.005702 145 145 145
0.059166 -0.450386 0.005611 147 147 147
0.061676 -0.449335 0.005546 149 149 149
0.064185 -0.448285 0.005482 150 150 150
0.066649 -0.447168 0.005432 152 152 152
0.069008 -0.445894 0.005418 153 153 153
0.071448 -0.444743 0.005376 155 155 155
0.073923 -0.443645 0.005322 156 156 156
0.076397 -0.442547 0.005268 156 156 156
0.078871 -0.441450 0.005214 157 157 157
0.081275 -0.440247 0.005184 158 158 158
0.083623 -0.438960 0.005173 161 161 161
0.085952 -0.437645 0.005168 163 163 163
0.088176 -0.436167 0.005200 162 162 162
0.090450 -0.434767 0.005214 162 162 162
0.092767 -0.433432 0.005214 161 161 161
0.095082 -0.432094 0.005214 161 161 161
0.097434 -0.430813 0.005201 161 161 161
0.099931 -0.429757 0.005138 160 160 160
0.102478 -0.428781 0.005058 159 159 159
0.105070 -0.427876 0.004962 158 158 158
0.107697 -0.427027 0.004853 158 158 158
0.110330 -0.426190 0.004742 158 158 158
0.112975 -0.425374 0.004627 158 158 158
0.115670 -0.424638 0.004493 155 155 155
0.118428 -0.424005 0.004337 153 153 153
0.121220 -0.423428 0.004169 152 152 152
0.123964 -0.422779 0.004017 151 151 151
0.126554 -0.421888 0.003918 149 149 149
0.129348 -0.421325 0.003748 149 149 149
0.132141 -0.420763 0.003577 148 148 148
0.134928 -0.420195 0.003408 147 147 147
0.137551 -0.419369 0.003296 148 148 148
0.140166 -0.418531 0.003186 151 151 151
0.142697 -0.417562 0.003106 151 151 151
0.145232 -0.416600 0.003025 152 152 152
0.147937 -0.415914 0.002882 152 152 152
0.150669 -0.415276 0.002730 152 152 152
0.153416 -0.414665 0.002571 153 153 153
0.156262 -0.414217 0.002377 155 155 155
0.158991 -0.413584 0.002223 156 156 156
0.161636 -0.412817 0.002100 157 157 157
0.164241 -0.411987 0.001990 157 157 157
0.166845 -0.411157 0.001881 157 157 157
0.169289 -0.410067 0.001828 157 157 157
0.171493 -0.408582 0.001863 157 157 157
0.173698 -0.407098 0.001897 157 157 157
0.175902 -0.405613 0.001932 156 156 156
0.178133 -0.404170 0.001957 156 156 156
0.180485 -0.402930 0.001938 156 156 156
0.182878 -0.401757 0.001904 156 156 156
0.185270 -0.400584 0.001870 156 156 156
0.187662 -0.399411 0.001836 156 156 156
0.190187 -0.398462 0.001753 157 157 157
0.192869 -0.397780 0.001613 157 157 157
0.195546 -0.397091 0.001473 158 158 158
0.198141 -0.396268 0.001363 160 160 160
0.200723 -0.395424 0.001258 159 159 159
0.202893 -0.393884 0.001305 158 158 158
0.205064 -0.392343 0.001352 158 158 158
0.207235 -0.390802 0.001398 157 157 157
0.209401 -0.389252 0.001447 156 156 156
0.211535 -0.387645 0.001508 154 154 154
0.213393 -0.385562 0.001672 152 152 152
0.215253 -0.383478 0.001837 150 150 150
0.217388 -0.381867 0.001898 149 149 149
0.219531 -0.380268 0.001957 148 148 148
0.221516 -0.378394 0.002075 146 146 146
0.223512 -0.376535 0.002190 145 145 145
0.225647 -0.374916 0.002253 143 143 143
0.227782 -0.373297 0.002316 141 141 141
0.229925 -0.371690 0.002376 139 139 139
0.232041 -0.370034 0.002447 138 138 138
0.234061 -0.368208 0.002554 138 138 138
0.235998 -0.366232 0.002693 138 138 138
0.237924 -0.364235 0.002837 138 138 138
0.239852 -0.362237 0.002981 138 138 138
0.241816 -0.360299 0.003112 138 138 138
0.243801 -0.358397 0.003235 138 138 138
0.245859 -0.356621 0.003331 138 138 138
0.247980 -0.354958 0.003402 139 139 139
0.250088 -0.353268 0.003479 139 139 139
0.252177 -0.351544 0.003563 139 139 139
0.254267 -0.349819 0.003647 139 139 139
0.256358 -0.348093 0.003732 140 140 140
0.258449 -0.346367 0.003816 140 140 140
0.260547 -0.344649 0.003899 140 140 140
0.262625 -0.342894 0.003989 140 140 140
0.264720 -0.341170 0.004072 140 140 140
0.266765 -0.339350 0.004176 140 140 140
0.268762 -0.337441 0.004299 139 139 139
0.270717 -0.335450 0.004440 139 139 139
0.272631 -0.333381 0.004596 140 140 140
0.274547 -0.331311 0.004753 141 141 141
0.276627 -0.329543 0.004845 141 141 141
0.278669 -0.327701 0.004953 139 139 139
0.280544 -0.325548 0.005127 138 138 138
0.282433 -0.323415 0.005297 138 138 138
0.284324 -0.321280 0.005466 138 138 138
0.286215 -0.319144 0.005636 138 138 138
0.288071 -0.316937 0.005821 138 138 138
0.290094 -0.315039 0.005940 138 138 138
0.292218 -0.313332 0.006018 139 139 139
0.294318 -0.311576 0.006106 143 143 143
0.296399 -0.309783 0.006202 147 147 147
0.298232 -0.307513 0.006399 149 149 149
0.300132 -0.305368 0.006570 152 152 152
0.302044 -0.303242 0.006736 154 154 154
0.303895 -0.300995 0.006928 156 156 156
0.305617 -0.298493 0.007173 158 158 158
0.307456 -0.296213 0.007371 161 161 161
0.309444 -0.294215 0.007509 162 162 162
0.311478 -0.292304 0.007629 162 162 162
0.313513 -0.290392 0.007749 163 163 163
0.315544 -0.288469 0.007871 163 163 163
0.317525 -0.286445 0.008014 164 164 164
0.319498 -0.284403 0.008161 164 164 164
0.321473 -0.282359 0.008308 164 164 164
0.323448 -0.280314 0.008455 165 165 165
0.325425 -0.278269 0.008602 165 165 165
0.327377 -0.276170 0.008760 165 165 165
0.329283 -0.273976 0.008938 165 165 165
0.331185 -0.271770 0.009118 164 164 164
0.333089 -0.269561 0.009299 163 163 163
0.335117 -0.267599 0.009427 163 163 163
0.337222 -0.265787 0.009524 162 162 162
0.339278 -0.263874 0.009642 161 161 161
0.341339 -0.261967 0.009759 160 160 160
0.343437 -0.260134 0.009860 160 160 160
0.345535 -0.258299 0.009961 159 159 159
0.347426 -0.256039 0.010151 158 158 158
0.349296 -0.253732 0.010351 158 158 158
0.351186 -0.251460 0.010543 157 157 157
0.353222 -0.249482 0.010674 157 157 157
0.355135 -0.247250 0.010857 156 156 156
0.356853 -0.244610 0.011125 156 156 156
0.358573 -0.241967 0.011393 156 156 156
0.360294 -0.239321 0.011662 156 156 156
0.362015 -0.236668 0.011932 156 156 156
0.363538 -0.233594 0.012289 156 156 156
0.365058 -0.230506 0.012648 156 156 156
0.366581 -0.227413 0.013008 156 156 156
0.368089 -0.224282 0.013376 156 156 156
0.369699 -0.221355 0.013701 157 157 157
0.371261 -0.218319 0.014048 157 157 157
0.372793 -0.215209 0.014410 157 157 157
0.374336 -0.212115 0.014768 158 158 158
0.375940 -0.209139 0.015101 158 158 158
0.377526 -0.206118 0.015444 157 157 157
0.379078 -0.203015 0.015803 157 157 157
0.380756 -0.200172 0.016107 157 157 157
0.382593 -0.197663 0.016343 157 157 157
0.384380 -0.195040 0.016602 158 158 158
0.386166 -0.192408 0.016862 158 158 158
0.387954 -0.189774 0.017122 159 159 159
0.389746 -0.187143 0.017382 160 160 160
0.391436 -0.184280 0.017689 160 160 160
0.393127 -0.181414 0.017996 161 161 161
0.394821 -0.178544 0.018304 161 161 161
0.396513 -0.175662 0.018614 161 161 161
0.398040 -0.172410 0.018999 164 164 164
0.399770 -0.169594 0.019295 165 165 165
0.401494 -0.166757 0.019594 165 165 165
0.403226 -0.163929 0.019892 166 166 166
0.405104 -0.161421 0.020123 166 166 166
0.406932 -0.158793 0.020379 167 167 167
0.408739 -0.156112 0.020645 170 170 170
0.410543 -0.153415 0.020914 168 168 168
0.412341 -0.150700 0.021187 169 169 169
0.414014 -0.147694 0.021519 168 168 168
0.415592 -0.144462 0.021896 169 169 169
0.417172 -0.141226 0.022274 170 170 170
0.418648 -0.137743 0.022702 171 171 171
0.419904 -0.133746 0.023234 173 173 173
0.421170 -0.129757 0.023764 173 173 173
0.422057 -0.124883 0.024473 174 174 174
0.422718 -0.119466 0.025292 175 175 175
0.423300 -0.113846 0.026152 175 175 175
0.423849 -0.108125 0.027030 176 176 176
0.424347 -0.102262 0.027937 175 175 175
0.424817 -0.096308 0.028861 175 175 175
0.425080 -0.089843 0.029888 175 175 175
0.425306 -0.083265 0.030937 174 174 174
0.425548 -0.076693 0.031982 174 174 174
0.425875 -0.070295 0.032992 174 174 174
0.426280 -0.064048 0.033970 174 174 174
0.426663 -0.057725 0.034962 173 173 173
0.427129 -0.051570 0.035920 174 174 174
0.427495 -0.045149 0.036929 173 173 173
0.427738 -0.038405 0.038003 174 174 174
0.427751 -0.031080 0.039193 173 173 173
0.427498 -0.023081 0.040518 172 172 172
0.427213 -0.014966 0.041865 171 171 171
0.426211 -0.005079 0.043567 171 171 171
0.425242 0.004778 0.045260 168 168 168
0.424787 0.013434 0.046711 166 166 166
0.424562 0.021570 0.048055 165 165 165
0.424314 0.029800 0.049417 164 164 164
0.424043 0.038126 0.050796 163 163 163
0.423844 0.046318 0.052147 163 163 163
0.423497 0.054912 0.053577 165 165 165
0.423153 0.063542 0.055013 168 168 168
0.422616 0.072695 0.056552 171 171 171
0.422028 0.082016 0.058123 176 176 176
0.419616 0.095943 0.060615 135 135 135
-0.329885 -0.297305 0.063967 138 138 138
-0.322428 -0.301895 0.062528 138 138 138
-0.315605 -0.305711 0.061274 138 138 138
-0.309253 -0.308953 0.060157 138 138 138
-0.215049 -0.423476 0.032843 138 138 138
-0.209309 -0.426215 0.031864 138 138 138
-0.205255 -0.426828 0.031386 138 138 138
-0.201724 -0.426782 0.031064 138 138 138
-0.198636 -0.426176 0.030874 138 138 138
-0.195322 -0.425863 0.030615 138 138 138
-0.192008 -0.425556 0.030355 138 138 138
-0.188650 -0.425309 0.030082 138 138 138
-0.185144 -0.425258 0.029762 138 138 138
-0.181520 -0.425364 0.029407 138 138 138
-0.177796 -0.425607 0.029020 138 138 138
-0.173679 -0.426365 0.028513 138 138 138
-0.169445 -0.427284 0.027969 138 138 138
-0.165119 -0.428335 0.027395 138 138 138
-0.160721 -0.429488 0.026798 138 138 138
-0.156076 -0.430976 0.026124 139 139 139
-0.151980 -0.431757 0.025615 139 139 139
-0.148566 -0.431652 0.025313 139 139 139
-0.145110 -0.431607 0.024998 139 139 139
-0.141206 -0.432159 0.024544 141 141 141
-0.137220 -0.432827 0.024064 143 143 143
-0.132916 -0.433925 0.023485 145 145 145
-0.126904 -0.437300 0.022378 139 139 139
-0.122160 -0.439011 0.021658 138 138 138
-0.117440 -0.440701 0.020944 138 138 138
-0.113032 -0.441989 0.020324 138 138 138
-0.109265 -0.442430 0.019901 138 138 138
-0.105401 -0.443009 0.019447 138 138 138
-0.101553 -0.443576 0.018996 138 138 138
