ply
format ascii 1.0
element vertex 1200
property float x
property float y
property float z
property uchar red
property uchar green
property uchar blue
end_header
-0.004733 -0.431402 0.175132 181 181 181
0.001762 -0.430949 0.173864 181 181 181
0.050484 -0.447921 0.161967 182 182 182
0.057256 -0.447658 0.160621 176 176 176
0.064200 -0.447479 0.159230 173 173 173
0.069808 -0.446758 0.158175 171 171 171
0.074286 -0.445575 0.157403 171 171 171
0.078326 -0.444217 0.156741 171 171 171
0.082155 -0.442777 0.156132 170 170 170
0.085355 -0.441077 0.155681 171 171 171
0.088402 -0.439318 0.155268 171 171 171
0.091168 -0.437443 0.154926 172 172 172
0.093300 -0.435303 0.154744 172 172 172
0.095396 -0.433149 0.154570 172 172 172
0.097490 -0.430996 0.154397 172 172 172
0.099583 -0.428844 0.154224 172 172 172
0.101512 -0.426624 0.154093 171 171 171
0.103491 -0.424426 0.153948 170 170 170
0.105464 -0.422227 0.153805 170 170 170
0.107437 -0.420029 0.153662 169 169 169
0.109841 -0.418020 0.153409 169 169 169
0.113474 -0.416549 0.152843 169 169 169
0.117118 -0.415088 0.152274 169 169 169
0.121168 -0.413810 0.151600 170 170 170
0.126445 -0.413078 0.150614 170 170 170
0.130530 -0.411830 0.149930 171 171 171
0.134719 -0.410635 0.149218 171 171 171
0.138915 -0.409450 0.148504 170 170 170
0.142858 -0.408160 0.147854 170 170 170
0.146580 -0.406777 0.147260 170 170 170
0.150295 -0.405397 0.146667 169 169 169
0.153558 -0.403820 0.146188 168 168 168
0.157561 -0.402581 0.145520 167 167 167
0.161584 -0.401357 0.144846 166 166 166
0.166150 -0.400384 0.144031 166 166 166
0.170945 -0.399524 0.143158 168 168 168
0.175045 -0.398356 0.142461 162 162 162
0.178859 -0.397065 0.141837 163 163 163
0.182418 -0.395664 0.141278 165 165 165
0.185426 -0.394015 0.140860 160 160 160
0.187969 -0.392158 0.140561 160 160 160
0.190604 -0.390345 0.140238 160 160 160
0.193369 -0.388596 0.139881 157 157 157
0.195454 -0.386536 0.139699 157 157 157
0.197538 -0.384476 0.139517 156 156 156
0.200132 -0.382656 0.139204 155 155 155
0.203125 -0.381025 0.138787 150 150 150
0.206199 -0.379437 0.138348 149 149 149
0.209606 -0.378009 0.137823 149 149 149
0.212973 -0.376567 0.137308 149 149 149
0.216279 -0.375102 0.136808 150 150 150
0.219559 -0.373629 0.136314 151 151 151
0.222727 -0.372108 0.135848 152 152 152
0.225514 -0.370410 0.135481 153 153 153
0.228298 -0.368714 0.135114 154 154 154
0.231031 -0.366998 0.134760 155 155 155
0.233511 -0.365164 0.134471 155 155 155
0.235999 -0.363336 0.134180 156 156 156
0.238484 -0.361510 0.133889 157 157 157
0.240453 -0.359438 0.133732 158 158 158
0.242400 -0.357356 0.133580 160 160 160
0.244440 -0.355321 0.133404 160 160 160
0.246442 -0.353269 0.133238 160 160 160
0.248344 -0.351171 0.133098 160 160 160
0.250246 -0.349073 0.132957 161 161 161
0.252198 -0.347002 0.132804 161 161 161
0.254387 -0.345048 0.132588 161 161 161
0.256574 -0.343096 0.132372 161 161 161
0.258761 -0.341146 0.132157 161 161 161
0.261007 -0.339227 0.131925 162 162 162
0.263441 -0.337404 0.131644 162 162 162
0.265895 -0.335595 0.131358 162 162 162
0.268348 -0.333787 0.131071 162 162 162
0.270948 -0.332056 0.130746 163 163 163
0.273550 -0.330329 0.130420 164 164 164
0.276298 -0.328679 0.130055 163 163 163
0.279042 -0.327031 0.129690 163 163 163
0.281790 -0.325389 0.129324 164 164 164
0.284536 -0.323748 0.128959 164 164 164
0.287381 -0.322163 0.128566 165 165 165
0.290176 -0.320555 0.128187 165 165 165
0.292955 -0.318944 0.127811 166 166 166
0.295808 -0.317373 0.127415 167 167 167
0.298683 -0.315818 0.127013 167 167 167
0.301367 -0.314169 0.126661 167 167 167
0.303910 -0.312450 0.126346 167 167 167
0.306393 -0.310704 0.126046 168 168 168
0.308866 -0.308955 0.125749 168 168 168
0.310783 -0.306919 0.125598 168 168 168
0.312548 -0.304806 0.125487 169 169 169
0.314313 -0.302693 0.125376 169 169 169
0.316082 -0.300584 0.125264 170 170 170
0.317691 -0.298391 0.125194 172 172 172
0.319001 -0.296042 0.125204 172 172 172
0.320311 -0.293692 0.125213 172 172 172
0.321621 -0.291342 0.125223 172 172 172
0.322931 -0.288992 0.125232 173 173 173
0.324241 -0.286642 0.125242 173 173 173
0.325187 -0.284097 0.125348 174 174 174
0.326087 -0.281527 0.125467 174 174 174
0.326988 -0.278956 0.125586 174 174 174
0.327889 -0.276383 0.125704 174 174 174
0.328837 -0.273835 0.125811 173 173 173
0.329962 -0.271382 0.125870 173 173 173
0.331107 -0.268939 0.125924 173 173 173
0.332448 -0.266601 0.125926 173 173 173
0.333962 -0.264359 0.125881 173 173 173
0.335477 -0.262117 0.125836 173 173 173
0.337038 -0.259901 0.125779 173 173 173
0.338601 -0.257687 0.125721 173 173 173
0.340141 -0.255460 0.125669 172 172 172
0.341803 -0.253302 0.125585 172 172 172
0.343475 -0.251150 0.125498 172 172 172
0.345146 -0.248998 0.125410 171 171 171
0.346983 -0.246939 0.125279 171 171 171
0.348900 -0.244927 0.125125 170 170 170
0.351023 -0.243031 0.124916 170 170 170
0.352971 -0.241040 0.124754 169 169 169
0.354918 -0.239049 0.124592 169 169 169
0.357069 -0.237175 0.124374 169 169 169
0.359347 -0.235375 0.124122 169 169 169
0.361667 -0.233602 0.123859 169 169 169
0.364006 -0.231842 0.123590 169 169 169
0.366344 -0.230083 0.123321 169 169 169
0.368639 -0.228304 0.123063 169 169 169
0.370885 -0.226498 0.122819 169 169 169
0.373128 -0.224695 0.122574 170 170 170
0.375411 -0.222915 0.122319 170 170 170
0.377744 -0.221169 0.122050 170 170 170
0.380047 -0.219407 0.121788 172 172 172
0.382350 -0.217648 0.121526 172 172 172
0.384492 -0.215798 0.121308 172 172 172
0.386618 -0.213941 0.121094 173 173 173
0.388708 -0.212065 0.120889 173 173 173
0.390797 -0.210191 0.120685 173 173 173
0.392883 -0.208317 0.120480 174 174 174
0.394876 -0.206391 0.120301 175 175 175
0.396805 -0.204428 0.120140 176 176 176
0.398662 -0.202426 0.119997 176 176 176
0.400442 -0.200379 0.119876 176 176 176
0.402220 -0.198332 0.119754 176 176 176
0.403998 -0.196286 0.119633 175 175 175
0.405685 -0.194188 0.119536 175 175 175
0.407331 -0.192066 0.119450 175 175 175
0.409004 -0.189961 0.119358 175 175 175
0.410606 -0.187814 0.119284 175 175 175
0.412445 -0.185811 0.119145 175 175 175
0.414119 -0.183710 0.119051 174 174 174
0.415631 -0.181511 0.119002 173 173 173
0.417142 -0.179313 0.118953 173 173 173
0.418652 -0.177115 0.118904 172 172 172
0.420210 -0.174946 0.118842 172 172 172
0.421718 -0.172747 0.118793 172 172 172
0.422951 -0.170381 0.118820 171 171 171
0.424185 -0.168016 0.118847 171 171 171
0.425428 -0.165655 0.118872 172 172 172
0.426620 -0.163262 0.118910 173 173 173
0.427357 -0.160589 0.119074 173 173 173
0.428111 -0.157925 0.119233 173 173 173
0.428820 -0.155230 0.119405 172 172 172
0.429446 -0.152482 0.119601 171 171 171
0.430012 -0.149695 0.119813 172 172 172
0.430314 -0.146741 0.120098 172 172 172
0.430553 -0.143744 0.120402 173 173 173
0.431196 -0.140998 0.120593 176 176 176
0.431621 -0.138113 0.120845 177 177 177
0.432134 -0.135280 0.121074 177 177 177
0.432857 -0.132577 0.121244 177 177 177
0.433477 -0.129808 0.121443 175 175 175
0.433832 -0.126868 0.121716 176 176 176
0.433917 -0.123754 0.122064 177 177 177
0.434030 -0.120654 0.122405 177 177 177
0.434144 -0.117550 0.122746 177 177 177
0.433570 -0.114003 0.123279 177 177 177
0.432925 -0.110404 0.123832 177 177 177
0.432324 -0.106827 0.124375 177 177 177
0.431976 -0.103409 0.124847 177 177 177
0.431645 -0.099996 0.125314 176 176 176
0.431239 -0.096529 0.125804 175 175 175
0.431364 -0.093402 0.126146 175 175 175
0.431671 -0.090390 0.126437 175 175 175
0.431979 -0.087375 0.126728 174 174 174
0.432279 -0.084353 0.127022 174 174 174
0.432640 -0.081367 0.127299 174 174 174
0.433023 -0.078393 0.127570 174 174 174
0.433431 -0.075431 0.127835 174 174 174
0.433647 -0.072341 0.128154 174 174 174
0.433652 -0.069107 0.128532 174 174 174
0.433643 -0.065861 0.128915 174 174 174
0.433580 -0.062574 0.129314 174 174 174
0.433423 -0.059220 0.129739 175 175 175
0.433131 -0.055772 0.130203 175 175 175
0.432759 -0.052265 0.130691 175 175 175
0.432383 -0.048751 0.131179 175 175 175
0.431700 -0.045024 0.131756 174 174 174
0.431015 -0.041290 0.132333 174 174 174
0.429830 -0.037213 0.133053 174 174 174
0.428503 -0.033031 0.133814 174 174 174
0.427205 -0.028861 0.134567 173 173 173
0.426330 -0.024971 0.135201 171 171 171
0.425639 -0.021199 0.135785 171 171 171
0.425243 -0.017622 0.136285 170 170 170
0.425070 -0.014192 0.136723 170 170 170
0.424794 -0.010687 0.137190 169 169 169
0.424475 -0.007147 0.137671 169 169 169
0.424100 -0.003563 0.138168 169 169 169
0.423773 -0.000007 0.138651 169 169 169
0.423392 0.003591 0.139151 169 169 169
0.422905 0.007269 0.139682 169 169 169
0.422419 0.010951 0.140213 168 168 168
0.421918 0.014649 0.140749 168 168 168
0.421642 0.018197 0.141221 168 168 168
0.421365 0.021750 0.141695 168 168 168
0.421056 0.025331 0.142178 169 169 169
0.420695 0.028953 0.142676 169 169 169
0.420335 0.032581 0.143176 169 169 169
0.420037 0.036170 0.143657 169 169 169
0.419843 0.039690 0.144110 169 169 169
0.419648 0.043216 0.144564 169 169 169
0.419469 0.046737 0.145013 170 170 170
0.419344 0.050223 0.145448 170 170 170
0.419251 0.053692 0.145874 170 170 170
0.419183 0.057146 0.146293 170 170 170
0.419353 0.060436 0.146645 170 170 170
0.419396 0.063819 0.147033 171 171 171
0.419371 0.067257 0.147442 171 171 171
0.419261 0.070760 0.147875 172 172 172
0.419345 0.074128 0.148254 172 172 172
0.419470 0.077470 0.148620 173 173 173
0.419244 0.081071 0.149089 173 173 173
0.418684 0.084920 0.149655 174 174 174
0.418122 0.088777 0.150222 175 175 175
0.416666 0.093294 0.151048 175 175 175
0.414648 0.098232 0.152038 176 176 176
0.411733 0.103839 0.153288 177 177 177
0.408754 0.109507 0.154559 178 178 178
0.405266 0.115564 0.155979 178 178 178
0.400215 0.122792 0.157855 178 178 178
0.394649 0.130423 0.159882 182 182 182
0.387867 0.138979 0.162265 183 183 183
0.382787 0.146295 0.164157 186 186 186
0.378471 0.153061 0.165828 184 184 184
0.375079 0.159157 0.167234 184 184 184
0.371654 0.165293 0.168650 184 184 184
0.367259 0.172172 0.170351 185 185 185
0.362654 0.179228 0.172115 187 187 187
0.356902 0.187168 0.174217 188 188 188
0.345500 0.199398 0.177971 184 184 184
0.294684 0.241498 0.193243 171 171 171
0.292241 0.247081 0.194395 172 172 172
0.289885 0.252611 0.195523 173 173 173
0.287240 0.258373 0.196737 174 174 174
0.283567 0.264935 0.198254 178 178 178
0.279712 0.271651 0.199826 181 181 181
0.274179 0.279672 0.201893 187 187 187
0.266195 0.289599 0.204681 189 189 189
0.259686 0.298421 0.207040 189 189 189
0.254551 0.306210 0.208998 189 189 189
0.249398 0.314034 0.210964 190 190 190
0.242483 0.323246 0.213451 199 199 199
-0.037964 -0.439750 0.177894 181 181 181
-0.030855 -0.439475 0.176488 180 180 180
-0.024525 -0.438899 0.175274 180 180 180
-0.020088 -0.437568 0.174532 180 180 180
-0.015793 -0.436186 0.173824 180 180 180
-0.011205 -0.434930 0.173042 181 181 181
-0.006791 -0.433611 0.172303 181 181 181
-0.001048 -0.432843 0.171231 186 186 186
0.046497 -0.449274 0.159689 182 182 182
0.052184 -0.448555 0.158622 178 178 178
0.059157 -0.448377 0.157232 173 173 173
0.065923 -0.448128 0.155892 169 169 169
0.071328 -0.447325 0.154892 168 168 168
0.075530 -0.446030 0.154193 169 169 169
0.079583 -0.444679 0.153530 169 169 169
0.082956 -0.443049 0.153038 169 169 169
0.086153 -0.441350 0.152590 170 170 170
0.089349 -0.439655 0.152141 170 170 170
0.091948 -0.437711 0.151842 171 171 171
0.093998 -0.435538 0.151681 171 171 171
0.096047 -0.433365 0.151521 171 171 171
0.098094 -0.431193 0.151360 171 171 171
0.100082 -0.428998 0.151214 171 171 171
0.101923 -0.426740 0.151105 170 170 170
0.103984 -0.424579 0.150941 171 171 171
0.105924 -0.422367 0.150807 171 171 171
0.107816 -0.420135 0.150684 170 170 170
0.110782 -0.418371 0.150290 170 170 170
0.114251 -0.416830 0.149768 170 170 170
0.117892 -0.415369 0.149202 171 171 171
0.122945 -0.414533 0.148277 171 171 171
0.127892 -0.413658 0.147379 171 171 171
0.132016 -0.412430 0.146687 171 171 171
0.136217 -0.411243 0.145976 171 171 171
0.140113 -0.409927 0.145341 170 170 170
0.144113 -0.408664 0.144679 169 169 169
0.148199 -0.407446 0.143995 168 168 168
0.151702 -0.405973 0.143458 168 168 168
0.154788 -0.404320 0.143026 166 166 166
0.158392 -0.402903 0.142463 165 165 165
0.162223 -0.401594 0.141840 164 164 164
0.166343 -0.400422 0.141144 164 164 164
0.171106 -0.399548 0.140282 163 163 163
0.174988 -0.398282 0.139644 161 161 161
0.178832 -0.397005 0.139015 161 161 161
0.182581 -0.395691 0.138410 160 160 160
0.185528 -0.394015 0.138010 158 158 158
0.188161 -0.392199 0.137689 158 158 158
0.190701 -0.390344 0.137392 158 158 158
0.193080 -0.388417 0.137135 156 156 156
0.195165 -0.386357 0.136954 155 155 155
0.197249 -0.384298 0.136773 155 155 155
0.199527 -0.382331 0.136542 153 153 153
0.202387 -0.380638 0.136161 150 150 150
0.205169 -0.378912 0.135799 148 148 148
0.208578 -0.377484 0.135276 148 148 148
0.211906 -0.376023 0.134774 147 147 147
0.215248 -0.374574 0.134267 149 149 149
0.218530 -0.373101 0.133775 150 150 150
0.221795 -0.371625 0.133286 151 151 151
0.224751 -0.370007 0.132877 152 152 152
0.227564 -0.368325 0.132504 153 153 153
0.230369 -0.366643 0.132133 154 154 154
0.232927 -0.364846 0.131825 155 155 155
0.235415 -0.363018 0.131536 156 156 156
0.237901 -0.361192 0.131246 157 157 157
0.240140 -0.359250 0.131020 157 157 157
0.242151 -0.357199 0.130852 159 159 159
0.244190 -0.355164 0.130677 160 160 160
0.246228 -0.353130 0.130503 160 160 160
0.248163 -0.351048 0.130354 160 160 160
0.250072 -0.348954 0.130213 160 160 160
0.252006 -0.346874 0.130064 161 161 161
0.254084 -0.344866 0.129878 161 161 161
0.256272 -0.342914 0.129664 161 161 161
0.258431 -0.340951 0.129456 161 161 161
0.260743 -0.339065 0.129209 161 161 161
0.263130 -0.337219 0.128941 162 162 162
0.265585 -0.335410 0.128656 162 162 162
0.268038 -0.333602 0.128371 162 162 162
0.270725 -0.331915 0.128024 163 163 163
0.273554 -0.330302 0.127640 163 163 163
0.276444 -0.328724 0.127239 162 162 162
0.279323 -0.327145 0.126841 163 163 163
0.282070 -0.325503 0.126477 163 163 163
0.284815 -0.323863 0.126113 163 163 163
0.287625 -0.322261 0.125732 164 164 164
0.290411 -0.320650 0.125356 165 165 165
0.293262 -0.319076 0.124963 166 166 166
0.296114 -0.317506 0.124569 167 167 167
0.298919 -0.315916 0.124188 167 167 167
0.301569 -0.314250 0.123846 167 167 167
0.304218 -0.312587 0.123504 167 167 167
0.306768 -0.310876 0.123188 167 167 167
0.309103 -0.309056 0.122928 168 168 168
0.311151 -0.307090 0.122744 168 168 168
0.312916 -0.304977 0.122633 168 168 168
0.314680 -0.302865 0.122523 169 169 169
0.316443 -0.300754 0.122413 169 169 169
0.318122 -0.298599 0.122325 170 170 170
0.319476 -0.296274 0.122322 172 172 172
0.320789 -0.293927 0.122331 172 172 172
0.322101 -0.291579 0.122340 172 172 172
0.323414 -0.289232 0.122348 172 172 172
0.324715 -0.286878 0.122360 173 173 173
0.325821 -0.284420 0.122424 174 174 174
0.326713 -0.281847 0.122544 174 174 174
0.327606 -0.279272 0.122664 174 174 174
0.328498 -0.276697 0.122784 174 174 174
0.329467 -0.274161 0.122884 173 173 173
0.330591 -0.271709 0.122943 173 173 173
0.331801 -0.269302 0.122980 173 173 173
0.333279 -0.267041 0.122945 173 173 173
0.334756 -0.264780 0.122910 173 173 173
0.336158 -0.262478 0.122895 173 173 173
0.337625 -0.260212 0.122863 173 173 173
0.339143 -0.257974 0.122817 173 173 173
0.340724 -0.255771 0.122755 173 173 173
0.342387 -0.253615 0.122670 173 173 173
0.344057 -0.251463 0.122584 172 172 172
0.345728 -0.249313 0.122497 172 172 172
0.347399 -0.247163 0.122410 171 171 171
0.349386 -0.245191 0.122238 170 170 170
0.351334 -0.243198 0.122077 170 170 170
0.353281 -0.241207 0.121915 169 169 169
0.355228 -0.239217 0.121754 169 169 169
0.357383 -0.237347 0.121536 169 169 169
0.359704 -0.235572 0.121274 169 169 169
0.362024 -0.233799 0.121012 169 169 169
0.364341 -0.232028 0.120750 169 169 169
0.366676 -0.230269 0.120482 169 169 169
0.368923 -0.228463 0.120239 169 169 169
0.371256 -0.226709 0.119972 169 169 169
0.373600 -0.224963 0.119701 170 170 170
0.375941 -0.223219 0.119431 170 170 170
0.378257 -0.221463 0.119168 171 171 171
0.380606 -0.219729 0.118895 171 171 171
0.382948 -0.217994 0.118624 171 171 171
0.385249 -0.216238 0.118363 171 171 171
0.387364 -0.214376 0.118153 172 172 172
0.389475 -0.212514 0.117943 172 172 172
0.391593 -0.210659 0.117731 173 173 173
0.393708 -0.208804 0.117520 173 173 173
0.395705 -0.206882 0.117340 174 174 174
0.397604 -0.204903 0.117187 174 174 174
0.399501 -0.202926 0.117034 175 175 175
0.401363 -0.200929 0.116891 175 175 175
0.403140 -0.198883 0.116770 175 175 175
0.404845 -0.196796 0.116669 174 174 174
0.406492 -0.194675 0.116584 174 174 174
0.408137 -0.192555 0.116498 174 174 174
0.409794 -0.190441 0.116410 174 174 174
0.411477 -0.188345 0.116314 174 174 174
0.413109 -0.186220 0.116232 174 174 174
0.414620 -0.184021 0.116184 173 173 173
0.416131 -0.181824 0.116135 173 173 173
0.417638 -0.179625 0.116086 172 172 172
0.419142 -0.177423 0.116039 171 171 171
0.420605 -0.175198 0.116003 171 171 171
0.421880 -0.172859 0.116019 170 170 170
0.423113 -0.170493 0.116045 170 170 170
0.424347 -0.168128 0.116072 170 170 170
0.425584 -0.165765 0.116098 170 170 170
0.426827 -0.163405 0.116122 171 171 171
0.427821 -0.160890 0.116215 172 172 172
0.428498 -0.158180 0.116394 171 171 171
0.429123 -0.155434 0.116589 171 171 171
0.429749 -0.152687 0.116783 171 171 171
0.430358 -0.149928 0.116982 170 170 170
0.430895 -0.147122 0.117202 171 171 171
0.431266 -0.144209 0.117467 171 171 171
0.431687 -0.141325 0.117718 173 173 173
0.432411 -0.138629 0.117887 176 176 176
0.432999 -0.135845 0.118093 176 176 176
0.433483 -0.132994 0.118328 174 174 174
0.434132 -0.130244 0.118518 174 174 174
0.434781 -0.127492 0.118708 174 174 174
0.434908 -0.124407 0.119043 175 175 175
0.434971 -0.121277 0.119396 175 175 175
0.435034 -0.118142 0.119750 177 177 177
0.434898 -0.114878 0.120159 177 177 177
0.434234 -0.111269 0.120715 177 177 177
0.433539 -0.107635 0.121280 176 176 176
0.432984 -0.104085 0.121807 176 176 176
0.432656 -0.100676 0.122272 174 174 174
0.432140 -0.097140 0.122789 174 174 174
0.431844 -0.093742 0.123246 174 174 174
0.432152 -0.090731 0.123536 173 173 173
0.432423 -0.087694 0.123836 173 173 173
0.432677 -0.084642 0.124141 173 173 173
0.432990 -0.081626 0.124430 173 173 173
0.433374 -0.078654 0.124699 173 173 173
0.433809 -0.075711 0.124955 173 173 173
0.434182 -0.072726 0.125229 173 173 173
0.434273 -0.069551 0.125581 173 173 173
0.434256 -0.066300 0.125965 173 173 173
0.434193 -0.063015 0.126361 173 173 173
0.434093 -0.059701 0.126768 174 174 174
0.433769 -0.056232 0.127239 174 174 174
0.433397 -0.052728 0.127724 175 175 175
0.432963 -0.049175 0.128227 174 174 174
0.432275 -0.045447 0.128802 173 173 173
0.431411 -0.041594 0.129427 171 171 171
0.430259 -0.037540 0.130134 172 172 172
0.428865 -0.033315 0.130909 172 172 172
0.427442 -0.029061 0.131694 171 171 171
0.426694 -0.025258 0.132290 171 171 171
0.425944 -0.021447 0.132887 170 170 170
0.425292 -0.017696 0.133457 170 170 170
0.425008 -0.014191 0.133925 169 169 169
0.424733 -0.010687 0.134390 169 169 169
0.424446 -0.007170 0.134858 169 169 169
0.424055 -0.003576 0.135358 169 169 169
0.423663 0.000024 0.135857 169 169 169
0.423302 0.003608 0.136349 169 169 169
0.422815 0.007285 0.136877 168 168 168
0.422339 0.010961 0.137403 168 168 168
0.421909 0.014609 0.137917 168 168 168
0.421627 0.018160 0.138389 168 168 168
0.421345 0.021716 0.138861 169 169 169
0.421056 0.025282 0.139336 169 169 169
0.420677 0.028917 0.139838 169 169 169
0.420311 0.032548 0.140336 169 169 169
0.419964 0.036170 0.140829 169 169 169
0.419771 0.039690 0.141280 169 169 169
0.419578 0.043215 0.141731 169 169 169
0.419353 0.046766 0.142191 170 170 170
0.419319 0.050188 0.142598 170 170 170
0.419225 0.053656 0.143022 170 170 170
0.419132 0.057128 0.143447 170 170 170
0.419247 0.060456 0.143812 170 170 170
0.419417 0.063749 0.144163 171 171 171
0.419578 0.067051 0.144516 171 171 171
0.419533 0.070507 0.144929 171 171 171
0.419658 0.073843 0.145293 172 172 172
0.419783 0.077184 0.145658 172 172 172
0.419849 0.080572 0.146041 173 173 173
0.419293 0.084417 0.146602 173 173 173
0.418703 0.088292 0.147175 174 174 174
0.417666 0.092501 0.147876 174 174 174
0.415520 0.097530 0.148898 175 175 175
0.412884 0.102931 0.150063 175 175 175
0.409699 0.108748 0.151387 177 177 177
0.406151 0.114847 0.152817 177 177 177
0.400806 0.122291 0.154769 177 177 177
0.395776 0.129523 0.156632 179 179 179
0.391009 0.136579 0.158421 181 181 181
0.385081 0.144520 0.160548 182 182 182
0.380471 0.151502 0.162297 182 182 182
0.377943 0.156948 0.163445 182 182 182
0.374552 0.163053 0.164845 183 183 183
0.371076 0.169237 0.166271 187 187 187
0.366151 0.176527 0.168119 184 184 184
0.359967 0.184786 0.170336 186 186 186
0.352206 0.194260 0.173013 190 190 190
0.294180 0.241803 0.190311 172 172 172
0.292174 0.247055 0.191330 173 173 173
0.290184 0.252306 0.192347 173 173 173
0.287758 0.257900 0.193491 174 174 174
0.284444 0.264185 0.194896 177 177 177
0.281238 0.270403 0.196271 179 179 179
0.277219 0.277260 0.197886 183 183 183
0.270177 0.286457 0.200386 188 188 188
0.263964 0.295044 0.202646 188 188 188
0.258777 0.302865 0.204610 188 188 188
0.253635 0.310672 0.206563 189 189 189
0.248557 0.318453 0.208500 191 191 191
-0.041814 -0.441268 0.175481 184 184 184
-0.033844 -0.441331 0.173868 180 180 180
-0.027513 -0.440748 0.172661 180 180 180
-0.022085 -0.439812 0.171676 180 180 180
-0.017369 -0.438598 0.170867 180 180 180
-0.013007 -0.437247 0.170146 180 180 180
-0.008591 -0.435925 0.169410 181 181 181
-0.004018 -0.434674 0.168634 181 181 181
0.042066 -0.450450 0.157516 182 182 182
0.048437 -0.450004 0.156285 177 177 177
0.053485 -0.449024 0.155382 174 174 174
0.060414 -0.448831 0.154009 169 169 169
0.067059 -0.448533 0.152705 166 166 166
0.072273 -0.447653 0.151757 167 167 167
0.076772 -0.446483 0.150986 167 167 167
0.080555 -0.445022 0.150394 168 168 168
0.083759 -0.443323 0.149947 168 168 168
0.086962 -0.441628 0.149498 168 168 168
0.089974 -0.439856 0.149098 168 168 168
0.092310 -0.437802 0.148866 169 169 169
0.094550 -0.435710 0.148658 170 170 170
0.096597 -0.433539 0.148498 170 170 170
0.098637 -0.431365 0.148340 170 170 170
0.100460 -0.429100 0.148236 171 171 171
0.102441 -0.426904 0.148093 171 171 171
0.104501 -0.424743 0.147929 172 172 172
0.106561 -0.422584 0.147765 172 172 172
0.109228 -0.420689 0.147449 172 172 172
0.112428 -0.419029 0.146997 172 172 172
0.115576 -0.417350 0.146558 172 172 172
0.119422 -0.415982 0.145942 172 172 172
0.124718 -0.415253 0.144960 171 171 171
0.129349 -0.414243 0.144145 172 172 172
0.133517 -0.413037 0.143446 171 171 171
0.137393 -0.411708 0.142819 171 171 171
0.141174 -0.410344 0.142216 169 169 169
0.145162 -0.409077 0.141560 168 168 168
0.149245 -0.407859 0.140880 168 168 168
0.152510 -0.406283 0.140405 166 166 166
0.155911 -0.404772 0.139896 165 165 165
0.159222 -0.403225 0.139409 163 163 163
0.162840 -0.401822 0.138843 162 162 162
0.166536 -0.400460 0.138257 161 161 161
0.171080 -0.399487 0.137455 161 161 161
0.174931 -0.398208 0.136828 160 160 160
0.178739 -0.396914 0.136211 158 158 158
0.182277 -0.395504 0.135662 157 157 157
0.184925 -0.393692 0.135340 157 157 157
0.187667 -0.391926 0.134993 157 157 157
0.190413 -0.390165 0.134645 156 156 156
0.192484 -0.388097 0.134468 156 156 156
0.194689 -0.386092 0.134257 155 155 155
0.196893 -0.384088 0.134046 153 153 153
0.199043 -0.382062 0.133848 152 152 152
0.201649 -0.380250 0.133534 150 150 150
0.204365 -0.378493 0.133191 147 147 147
0.207534 -0.376952 0.132733 146 146 146
0.210838 -0.375479 0.132238 146 146 146
0.214190 -0.374033 0.131731 148 148 148
0.217500 -0.372573 0.131234 149 149 149
0.220759 -0.371094 0.130750 150 150 150
0.223936 -0.369580 0.130286 152 152 152
0.226748 -0.367897 0.129915 153 153 153
0.229558 -0.366216 0.129544 153 153 153
0.232465 -0.364586 0.129148 155 155 155
0.234925 -0.362745 0.128867 155 155 155
0.237383 -0.360905 0.128586 156 156 156
0.239840 -0.359068 0.128305 158 158 158
0.241901 -0.357042 0.128125 159 159 159
0.243940 -0.355007 0.127951 159 159 159
0.245979 -0.352974 0.127777 160 160 160
0.247982 -0.350925 0.127612 160 160 160
0.249906 -0.348839 0.127467 160 160 160
0.251839 -0.346758 0.127319 160 160 160
0.253782 -0.344684 0.127169 161 161 161
0.255969 -0.342732 0.126955 161 161 161
0.258124 -0.340767 0.126750 161 161 161
0.260480 -0.338903 0.126492 161 161 161
0.262834 -0.337041 0.126234 161 161 161
0.265275 -0.335225 0.125954 161 161 161
0.267792 -0.333449 0.125653 162 162 162
0.270583 -0.331814 0.125281 162 162 162
0.273411 -0.330202 0.124899 162 162 162
0.276236 -0.328591 0.124517 162 162 162
0.279134 -0.327022 0.124116 162 162 162
0.282033 -0.325457 0.123714 162 162 162
0.284928 -0.323894 0.123313 163 163 163
0.287861 -0.322355 0.122901 163 163 163
0.290719 -0.320781 0.122508 164 164 164
0.293569 -0.319208 0.122117 165 165 165
0.296421 -0.317639 0.121725 166 166 166
0.299122 -0.315996 0.121372 166 166 166
0.301772 -0.314331 0.121032 166 166 166
0.304426 -0.312672 0.120690 167 167 167
0.307082 -0.311016 0.120348 167 167 167
0.309340 -0.309158 0.120109 167 167 167
0.311519 -0.307260 0.119891 168 168 168
0.313283 -0.305148 0.119781 168 168 168
0.315046 -0.303037 0.119672 169 169 169
0.316779 -0.300911 0.119570 169 169 169
0.318436 -0.298745 0.119488 169 169 169
0.319936 -0.296498 0.119447 171 171 171
0.321249 -0.294152 0.119455 171 171 171
0.322561 -0.291806 0.119464 172 172 172
0.323873 -0.289459 0.119473 172 172 172
0.325079 -0.287055 0.119509 172 172 172
0.326275 -0.284647 0.119548 172 172 172
0.327241 -0.282114 0.119648 173 173 173
0.328133 -0.279541 0.119768 173 173 173
0.329026 -0.276966 0.119888 173 173 173
0.330100 -0.274489 0.119959 173 173 173
0.331238 -0.272045 0.120014 173 173 173
0.332607 -0.269727 0.120008 173 173 173
0.333993 -0.267417 0.119998 173 173 173
0.335379 -0.265107 0.119987 173 173 173
0.336764 -0.262798 0.119977 173 173 173
0.338312 -0.260578 0.119923 173 173 173
0.339862 -0.258359 0.119869 173 173 173
0.341373 -0.256119 0.119825 173 173 173
0.343036 -0.253964 0.119741 172 172 172
0.344698 -0.251809 0.119656 172 172 172
0.346359 -0.249655 0.119572 172 172 172
0.348082 -0.247535 0.119472 172 172 172
0.349827 -0.245430 0.119365 171 171 171
0.351722 -0.243409 0.119218 170 170 170
0.353628 -0.241395 0.119069 170 170 170
0.355537 -0.239385 0.118918 169 169 169
0.357739 -0.237542 0.118689 169 169 169
0.360029 -0.235751 0.118436 169 169 169
0.362317 -0.233961 0.118183 169 169 169
0.364603 -0.232173 0.117931 169 169 169
0.367055 -0.230482 0.117633 169 169 169
0.369444 -0.228758 0.117353 169 169 169
0.371789 -0.227011 0.117083 169 169 169
0.374131 -0.225266 0.116814 170 170 170
0.376467 -0.223520 0.116547 171 171 171
0.378819 -0.221787 0.116275 171 171 171
0.381205 -0.220075 0.115993 171 171 171
0.383531 -0.218332 0.115727 171 171 171
0.385805 -0.216562 0.115475 171 171 171
0.388041 -0.214771 0.115233 171 171 171
0.390163 -0.212918 0.115021 171 171 171
0.392280 -0.211063 0.114810 172 172 172
0.394388 -0.209205 0.114602 172 172 172
0.396396 -0.207291 0.114420 173 173 173
0.398318 -0.205328 0.114261 173 173 173
0.400239 -0.203366 0.114102 173 173 173
0.402160 -0.201405 0.113943 174 174 174
0.403990 -0.199393 0.113809 174 174 174
0.405653 -0.197282 0.113719 173 173 173
0.407297 -0.195162 0.113635 173 173 173
0.408942 -0.193043 0.113550 173 173 173
0.410587 -0.190924 0.113465 173 173 173
0.412164 -0.188766 0.113398 173 173 173
0.413508 -0.186468 0.113395 172 172 172
0.415012 -0.184267 0.113348 171 171 171
0.416514 -0.182066 0.113301 171 171 171
0.417875 -0.179779 0.113293 170 170 170
0.419234 -0.177491 0.113285 170 170 170
0.420665 -0.175247 0.113258 169 169 169
0.422084 -0.172995 0.113234 168 168 168
0.423287 -0.170613 0.113269 169 169 169
0.424508 -0.168240 0.113299 168 168 168
0.425741 -0.165875 0.113325 168 168 168
0.426983 -0.163515 0.113350 170 170 170
0.428043 -0.161042 0.113424 169 169 169
0.428743 -0.158346 0.113596 170 170 170
0.429426 -0.155638 0.113774 170 170 170
0.430051 -0.152892 0.113967 170 170 170
0.430677 -0.150144 0.114161 169 169 169
0.431241 -0.147356 0.114371 170 170 170
0.431778 -0.144548 0.114590 170 170 170
0.432217 -0.141676 0.114835 171 171 171
0.432941 -0.138982 0.115003 174 174 174
0.433491 -0.136175 0.115219 172 172 172
0.434138 -0.133428 0.115408 172 172 172
0.434787 -0.130680 0.115597 172 172 172
0.435436 -0.127930 0.115786 172 172 172
0.435905 -0.125064 0.116024 172 172 172
0.435887 -0.121884 0.116398 173 173 173
0.435869 -0.118700 0.116772 174 174 174
0.435852 -0.115513 0.117146 174 174 174
0.435356 -0.112014 0.117653 174 174 174
0.434738 -0.108432 0.118194 174 174 174
0.434054 -0.104801 0.118754 174 174 174
0.433577 -0.101297 0.119258 173 173 173
0.433039 -0.097750 0.119778 173 173 173
0.432477 -0.094180 0.120307 173 173 173
0.432569 -0.091031 0.120654 173 173 173
0.432823 -0.087984 0.120958 173 173 173
0.433077 -0.084933 0.121261 173 173 173
0.433340 -0.081886 0.121563 173 173 173
0.433725 -0.078915 0.121831 173 173 173
0.434160 -0.075974 0.122085 173 173 173
0.434595 -0.073030 0.122340 173 173 173
0.434894 -0.069994 0.122633 172 172 172
0.434868 -0.066739 0.123017 172 172 172
0.434806 -0.063456 0.123411 173 173 173
0.434727 -0.060157 0.123811 173 173 173
0.434353 -0.056657 0.124293 171 171 171
0.433851 -0.053066 0.124812 170 170 170
0.433256 -0.049408 0.125357 170 170 170
0.432295 -0.045497 0.126006 171 171 171
0.431351 -0.041591 0.126650 171 171 171
0.430312 -0.037614 0.127322 173 173 173
0.428919 -0.033390 0.128094 171 171 171
0.427631 -0.029228 0.128837 171 171 171
0.426783 -0.025358 0.129458 170 170 170
0.426036 -0.021550 0.130051 170 170 170
0.425307 -0.017747 0.130641 169 169 169
0.424974 -0.014209 0.131119 169 169 169
0.424683 -0.010695 0.131587 169 169 169
0.424395 -0.007178 0.132054 169 169 169
0.424026 -0.003600 0.132544 169 169 169
0.423632 0.000001 0.133042 169 169 169
0.423232 0.003612 0.133543 169 169 169
0.422814 0.007241 0.134049 169 169 169
0.422356 0.010902 0.134567 169 169 169
0.421898 0.014569 0.135086 169 169 169
0.421605 0.018128 0.135559 169 169 169
0.421323 0.021683 0.136029 169 169 169
0.421040 0.025244 0.136500 169 169 169
0.420683 0.028863 0.136993 169 169 169
0.420304 0.032502 0.137493 169 169 169
0.419926 0.036147 0.137993 169 169 169
0.419683 0.039701 0.138455 170 170 170
0.419447 0.043255 0.138916 170 170 170
0.419212 0.046814 0.139377 170 170 170
0.419128 0.050270 0.139796 170 170 170
0.419105 0.053688 0.140198 170 170 170
0.419081 0.057110 0.140601 170 170 170
0.419143 0.060475 0.140980 170 170 170
0.419353 0.063738 0.141317 170 170 170
0.419563 0.067005 0.141655 171 171 171
0.419770 0.070278 0.141993 171 171 171
0.419909 0.073604 0.142352 171 171 171
0.420047 0.076934 0.142712 172 172 172
0.420179 0.080273 0.143074 172 172 172
0.419763 0.084015 0.143593 172 172 172
0.419111 0.087934 0.144180 173 173 173
0.418468 0.091854 0.144765 173 173 173
0.416396 0.096827 0.145761 173 173 173
0.414241 0.101871 0.146782 174 174 174
0.410831 0.107851 0.148164 175 175 175
0.406830 0.114282 0.149718 175 175 175
0.401343 0.121828 0.151701 175 175 175
0.396624 0.128828 0.153466 177 177 177
0.391984 0.135789 0.155210 178 178 178
0.387191 0.142883 0.157000 178 178 178
0.381617 0.150579 0.159018 180 180 180
0.378975 0.156107 0.160194 180 180 180
0.376765 0.161326 0.161246 180 180 180
0.374055 0.166931 0.162444 182 182 182
0.369580 0.173877 0.164153 183 183 183
0.362195 0.183034 0.166705 183 183 183
0.356544 0.190910 0.168760 185 185 185
0.341402 0.205993 0.173564 185 185 185
0.292182 0.246971 0.188245 173 173 173
0.290295 0.252143 0.189227 173 173 173
0.288105 0.257557 0.190297 174 174 174
0.285321 0.263436 0.191542 176 176 176
0.282443 0.269401 0.192815 179 179 179
0.279201 0.275659 0.194196 181 181 181
0.274465 0.283081 0.196014 185 185 185
0.267600 0.292161 0.198453 188 188 188
0.261990 0.300301 0.200529 186 186 186
0.257586 0.307533 0.202257 187 187 187
0.252562 0.315264 0.204169 188 188 188
0.246415 0.323888 0.206410 191 191 191
-0.046229 -0.442567 0.173202 137 137 137
-0.036969 -0.443135 0.171279 180 180 180
-0.030593 -0.442563 0.170067 180 180 180
-0.024699 -0.441809 0.168973 180 180 180
-0.019932 -0.440610 0.168156 180 180 180
-0.015046 -0.439467 0.167308 181 181 181
-0.010489 -0.438199 0.166541 182 182 182
-0.006077 -0.436879 0.165809 182 182 182
0.035672 -0.450830 0.155823 183 183 183
0.045035 -0.451600 0.153857 175 175 175
0.049962 -0.450564 0.152989 173 173 173
0.054786 -0.449494 0.152146 170 170 170
0.061544 -0.449232 0.150821 167 167 167
0.067679 -0.448725 0.149649 163 163 163
0.072584 -0.447717 0.148782 165 165 165
0.077370 -0.446668 0.147944 166 166 166
0.081179 -0.445219 0.147348 166 166 166
0.084575 -0.443602 0.146855 166 166 166
0.087776 -0.441907 0.146409 166 166 166
0.090301 -0.439932 0.146131 167 167 167
0.092635 -0.437879 0.145901 168 168 168
0.094969 -0.435827 0.145671 169 169 169
0.097148 -0.433712 0.145478 170 170 170
0.099003 -0.431461 0.145367 170 170 170
0.100899 -0.429228 0.145246 172 172 172
0.102959 -0.427067 0.145083 172 172 172
0.105079 -0.424933 0.144905 173 173 173
0.107422 -0.422897 0.144670 174 174 174
0.110417 -0.421146 0.144273 173 173 173
0.113653 -0.419504 0.143814 173 173 173
0.116941 -0.417889 0.143342 173 173 173
0.121777 -0.416954 0.142480 173 173 173
0.126573 -0.416011 0.141628 172 172 172
0.130823 -0.414836 0.140911 172 172 172
0.134686 -0.413497 0.140292 171 171 171
0.138321 -0.412064 0.139729 169 169 169
0.142233 -0.410760 0.139095 168 168 168
0.146209 -0.409490 0.138445 168 168 168
0.149793 -0.408051 0.137893 167 167 167
0.152985 -0.406443 0.137439 165 165 165
0.156385 -0.404933 0.136932 164 164 164
0.159396 -0.403253 0.136523 161 161 161
0.163182 -0.401926 0.135918 161 161 161
0.167017 -0.400627 0.135299 159 159 159
0.171018 -0.399410 0.134638 158 158 158
0.174827 -0.398112 0.134024 157 157 157
0.178629 -0.396816 0.133412 156 156 156
0.181719 -0.395202 0.132979 155 155 155
0.184367 -0.393390 0.132658 155 155 155
0.187058 -0.391600 0.132326 155 155 155
0.189645 -0.389766 0.132019 155 155 155
0.191574 -0.387631 0.131880 155 155 155
0.193668 -0.385574 0.131698 154 154 154
0.195873 -0.383570 0.131488 153 153 153
0.198076 -0.381568 0.131278 152 152 152
0.200774 -0.379798 0.130942 149 149 149
0.203540 -0.378064 0.130588 146 146 146
0.206457 -0.376404 0.130195 144 144 144
0.209769 -0.374934 0.129701 144 144 144
0.213123 -0.373488 0.129196 146 146 146
0.216470 -0.372045 0.128692 148 148 148
0.219723 -0.370562 0.128211 149 149 149
0.222927 -0.369060 0.127743 151 151 151
0.225934 -0.367469 0.127324 152 152 152
0.228762 -0.365797 0.126951 153 153 153
0.231891 -0.364273 0.126500 155 155 155
0.234499 -0.362503 0.126182 156 156 156
0.236957 -0.360663 0.125902 156 156 156
0.239444 -0.358840 0.125614 161 161 161
0.241798 -0.356956 0.125360 159 159 159
0.243811 -0.354909 0.125194 159 159 159
0.245823 -0.352863 0.125027 160 160 160
0.247838 -0.350820 0.124860 160 160 160
0.249781 -0.348743 0.124711 160 160 160
0.251692 -0.346653 0.124569 160 160 160
0.253605 -0.344564 0.124427 160 160 160
0.255622 -0.342529 0.124259 161 161 161
0.257861 -0.340605 0.124032 161 161 161
0.260217 -0.338741 0.123776 161 161 161
0.262571 -0.336879 0.123519 161 161 161
0.264966 -0.335040 0.123252 161 161 161
0.267608 -0.333327 0.122921 162 162 162
0.270440 -0.331713 0.122540 161 161 161
0.273215 -0.330074 0.122173 161 161 161
0.275959 -0.328423 0.121814 161 161 161
0.278912 -0.326882 0.121400 162 162 162
0.281810 -0.325317 0.121000 162 162 162
0.284704 -0.323754 0.120601 162 162 162
0.287926 -0.322362 0.120116 163 163 163
0.290917 -0.320857 0.119690 164 164 164
0.293820 -0.319311 0.119287 165 165 165
0.296700 -0.317758 0.118890 166 166 166
0.299397 -0.316114 0.118539 166 166 166
0.302094 -0.314474 0.118188 166 166 166
0.304788 -0.312836 0.117838 167 167 167
0.307249 -0.311081 0.117548 167 167 167
0.309555 -0.309248 0.117297 167 167 167
0.311798 -0.307385 0.117063 168 168 168
0.313650 -0.305319 0.116931 168 168 168
0.315432 -0.303218 0.116817 168 168 168
0.317088 -0.301053 0.116736 169 169 169
0.318744 -0.298888 0.116654 169 169 169
0.320313 -0.296678 0.116595 169 169 169
0.321709 -0.294377 0.116582 171 171 171
0.323021 -0.292032 0.116590 171 171 171
0.324242 -0.289638 0.116623 171 171 171
0.325442 -0.287232 0.116661 171 171 171
0.326642 -0.284827 0.116698 172 172 172
0.327768 -0.282381 0.116756 174 174 174
0.328661 -0.279809 0.116874 173 173 173
0.329610 -0.277266 0.116979 173 173 173
0.330692 -0.274795 0.117048 173 173 173
0.331924 -0.272403 0.117078 173 173 173
0.333215 -0.270043 0.117092 173 173 173
0.334600 -0.267735 0.117081 173 173 173
0.335985 -0.265426 0.117071 173 173 173
0.337437 -0.263154 0.117043 173 173 173
0.339008 -0.260948 0.116983 173 173 173
0.340515 -0.258707 0.116940 173 173 173
0.342085 -0.256501 0.116881 173 173 173
0.343683 -0.254312 0.116814 172 172 172
0.345344 -0.252158 0.116730 172 172 172
0.347038 -0.250023 0.116638 172 172 172
0.348786 -0.247919 0.116531 171 171 171
0.350529 -0.245814 0.116425 171 171 171
0.352274 -0.243711 0.116319 171 171 171
0.354179 -0.241698 0.116170 170 170 170
0.356168 -0.239734 0.115998 170 170 170
0.358313 -0.237860 0.115785 170 170 170
0.360457 -0.235988 0.115572 170 170 170
0.362599 -0.234117 0.115359 170 170 170
0.364715 -0.232233 0.115153 170 170 170
0.367288 -0.230611 0.114825 170 170 170
0.369891 -0.229010 0.114488 169 169 169
0.372322 -0.227314 0.114197 169 169 169
0.374677 -0.225577 0.113926 170 170 170
0.377033 -0.223844 0.113654 170 170 170
0.379420 -0.222132 0.113374 170 170 170
0.381804 -0.220421 0.113094 170 170 170
0.384111 -0.218668 0.112834 170 170 170
0.386348 -0.216878 0.112593 170 170 170
0.388583 -0.215088 0.112352 171 171 171
0.390816 -0.213300 0.112111 171 171 171
0.392966 -0.211466 0.111892 171 171 171
0.395023 -0.209580 0.111698 172 172 172
0.397056 -0.207682 0.111510 172 172 172
0.398978 -0.205720 0.111352 173 173 173
0.400897 -0.203759 0.111194 173 173 173
0.402832 -0.201809 0.111032 173 173 173
0.404591 -0.199755 0.110917 172 172 172
0.406265 -0.197653 0.110825 172 172 172
0.407935 -0.195549 0.110733 172 172 172
0.409605 -0.193446 0.110642 172 172 172
0.411240 -0.191323 0.110560 172 172 172
0.412589 -0.189030 0.110555 171 171 171
0.413919 -0.186725 0.110555 170 170 170
0.415225 -0.184406 0.110562 170 170 170
0.416572 -0.182111 0.110557 170 170 170
0.417919 -0.179816 0.110553 169 169 169
0.419293 -0.177538 0.110541 169 169 169
0.420755 -0.175313 0.110506 168 168 168
0.422218 -0.173089 0.110470 167 167 167
0.423508 -0.170760 0.110481 166 166 166
0.424711 -0.168378 0.110515 166 166 166
0.425915 -0.165996 0.110550 167 167 167
0.427038 -0.163564 0.110606 167 167 167
0.427969 -0.161012 0.110715 165 165 165
0.428764 -0.158375 0.110861 165 165 165
0.429448 -0.155668 0.111037 166 166 166
0.430132 -0.152959 0.111213 167 167 167
0.430817 -0.150249 0.111390 167 167 167
0.431455 -0.147508 0.111579 168 168 168
0.431943 -0.144670 0.111810 168 168 168
0.432426 -0.141827 0.112042 169 169 169
0.432956 -0.139011 0.112262 169 169 169
0.433570 -0.136245 0.112459 170 170 170
0.434140 -0.133450 0.112668 170 170 170
0.434710 -0.130653 0.112878 170 170 170
0.435281 -0.127853 0.113087 170 170 170
0.436083 -0.125199 0.113234 170 170 170
0.436248 -0.122137 0.113555 170 170 170
0.436318 -0.119010 0.113903 171 171 171
0.436387 -0.115880 0.114252 171 171 171
0.436231 -0.112601 0.114662 171 171 171
0.435552 -0.108981 0.115218 172 172 172
0.434872 -0.105354 0.115774 172 172 172
0.434406 -0.101860 0.116272 172 172 172
0.433792 -0.098265 0.116811 173 173 173
0.433223 -0.094693 0.117339 172 172 172
0.432940 -0.091301 0.117788 172 172 172
0.433207 -0.088263 0.118086 172 172 172
0.433474 -0.085223 0.118385 172 172 172
0.433731 -0.082172 0.118687 172 172 172
0.434076 -0.079176 0.118964 172 172 172
0.434511 -0.076236 0.119217 172 172 172
0.434946 -0.073293 0.119471 172 172 172
0.435381 -0.070348 0.119724 171 171 171
0.435424 -0.067140 0.120087 172 172 172
0.435145 -0.063714 0.120540 169 169 169
0.434865 -0.060283 0.120993 169 169 169
0.434432 -0.056744 0.121490 169 169 169
0.433832 -0.053089 0.122033 169 169 169
0.433254 -0.049442 0.122571 169 169 169
0.432357 -0.045575 0.123199 170 170 170
0.431291 -0.041588 0.123874 170 170 170
0.430346 -0.037674 0.124517 171 171 171
0.428973 -0.033465 0.125279 170 170 170
0.427815 -0.029393 0.125983 170 170 170
0.426871 -0.025458 0.126627 170 170 170
0.426137 -0.021659 0.127214 169 169 169
0.425408 -0.017857 0.127801 169 169 169
0.424954 -0.014237 0.128311 169 169 169
0.424671 -0.010730 0.128774 169 169 169
0.424389 -0.007217 0.129237 169 169 169
0.423989 -0.003618 0.129734 169 169 169
0.423595 -0.000017 0.130229 169 169 169
0.423182 0.003602 0.130731 169 169 169
0.422778 0.007220 0.131231 169 169 169
0.422374 0.010843 0.131732 170 170 170
0.421916 0.014510 0.132248 170 170 170
0.421582 0.018096 0.132730 169 169 169
0.421301 0.021651 0.133198 169 169 169
0.421018 0.025211 0.133667 169 169 169
0.420689 0.028809 0.134149 169 169 169
0.420304 0.032452 0.134648 170 170 170
0.419910 0.036107 0.135150 170 170 170
0.419591 0.039714 0.135632 171 171 171
0.419345 0.043275 0.136093 171 171 171
0.419209 0.046763 0.136525 171 171 171
0.419125 0.050219 0.136941 171 171 171
0.419196 0.053569 0.137315 171 171 171
0.419267 0.056922 0.137689 171 171 171
0.419276 0.060325 0.138081 170 170 170
0.419482 0.063590 0.138418 170 170 170
0.419689 0.066858 0.138754 171 171 171
0.419899 0.070128 0.139091 171 171 171
0.420062 0.073435 0.139441 171 171 171
0.420173 0.076784 0.139807 172 172 172
0.420257 0.080157 0.140180 172 172 172
0.420100 0.083710 0.140623 172 172 172
0.419449 0.087627 0.141207 172 172 172
0.418812 0.091541 0.141788 173 173 173
0.417279 0.096118 0.142625 173 173 173
0.414958 0.101282 0.143688 173 173 173
0.411548 0.107260 0.145064 174 174 174
0.407078 0.114035 0.146745 175 175 175
0.401860 0.121381 0.148641 174 174 174
0.397044 0.128451 0.150426 175 175 175
0.392020 0.135695 0.152271 174 174 174
0.387615 0.142500 0.153942 178 178 178
0.383506 0.149103 0.155531 178 178 178
0.379925 0.155328 0.156969 179 179 179
0.377999 0.160332 0.157935 177 177 177
0.375530 0.165753 0.159057 179 179 179
0.372282 0.171773 0.160406 182 182 182
0.364722 0.181057 0.162996 182 182 182
0.358277 0.189529 0.165269 183 183 183
0.350386 0.199119 0.167962 188 188 188
0.292191 0.246888 0.185161 174 174 174
0.290353 0.252021 0.186123 173 173 173
0.288216 0.257393 0.187174 175 175 175
0.286236 0.262658 0.188180 176 176 176
0.283462 0.268541 0.189417 178 178 178
0.281228 0.274024 0.190500 180 180 180
0.277118 0.280960 0.192127 182 182 182
0.271082 0.289398 0.194314 186 186 186
0.265234 0.297715 0.196450 185 185 185
0.260346 0.305314 0.198309 186 186 186
0.256305 0.312278 0.199926 187 187 187
0.251491 0.319861 0.201769 188 188 188
0.238419 0.333889 0.206014 144 144 144
-0.040492 -0.444782 0.168785 183 183 183
-0.033908 -0.444287 0.167528 181 181 181
-0.027484 -0.443738 0.166309 181 181 181
-0.022555 -0.442600 0.165457 180 180 180
-0.017349 -0.441582 0.164535 181 181 181
-0.012123 -0.440580 0.163607 183 183 183
-0.007799 -0.439221 0.162901 183 183 183
-0.001462 -0.438690 0.161698 183 183 183
0.039769 -0.452437 0.151885 174 174 174
0.045553 -0.451744 0.150810 170 170 170
0.050715 -0.450806 0.149888 168 168 168
0.056013 -0.449933 0.148931 166 166 166
0.062208 -0.449440 0.147752 162 162 162
0.067993 -0.448789 0.146672 159 159 159
0.072895 -0.447781 0.145810 162 162 162
0.077525 -0.446669 0.145014 165 165 165
0.081095 -0.445119 0.144480 165 165 165
0.084658 -0.443573 0.143947 165 165 165
0.088224 -0.442033 0.143413 166 166 166
0.090574 -0.439985 0.143180 166 166 166
0.092892 -0.437925 0.142955 167 167 167
0.095223 -0.435874 0.142726 168 168 168
0.097480 -0.433792 0.142515 170 170 170
0.099357 -0.431551 0.142399 172 172 172
0.101499 -0.429425 0.142216 172 172 172
0.103707 -0.427329 0.142017 174 174 174
0.105945 -0.425247 0.141810 175 175 175
0.108569 -0.423334 0.141507 174 174 174
0.111409 -0.421518 0.141149 174 174 174
0.114681 -0.419893 0.140684 175 175 175
0.119102 -0.418773 0.139930 174 174 174
0.123908 -0.417829 0.139080 173 173 173
0.128322 -0.416721 0.138327 173 173 173
0.132137 -0.415358 0.137723 171 171 171
0.135579 -0.413836 0.137211 168 168 168
0.139382 -0.412479 0.136608 168 168 168
0.143292 -0.411175 0.135978 168 168 168
0.147256 -0.409902 0.135334 167 167 167
0.150279 -0.408216 0.134925 166 166 166
0.153460 -0.406604 0.134476 164 164 164
0.156760 -0.405050 0.133996 162 162 162
0.159359 -0.403185 0.133692 161 161 161
0.162702 -0.401659 0.133201 160 160 160
0.166774 -0.400468 0.132525 158 158 158
0.170566 -0.399156 0.131920 156 156 156
0.174718 -0.398014 0.131223 154 154 154
0.178499 -0.396710 0.130618 153 153 153
0.181160 -0.394900 0.130296 153 153 153
0.183810 -0.393087 0.129976 153 153 153
0.186456 -0.391277 0.129656 154 154 154
0.188842 -0.389350 0.129402 153 153 153
0.190772 -0.387215 0.129263 153 153 153
0.192701 -0.385081 0.129124 153 153 153
0.194852 -0.383052 0.128928 152 152 152
0.197069 -0.381055 0.128716 151 151 151
0.199840 -0.379319 0.128363 148 148 148
0.202623 -0.377592 0.128007 147 147 147
0.205416 -0.375873 0.127647 146 146 146
0.208710 -0.374394 0.127160 146 146 146
0.212061 -0.372946 0.126658 146 146 146
0.215408 -0.371502 0.126157 147 147 147
0.218687 -0.370030 0.125672 148 148 148
0.221892 -0.368528 0.125205 150 150 150
0.225093 -0.367029 0.124739 152 152 152
0.228005 -0.365397 0.124346 153 153 153
0.231135 -0.363872 0.123897 155 155 155
0.234073 -0.362260 0.123496 156 156 156
0.236532 -0.360421 0.123218 153 153 153
0.239049 -0.358613 0.122924 158 158 158
0.241591 -0.356820 0.122623 159 159 159
0.243723 -0.354831 0.122427 159 159 159
0.245735 -0.352785 0.122261 160 160 160
0.247767 -0.350751 0.122090 160 160 160
0.249765 -0.348702 0.121927 161 161 161
0.251676 -0.346611 0.121787 161 161 161
0.253586 -0.344522 0.121646 161 161 161
0.255537 -0.342454 0.121495 162 162 162
0.257809 -0.340547 0.121261 162 162 162
0.260092 -0.338648 0.121024 161 161 161
0.262374 -0.336750 0.120788 161 161 161
0.264659 -0.334857 0.120550 161 161 161
0.267388 -0.333188 0.120197 161 161 161
0.270132 -0.331529 0.119841 161 161 161
0.272872 -0.329873 0.119485 161 161 161
0.275685 -0.328257 0.119110 161 161 161
0.278642 -0.326718 0.118697 162 162 162
0.281586 -0.325176 0.118287 162 162 162
0.284480 -0.323613 0.117889 162 162 162
0.287884 -0.322315 0.117360 163 163 163
0.291066 -0.320908 0.116887 164 164 164
0.293968 -0.319362 0.116486 165 165 165
0.297193 -0.317986 0.116001 165 165 165
0.299887 -0.316342 0.115652 166 166 166
0.302527 -0.314674 0.115318 166 166 166
0.305138 -0.312994 0.114990 166 166 166
0.307416 -0.311145 0.114749 167 167 167
0.309722 -0.309312 0.114500 167 167 167
0.312025 -0.307481 0.114251 167 167 167
0.314016 -0.305490 0.114083 168 168 168
0.315741 -0.303360 0.113984 168 168 168
0.317396 -0.301195 0.113903 168 168 168
0.319051 -0.299030 0.113822 168 168 168
0.320689 -0.296858 0.113746 169 169 169
0.322128 -0.294581 0.113721 170 170 170
0.323406 -0.292218 0.113738 171 171 171
0.324606 -0.289814 0.113776 171 171 171
0.325805 -0.287409 0.113814 171 171 171
0.327005 -0.285004 0.113851 171 171 171
0.328181 -0.282587 0.113895 172 172 172
0.329187 -0.280077 0.113983 173 173 173
0.330200 -0.277570 0.114070 173 173 173
0.331340 -0.275130 0.114124 173 173 173
0.332609 -0.272760 0.114144 173 173 173
0.333878 -0.270390 0.114163 173 173 173
0.335206 -0.268052 0.114168 173 173 173
0.336591 -0.265744 0.114157 173 173 173
0.338146 -0.263531 0.114102 173 173 173
0.339674 -0.261302 0.114054 173 173 173
0.341181 -0.259062 0.114011 173 173 173
0.342748 -0.256857 0.113953 173 173 173
0.344330 -0.254660 0.113890 172 172 172
0.345995 -0.252509 0.113806 172 172 172
0.347745 -0.250407 0.113698 172 172 172
0.349487 -0.248302 0.113593 172 172 172
0.351229 -0.246197 0.113488 171 171 171
0.352971 -0.244093 0.113383 171 171 171
0.354744 -0.242008 0.113269 171 171 171
0.356818 -0.240094 0.113076 171 171 171
0.358885 -0.238177 0.112885 171 171 171
0.360950 -0.236261 0.112693 171 171 171
0.363014 -0.234347 0.112502 170 170 170
0.365248 -0.232532 0.112265 170 170 170
0.367751 -0.230871 0.111957 170 170 170
