ply
format ascii 1.0
element vertex 1211
property float x
property float y
property float z
property uchar red
property uchar green
property uchar blue
end_header
0.320118 0.246494 0.070086 157 157 157
0.317316 0.249690 0.071182 156 156 156
0.314665 0.252877 0.072219 155 155 155
0.312526 0.256022 0.073056 152 152 152
0.310602 0.259151 0.073809 150 150 150
0.308818 0.262270 0.074507 149 149 149
0.307137 0.265383 0.075164 149 149 149
0.305474 0.268498 0.075815 149 149 149
0.303806 0.271616 0.076467 149 149 149
0.302255 0.274727 0.077074 149 149 149
0.300829 0.277828 0.077632 149 149 149
0.299363 0.280937 0.078205 149 149 149
0.297880 0.284050 0.078786 149 149 149
0.296320 0.287175 0.079396 149 149 149
0.294758 0.290304 0.080007 149 149 149
0.293197 0.293436 0.080618 149 149 149
0.291680 0.296566 0.081211 149 149 149
0.290167 0.299699 0.081803 149 149 149
0.288665 0.302835 0.082391 149 149 149
0.287297 0.305959 0.082926 150 150 150
0.285972 0.309080 0.083444 152 152 152
0.284643 0.312205 0.083964 155 155 155
0.282693 0.315406 0.084727 158 158 158
0.280816 0.318602 0.085461 160 160 160
0.279058 0.321788 0.086149 162 162 162
0.276718 0.325047 0.087065 164 164 164
0.274271 0.328325 0.088022 165 165 165
0.272137 0.331569 0.088856 167 167 167
0.269317 0.334903 0.089960 170 170 170
0.266516 0.338241 0.091055 172 172 172
0.262446 0.341743 0.092648 175 175 175
0.256658 0.345472 0.094912 177 177 177
0.250114 0.349310 0.097472 179 179 179
0.242827 0.353257 0.100323 175 175 175
0.235396 0.357239 0.103230 168 168 168
0.229522 0.361034 0.105528 165 165 165
0.224134 0.364777 0.107635 157 157 157
0.219899 0.368380 0.109292 154 154 154
0.215478 0.372016 0.111022 151 151 151
0.212228 0.375505 0.112293 148 148 148
0.209899 0.378875 0.113204 149 149 149
0.207565 0.382250 0.114117 150 150 150
0.205818 0.385550 0.114800 150 150 150
0.204045 0.388857 0.115494 152 152 152
0.202197 0.392178 0.116217 153 153 153
0.200199 0.395525 0.116999 156 156 156
0.198413 0.398846 0.117697 158 158 158
0.196751 0.402153 0.118347 159 159 159
0.194698 0.405521 0.119151 162 162 162
0.192391 0.408930 0.120053 166 166 166
0.189806 0.412384 0.121064 170 170 170
0.186394 0.415968 0.122399 171 171 171
0.181981 0.419708 0.124125 174 174 174
0.174830 0.423869 0.126923 182 182 182
0.142366 0.431882 0.139623 190 190 190
0.121747 0.438158 0.147689 172 172 172
0.087305 -0.440056 0.157742 181 181 181
0.094011 -0.435859 0.155127 181 181 181
0.098145 -0.432061 0.153514 178 178 178
0.101790 -0.428344 0.152093 177 177 177
0.105325 -0.424651 0.150714 179 179 179
0.108815 -0.420972 0.149353 183 183 183
0.136984 -0.413726 0.138366 188 188 188
0.152134 -0.408413 0.132457 177 177 177
0.158899 -0.404330 0.129819 166 166 166
0.166540 -0.400138 0.126839 165 165 165
0.175574 -0.395767 0.123315 157 157 157
0.180918 -0.391930 0.121231 153 153 153
0.185737 -0.388178 0.119351 153 153 153
0.188751 -0.384683 0.118176 155 155 155
0.192235 -0.381132 0.116817 158 158 158
0.197445 -0.377355 0.114785 160 160 160
0.204171 -0.373386 0.112162 163 163 163
0.215119 -0.368872 0.107892 172 172 172
0.229864 -0.363881 0.102141 171 171 171
0.236314 -0.360006 0.099625 170 170 170
0.241372 -0.356326 0.097653 169 169 169
0.245055 -0.352833 0.096216 171 171 171
0.249060 -0.349308 0.094654 170 170 170
0.253255 -0.345767 0.093018 171 171 171
0.257948 -0.342173 0.091188 172 172 172
0.263847 -0.338440 0.088887 173 173 173
0.269633 -0.334733 0.086630 175 175 175
0.279483 -0.330545 0.082788 175 175 175
0.288580 -0.326468 0.079240 172 172 172
0.293831 -0.322872 0.077192 168 168 168
0.297729 -0.319448 0.075672 166 166 166
0.300992 -0.316107 0.074399 163 163 163
0.303341 -0.312879 0.073483 161 161 161
0.305685 -0.309658 0.072569 160 160 160
0.308000 -0.306444 0.071666 159 159 159
0.310306 -0.303237 0.070767 158 158 158
0.312420 -0.300056 0.069942 158 158 158
0.314576 -0.296875 0.069101 157 157 157
0.316685 -0.293704 0.068279 158 158 158
0.318735 -0.290544 0.067479 157 157 157
0.320895 -0.287377 0.066637 158 158 158
0.323660 -0.284150 0.065558 158 158 158
0.326688 -0.280902 0.064377 159 159 159
0.329756 -0.277656 0.063181 160 160 160
0.333739 -0.274322 0.061628 161 161 161
0.337743 -0.270995 0.060066 162 162 162
0.341621 -0.267690 0.058553 164 164 164
0.345565 -0.264386 0.057015 164 164 164
0.348917 -0.261149 0.055707 164 164 164
0.352157 -0.257931 0.054444 164 164 164
0.355362 -0.254723 0.053194 164 164 164
0.358468 -0.251532 0.051983 164 164 164
0.361329 -0.248371 0.050867 163 163 163
0.364030 -0.245231 0.049813 163 163 163
0.366445 -0.242123 0.048871 162 162 162
0.368856 -0.239021 0.047931 161 161 161
0.370907 -0.235956 0.047131 161 161 161
0.372351 -0.232950 0.046568 161 161 161
0.373782 -0.229949 0.046010 161 161 161
0.375185 -0.226953 0.045463 160 160 160
0.376493 -0.223968 0.044952 160 160 160
0.377502 -0.221011 0.044559 159 159 159
0.378591 -0.218050 0.044134 159 159 159
0.379703 -0.215089 0.043701 159 159 159
0.380947 -0.212120 0.043215 159 159 159
0.382223 -0.209151 0.042718 158 158 158
0.383768 -0.206164 0.042115 159 159 159
0.385474 -0.203168 0.041450 158 158 158
0.387179 -0.200175 0.040785 158 158 158
0.388708 -0.197200 0.040188 159 159 159
0.390299 -0.194223 0.039568 162 162 162
0.391706 -0.191263 0.039019 163 163 163
0.393103 -0.188307 0.038474 163 163 163
0.394499 -0.185354 0.037930 163 163 163
0.395770 -0.182413 0.037434 164 164 164
0.397016 -0.179477 0.036948 165 165 165
0.398305 -0.176540 0.036445 165 165 165
0.399593 -0.173606 0.035943 166 166 166
0.400880 -0.170675 0.035441 166 166 166
0.402371 -0.167734 0.034859 168 168 168
0.404137 -0.164779 0.034171 169 169 169
0.405952 -0.161824 0.033463 170 170 170
0.407766 -0.158873 0.032755 170 170 170
0.410096 -0.155896 0.031847 171 171 171
0.411875 -0.152956 0.031153 171 171 171
0.413624 -0.150021 0.030471 171 171 171
0.415371 -0.147091 0.029789 171 171 171
0.417211 -0.144159 0.029071 170 170 170
0.418512 -0.141261 0.028564 170 170 170
0.419448 -0.138385 0.028199 171 171 171
0.420395 -0.135511 0.027830 171 171 171
0.421364 -0.132638 0.027452 171 171 171
0.422429 -0.129762 0.027037 171 171 171
0.423104 -0.126907 0.026773 170 170 170
0.423502 -0.124068 0.026618 170 170 170
0.423899 -0.121229 0.026463 170 170 170
0.424297 -0.118391 0.026308 169 169 169
0.424644 -0.115557 0.026172 169 169 169
0.424982 -0.112723 0.026041 169 169 169
0.425328 -0.109890 0.025906 169 169 169
0.425673 -0.107058 0.025771 170 170 170
0.425992 -0.104228 0.025647 169 169 169
0.426078 -0.101407 0.025613 168 168 168
0.426151 -0.098587 0.025585 167 167 167
0.426218 -0.095768 0.025559 166 166 166
0.426283 -0.092948 0.025533 166 166 166
0.426323 -0.090130 0.025518 165 165 165
0.426363 -0.087312 0.025502 165 165 165
0.426473 -0.084492 0.025459 164 164 164
0.426629 -0.081670 0.025398 164 164 164
0.426732 -0.078850 0.025358 164 164 164
0.426815 -0.076032 0.025326 164 164 164
0.426983 -0.073211 0.025260 164 164 164
0.427267 -0.070387 0.025149 164 164 164
0.427397 -0.067568 0.025099 164 164 164
0.427534 -0.064749 0.025046 164 164 164
0.427670 -0.061930 0.024992 163 163 163
0.427807 -0.059111 0.024939 163 163 163
0.427987 -0.056292 0.024869 163 163 163
0.428202 -0.053473 0.024785 163 163 163
0.428418 -0.050654 0.024701 163 163 163
0.428632 -0.047835 0.024617 164 164 164
0.428790 -0.045018 0.024556 164 164 164
0.428843 -0.042203 0.024535 163 163 163
0.428892 -0.039389 0.024516 163 163 163
0.428929 -0.036574 0.024501 162 162 162
0.428907 -0.033761 0.024510 162 162 162
0.428669 -0.030949 0.024603 162 162 162
0.428379 -0.028138 0.024716 162 162 162
0.428089 -0.025327 0.024829 162 162 162
0.427828 -0.022514 0.024931 162 162 162
0.427493 -0.019702 0.025062 162 162 162
0.427074 -0.016889 0.025225 162 162 162
0.426653 -0.014075 0.025389 161 161 161
0.426223 -0.011261 0.025557 161 161 161
0.425735 -0.008445 0.025747 161 161 161
0.425248 -0.005629 0.025937 161 161 161
0.424745 -0.002812 0.026133 161 161 161
0.424200 0.000007 0.026346 161 161 161
0.423620 0.002827 0.026572 160 160 160
0.423059 0.005648 0.026791 160 160 160
0.422515 0.008470 0.027003 159 159 159
0.422084 0.011293 0.027171 159 159 159
0.421720 0.014116 0.027313 159 159 159
0.421218 0.016941 0.027509 158 158 158
0.420715 0.019767 0.027705 158 158 158
0.420265 0.022594 0.027880 158 158 158
0.419857 0.025422 0.028040 157 157 157
0.419458 0.028250 0.028196 157 157 157
0.419102 0.031079 0.028334 157 157 157
0.418823 0.033907 0.028443 157 157 157
0.418591 0.036735 0.028534 157 157 157
0.418358 0.039564 0.028624 157 157 157
0.418201 0.042392 0.028686 157 157 157
0.418187 0.045218 0.028691 157 157 157
0.418262 0.048043 0.028662 157 157 157
0.418298 0.050867 0.028648 156 156 156
0.418321 0.053693 0.028639 156 156 156
0.418393 0.056517 0.028611 156 156 156
0.418430 0.059341 0.028596 156 156 156
0.418370 0.062168 0.028620 156 156 156
0.418310 0.064995 0.028643 156 156 156
0.418197 0.067824 0.028687 156 156 156
0.418003 0.070655 0.028763 156 156 156
0.417805 0.073486 0.028840 156 156 156
0.417605 0.076318 0.028918 155 155 155
0.417356 0.079152 0.029015 155 155 155
0.417101 0.081987 0.029115 155 155 155
0.416845 0.084822 0.029215 155 155 155
0.416555 0.087659 0.029328 155 155 155
0.416026 0.090506 0.029534 154 154 154
0.415177 0.093364 0.029865 154 154 154
0.414328 0.096225 0.030196 154 154 154
0.413621 0.099082 0.030472 154 154 154
0.412288 0.101966 0.030992 153 153 153
0.410667 0.104864 0.031624 153 153 153
0.409047 0.107765 0.032256 153 153 153
0.407388 0.110672 0.032903 153 153 153
0.405601 0.113588 0.033600 153 153 153
0.403687 0.116514 0.034347 153 153 153
0.401782 0.119443 0.035089 153 153 153
0.399296 0.122404 0.036059 153 153 153
0.396819 0.125370 0.037025 153 153 153
0.394522 0.128333 0.037921 153 153 153
0.392583 0.131282 0.038678 152 152 152
0.390709 0.134233 0.039408 152 152 152
0.388835 0.137187 0.040139 151 151 151
0.387178 0.140134 0.040786 152 152 152
0.385534 0.143084 0.041426 152 152 152
0.383505 0.146060 0.042218 153 153 153
0.381369 0.149045 0.043051 153 153 153
0.379180 0.152039 0.043905 154 154 154
0.376903 0.155042 0.044793 154 154 154
0.374654 0.158049 0.045670 155 155 155
0.373047 0.161021 0.046297 155 155 155
0.371439 0.163997 0.046924 155 155 155
0.369828 0.166977 0.047552 155 155 155
0.368439 0.169945 0.048094 156 156 156
0.367092 0.172914 0.048619 156 156 156
0.365627 0.175894 0.049191 158 158 158
0.364039 0.178886 0.049810 159 159 159
0.362456 0.181880 0.050427 160 160 160
0.360877 0.184878 0.051044 161 161 161
0.359583 0.187859 0.051548 162 162 162
0.358081 0.190858 0.052134 163 163 163
0.356578 0.193860 0.052720 163 163 163
0.355057 0.196867 0.053313 164 164 164
0.353169 0.199905 0.054050 165 165 165
0.351290 0.202946 0.054783 165 165 165
0.349407 0.205992 0.055517 166 166 166
0.347441 0.209049 0.056284 167 167 167
0.345667 0.212094 0.056976 167 167 167
0.343963 0.215138 0.057641 167 167 167
0.342138 0.218195 0.058352 167 167 167
0.340035 0.221280 0.059172 166 166 166
0.338302 0.224338 0.059848 166 166 166
0.336817 0.227379 0.060428 166 166 166
0.334611 0.230485 0.061288 166 166 166
0.332013 0.233630 0.062301 165 165 165
0.329313 0.236791 0.063354 164 164 164
0.325951 0.240017 0.064665 161 161 161
0.322991 0.243213 0.065820 159 159 159
0.319718 0.246445 0.067096 156 156 156
0.316769 0.249654 0.068247 155 155 155
0.313815 0.252870 0.069399 153 153 153
0.311537 0.256028 0.070287 152 152 152
0.309580 0.259160 0.071051 149 149 149
0.307747 0.262283 0.071765 149 149 149
0.306027 0.265400 0.072436 148 148 148
0.304400 0.268512 0.073071 148 148 148
0.302731 0.271631 0.073722 148 148 148
0.301116 0.274748 0.074352 148 148 148
0.299710 0.277847 0.074900 148 148 148
0.298301 0.280950 0.075450 148 148 148
0.296847 0.284061 0.076017 148 148 148
0.295292 0.287185 0.076623 148 148 148
0.293728 0.290314 0.077233 148 148 148
0.292135 0.293449 0.077855 148 148 148
0.290668 0.296574 0.078427 149 149 149
0.289166 0.299706 0.079013 149 149 149
0.287662 0.302842 0.079599 149 149 149
0.286249 0.305971 0.080150 150 150 150
0.284922 0.309093 0.080668 152 152 152
0.283592 0.312218 0.081187 156 156 156
0.282223 0.315351 0.081720 157 157 157
0.280475 0.318531 0.082402 158 158 158
0.278725 0.321715 0.083085 160 160 160
0.277003 0.324900 0.083757 162 162 162
0.274815 0.328145 0.084610 163 163 163
0.272549 0.331404 0.085494 165 165 165
0.270121 0.334688 0.086441 167 167 167
0.267230 0.338035 0.087568 170 170 170
0.264592 0.341356 0.088597 172 172 172
0.260100 0.344918 0.090349 174 174 174
0.254204 0.348668 0.092649 177 177 177
0.246824 0.352621 0.095527 174 174 174
0.237276 0.356871 0.099251 172 172 172
0.230164 0.360824 0.102025 167 167 167
0.224323 0.364626 0.104303 161 161 161
0.219314 0.368330 0.106256 154 154 154
0.214708 0.371990 0.108053 152 152 152
0.211320 0.375497 0.109374 150 150 150
0.209071 0.378856 0.110252 151 151 151
0.206736 0.382231 0.111162 152 152 152
0.204810 0.385555 0.111913 153 153 153
0.203191 0.388841 0.112545 153 153 153
0.201542 0.392134 0.113188 154 154 154
0.199655 0.395465 0.113924 156 156 156
0.197987 0.398769 0.114575 157 157 157
0.196281 0.402081 0.115240 159 159 159
0.194325 0.405434 0.116003 161 161 161
0.192232 0.408811 0.116819 163 163 163
0.189985 0.412215 0.117696 166 166 166
0.187068 0.415723 0.118833 168 168 168
0.183978 0.419264 0.120038 169 169 169
0.179641 0.422999 0.121730 173 173 173
0.171234 0.427360 0.125009 178 178 178
0.126597 0.437267 0.142418 175 175 175
0.079821 -0.444233 0.157235 135 135 135
0.091402 -0.439283 0.152732 180 180 180
0.095549 -0.435477 0.151119 179 179 179
0.099363 -0.431729 0.149636 178 178 178
0.102651 -0.428067 0.148358 178 178 178
0.106477 -0.424334 0.146870 182 182 182
0.114452 -0.420004 0.143769 191 191 191
0.140667 -0.413049 0.133575 176 176 176
0.153654 -0.408053 0.128525 174 174 174
0.158948 -0.404183 0.126467 165 165 165
0.164921 -0.400229 0.124144 162 162 162
0.172379 -0.396079 0.121244 157 157 157
0.178271 -0.392163 0.118953 153 153 153
0.183446 -0.388360 0.116941 150 150 150
0.187477 -0.384725 0.115374 156 156 156
0.191026 -0.381164 0.113993 159 159 159
0.196238 -0.377387 0.111967 162 162 162
0.203453 -0.373353 0.109161 167 167 167
0.215622 -0.368677 0.104429 177 177 177
0.229765 -0.363768 0.098930 172 172 172
0.236756 -0.359824 0.096211 173 173 173
0.241690 -0.356161 0.094293 171 171 171
0.245517 -0.352652 0.092805 171 171 171
0.249718 -0.349103 0.091171 171 171 171
0.253893 -0.345566 0.089548 172 172 172
0.258959 -0.341928 0.087578 172 172 172
0.264182 -0.338281 0.085547 174 174 174
0.270315 -0.334534 0.083162 177 177 177
0.281614 -0.330170 0.078769 175 175 175
0.290009 -0.326183 0.075504 172 172 172
0.294035 -0.322736 0.073939 168 168 168
0.297941 -0.319312 0.072420 166 166 166
0.300521 -0.316053 0.071417 163 163 163
0.302469 -0.312872 0.070659 161 161 161
0.304814 -0.309650 0.069747 161 161 161
0.307132 -0.306437 0.068846 159 159 159
0.309438 -0.303230 0.067949 158 158 158
0.311634 -0.300040 0.067095 158 158 158
0.313840 -0.296854 0.066237 158 158 158
0.315901 -0.293688 0.065436 158 158 158
0.317951 -0.290529 0.064639 158 158 158
0.319998 -0.287374 0.063843 157 157 157
0.322787 -0.284145 0.062759 158 158 158
0.325816 -0.280896 0.061581 159 159 159
0.328852 -0.277654 0.060400 159 159 159
0.332934 -0.274310 0.058813 161 161 161
0.337003 -0.270977 0.057231 161 161 161
0.341139 -0.267645 0.055622 163 163 163
0.345214 -0.264329 0.054038 164 164 164
0.348612 -0.261089 0.052717 164 164 164
0.351858 -0.257871 0.051455 164 164 164
0.355066 -0.254664 0.050207 164 164 164
0.358027 -0.251487 0.049055 164 164 164
0.360920 -0.248323 0.047931 163 163 163
0.363621 -0.245184 0.046881 163 163 163
0.365935 -0.242086 0.045981 162 162 162
0.368245 -0.238994 0.045082 162 162 162
0.370184 -0.235940 0.044328 162 162 162
0.371558 -0.232940 0.043794 161 161 161
0.372947 -0.229942 0.043254 161 161 161
0.374346 -0.226947 0.042710 161 161 161
0.375743 -0.223954 0.042167 160 160 160
0.376877 -0.220987 0.041726 160 160 160
0.377977 -0.218025 0.041298 160 160 160
0.379177 -0.215058 0.040832 159 159 159
0.380421 -0.212089 0.040348 159 159 159
0.381602 -0.209129 0.039889 159 159 159
0.383286 -0.206131 0.039234 160 160 160
0.384992 -0.203135 0.038570 159 159 159
0.386697 -0.200143 0.037907 160 160 160
0.388400 -0.197154 0.037245 161 161 161
0.390050 -0.194174 0.036604 163 163 163
0.391442 -0.191216 0.036062 163 163 163
0.392840 -0.188261 0.035519 163 163 163
0.394236 -0.185309 0.034976 164 164 164
0.395586 -0.182363 0.034451 165 165 165
0.396895 -0.179423 0.033942 165 165 165
0.398218 -0.176485 0.033428 165 165 165
0.399538 -0.173550 0.032914 166 166 166
0.400898 -0.170615 0.032386 166 166 166
0.402568 -0.167663 0.031736 168 168 168
0.404315 -0.164710 0.031057 169 169 169
0.406130 -0.161757 0.030351 169 169 169
0.408008 -0.158803 0.029621 170 170 170
0.410369 -0.155825 0.028703 170 170 170
0.412232 -0.152881 0.027978 170 170 170
0.413980 -0.149948 0.027298 170 170 170
0.415726 -0.147020 0.026620 172 172 172
0.417376 -0.144100 0.025978 169 169 169
0.418828 -0.141194 0.025413 169 169 169
0.419855 -0.138315 0.025014 170 170 170
0.420846 -0.135440 0.024629 170 170 170
0.421840 -0.132567 0.024242 170 170 170
0.422791 -0.129698 0.023873 169 169 169
0.423398 -0.126849 0.023636 168 168 168
0.423812 -0.124010 0.023475 168 168 168
0.424227 -0.121172 0.023314 168 168 168
0.424641 -0.118334 0.023153 168 168 168
0.425048 -0.115498 0.022995 169 169 169
0.425282 -0.112671 0.022904 168 168 168
0.425515 -0.109844 0.022813 167 167 167
0.425749 -0.107018 0.022722 166 166 166
0.425863 -0.104197 0.022678 165 165 165
0.425829 -0.101382 0.022691 166 166 166
0.425916 -0.098562 0.022657 165 165 165
0.426004 -0.095742 0.022623 165 165 165
0.426071 -0.092924 0.022597 164 164 164
0.426119 -0.090106 0.022578 164 164 164
0.426169 -0.087288 0.022559 163 163 163
0.426325 -0.084467 0.022498 163 163 163
0.426481 -0.081646 0.022438 163 163 163
0.426607 -0.078827 0.022389 163 163 163
0.426705 -0.076009 0.022351 163 163 163
0.426887 -0.073188 0.022280 163 163 163
0.426997 -0.070370 0.022237 163 163 163
0.427113 -0.067552 0.022192 163 163 163
0.427244 -0.064733 0.022141 162 162 162
0.427375 -0.061915 0.022090 162 162 162
0.427508 -0.059098 0.022038 162 162 162
0.427653 -0.056280 0.021982 162 162 162
0.427840 -0.053462 0.021909 162 162 162
0.428067 -0.050643 0.021821 162 162 162
0.428292 -0.047825 0.021734 162 162 162
0.428507 -0.045008 0.021650 163 163 163
0.428557 -0.042193 0.021631 162 162 162
0.428594 -0.039380 0.021616 162 162 162
0.428631 -0.036566 0.021602 162 162 162
0.428668 -0.033752 0.021587 162 162 162
0.428460 -0.030941 0.021668 161 161 161
0.428171 -0.028131 0.021781 161 161 161
0.427881 -0.025320 0.021893 162 162 162
0.427539 -0.022509 0.022026 162 162 162
0.427127 -0.019698 0.022186 162 162 162
0.426685 -0.016886 0.022358 161 161 161
0.426243 -0.014073 0.022530 161 161 161
0.425917 -0.011258 0.022657 162 162 162
0.425448 -0.008443 0.022840 161 161 161
0.424960 -0.005628 0.023029 161 161 161
0.424440 -0.002811 0.023231 161 161 161
0.423914 0.000007 0.023436 162 162 162
0.423334 0.002826 0.023661 161 161 161
0.422754 0.005646 0.023887 161 161 161
0.422173 0.008468 0.024113 161 161 161
0.421651 0.011291 0.024316 160 160 160
0.421195 0.014114 0.024493 160 160 160
0.420688 0.016939 0.024690 160 160 160
0.420174 0.019765 0.024890 160 160 160
0.419683 0.022592 0.025081 159 159 159
0.419326 0.025418 0.025220 159 159 159
0.418974 0.028246 0.025357 158 158 158
0.418622 0.031074 0.025494 158 158 158
0.418301 0.033902 0.025619 158 158 158
0.418068 0.036730 0.025709 158 158 158
0.417872 0.039558 0.025785 158 158 158
0.417715 0.042386 0.025846 158 158 158
0.417620 0.045212 0.025883 157 157 157
0.417681 0.048037 0.025860 157 157 157
0.417704 0.050862 0.025851 157 157 157
0.417727 0.053686 0.025842 157 157 157
0.417765 0.056511 0.025827 156 156 156
0.417710 0.059337 0.025849 156 156 156
0.417676 0.062163 0.025862 156 156 156
0.417641 0.064989 0.025875 156 156 156
0.417497 0.067819 0.025931 156 156 156
0.417304 0.070649 0.026006 156 156 156
0.417107 0.073481 0.026083 156 156 156
0.416883 0.076313 0.026170 155 155 155
0.416639 0.079147 0.026265 155 155 155
0.416383 0.081981 0.026365 155 155 155
0.416110 0.084817 0.026471 155 155 155
0.415817 0.087654 0.026584 154 154 154
0.415467 0.090494 0.026721 154 154 154
0.414618 0.093352 0.027051 154 154 154
0.413769 0.096213 0.027381 154 154 154
0.412919 0.099075 0.027712 154 154 154
0.411740 0.101952 0.028170 153 153 153
0.410132 0.104849 0.028795 153 153 153
0.408523 0.107750 0.029421 153 153 153
0.406910 0.110654 0.030048 153 153 153
0.405120 0.113570 0.030744 153 153 153
0.403183 0.116496 0.031497 154 154 154
0.401279 0.119425 0.032238 154 154 154
0.398897 0.122380 0.033164 153 153 153
0.396402 0.125347 0.034134 153 153 153
0.393903 0.128319 0.035106 152 152 152
0.391776 0.131278 0.035933 152 152 152
0.389931 0.134226 0.036650 152 152 152
0.388084 0.137179 0.037368 152 152 152
0.386333 0.140131 0.038050 152 152 152
0.384670 0.143082 0.038696 152 152 152
0.382702 0.146054 0.039461 152 152 152
0.380557 0.149040 0.040295 153 153 153
0.378368 0.152033 0.041147 153 153 153
0.376174 0.155032 0.042000 154 154 154
0.373977 0.158035 0.042854 154 154 154
0.372332 0.161009 0.043494 154 154 154
0.370822 0.163979 0.044081 155 155 155
0.369310 0.166952 0.044669 155 155 155
0.367880 0.169923 0.045225 156 156 156
0.366527 0.172892 0.045751 156 156 156
0.365030 0.175873 0.046333 158 158 158
0.363531 0.178858 0.046916 158 158 158
0.362068 0.181844 0.047485 159 159 159
0.360518 0.184839 0.048088 160 160 160
0.359234 0.187819 0.048587 161 161 161
0.357794 0.190813 0.049147 162 162 162
0.356255 0.193817 0.049745 163 163 163
0.354736 0.196823 0.050336 163 163 163
0.353346 0.199822 0.050876 164 164 164
0.351664 0.202847 0.051531 164 164 164
0.349783 0.205892 0.052262 164 164 164
0.347878 0.208942 0.053003 165 165 165
0.346062 0.211989 0.053709 166 166 166
0.344332 0.215033 0.054381 166 166 166
0.342326 0.218104 0.055161 165 165 165
0.340477 0.221167 0.055881 165 165 165
0.338732 0.224224 0.056559 165 165 165
0.336968 0.227287 0.057245 165 165 165
0.334540 0.230411 0.058189 165 165 165
0.331917 0.233558 0.059209 164 164 164
0.329289 0.236711 0.060231 163 163 163
0.326074 0.239922 0.061481 161 161 161
0.322764 0.243150 0.062768 159 159 159
0.319318 0.246397 0.064108 155 155 155
0.316369 0.249605 0.065255 154 154 154
0.313256 0.252835 0.066465 153 153 153
0.310421 0.256045 0.067568 152 152 152
0.308428 0.259181 0.068342 150 150 150
0.306610 0.262304 0.069050 149 149 149
0.304843 0.265425 0.069737 148 148 148
0.303246 0.268534 0.070358 148 148 148
0.301647 0.271646 0.070979 148 148 148
0.299984 0.274768 0.071626 148 148 148
0.298569 0.277869 0.072176 148 148 148
0.297160 0.280971 0.072724 148 148 148
0.295757 0.284077 0.073270 148 148 148
0.294211 0.287200 0.073871 148 148 148
0.292620 0.290332 0.074490 148 148 148
0.291026 0.293468 0.075109 149 149 149
0.289525 0.296597 0.075693 149 149 149
0.288119 0.299718 0.076240 149 149 149
0.286659 0.302849 0.076807 149 149 149
0.285199 0.305983 0.077375 150 150 150
0.283872 0.309105 0.077891 153 153 153
0.282631 0.312221 0.078374 152 152 152
0.281410 0.315336 0.078848 152 152 152
0.279801 0.318500 0.079474 155 155 155
0.278069 0.321681 0.080148 158 158 158
0.276354 0.324865 0.080815 160 160 160
0.274757 0.328038 0.081436 162 162 162
0.272960 0.331239 0.082134 163 163 163
0.270691 0.334502 0.083016 165 165 165
0.267942 0.337829 0.084085 168 168 168
0.265307 0.341149 0.085110 170 170 170
0.262887 0.344446 0.086051 169 169 169
0.257066 0.348182 0.088315 172 172 172
0.250715 0.351999 0.090784 174 174 174
0.241317 0.356224 0.094439 175 175 175
0.232169 0.360438 0.097996 169 169 169
0.224536 0.364471 0.100964 164 164 164
0.218718 0.368281 0.103226 156 156 156
0.214169 0.371933 0.104995 153 153 153
0.210276 0.375507 0.106509 152 152 152
0.208091 0.378858 0.107359 153 153 153
0.205901 0.382213 0.108210 154 154 154
0.203802 0.385561 0.109026 155 155 155
0.202182 0.388847 0.109656 155 155 155
0.200752 0.392109 0.110212 156 156 156
0.199250 0.395385 0.110796 156 156 156
0.197454 0.398706 0.111495 157 157 157
0.195748 0.402018 0.112158 159 159 159
0.193938 0.405349 0.112862 160 160 160
0.191854 0.408724 0.113672 162 162 162
0.189848 0.412092 0.114452 164 164 164
0.187412 0.415528 0.115399 166 166 166
0.184340 0.419065 0.116594 167 167 167
0.181318 0.422600 0.117769 168 168 168
0.175812 0.426518 0.119910 177 177 177
0.164399 0.431350 0.124348 175 175 175
0.106514 0.443344 0.146856 119 119 119
0.084441 -0.443374 0.152020 180 180 180
0.092389 -0.438982 0.148939 177 177 177
0.096768 -0.435143 0.147241 178 178 178
0.100247 -0.431447 0.145893 177 177 177
0.103805 -0.427748 0.144513 181 181 181
0.108839 -0.423840 0.142562 186 186 186
0.134184 -0.416979 0.132736 186 186 186
0.142796 -0.412598 0.129398 177 177 177
0.151834 -0.408173 0.125894 171 171 171
0.157942 -0.404186 0.123526 167 167 167
0.163467 -0.400296 0.121384 162 162 162
0.169719 -0.396315 0.118960 160 160 160
0.176016 -0.392341 0.116519 158 158 158
0.181309 -0.388521 0.114467 153 153 153
0.186670 -0.384702 0.112389 160 160 160
0.190501 -0.381103 0.110904 163 163 163
0.196101 -0.377274 0.108733 164 164 164
0.205183 -0.372992 0.105212 174 174 174
0.217559 -0.368292 0.100414 179 179 179
0.230113 -0.363596 0.095547 175 175 175
0.237163 -0.359646 0.092814 175 175 175
0.242008 -0.355997 0.090936 172 172 172
0.246102 -0.352454 0.089349 171 171 171
0.250375 -0.348898 0.087693 172 172 172
0.254882 -0.345322 0.085945 172 172 172
0.259502 -0.341741 0.084154 174 174 174
0.264507 -0.338123 0.082214 175 175 175
0.271715 -0.334246 0.079420 177 177 177
0.283181 -0.329865 0.074974 175 175 175
0.290481 -0.326013 0.072144 171 171 171
0.294234 -0.322600 0.070690 168 168 168
0.297908 -0.319205 0.069265 166 166 166
0.300171 -0.315984 0.068388 163 163 163
0.302149 -0.312801 0.067621 162 162 162
0.304000 -0.309637 0.066903 161 161 161
0.306265 -0.306429 0.066026 160 160 160
0.308571 -0.303222 0.065131 159 159 159
0.310863 -0.300022 0.064243 158 158 158
0.313079 -0.296835 0.063384 158 158 158
0.315127 -0.293671 0.062590 158 158 158
0.317173 -0.290512 0.061797 159 159 159
0.319215 -0.287358 0.061005 159 159 159
0.321839 -0.284147 0.059988 159 159 159
0.324867 -0.280899 0.058814 159 159 159
0.328016 -0.277645 0.057593 160 160 160
0.332088 -0.274302 0.056015 161 161 161
0.336162 -0.270968 0.054435 163 163 163
0.340871 -0.267579 0.052610 164 164 164
0.344982 -0.264261 0.051016 164 164 164
0.348561 -0.261003 0.049629 165 165 165
0.351806 -0.257786 0.048371 165 165 165
0.354987 -0.254583 0.047137 164 164 164
0.357824 -0.251419 0.046038 164 164 164
0.360706 -0.248257 0.044920 164 164 164
0.363558 -0.245105 0.043815 163 163 163
0.365904 -0.242005 0.042905 163 163 163
0.368214 -0.238914 0.042010 163 163 163
0.370023 -0.235872 0.041308 162 162 162
0.371415 -0.232872 0.040769 162 162 162
0.372788 -0.229877 0.040237 161 161 161
0.374158 -0.226884 0.039705 161 161 161
0.375263 -0.223918 0.039277 161 161 161
0.376262 -0.220962 0.038890 160 160 160
0.377406 -0.217997 0.038446 160 160 160
0.378652 -0.215026 0.037963 160 160 160
0.379895 -0.212058 0.037481 160 160 160
0.380981 -0.209106 0.037060 160 160 160
0.382804 -0.206097 0.036354 161 161 161
0.384532 -0.203100 0.035684 161 161 161
0.386291 -0.200104 0.035002 161 161 161
0.388043 -0.197113 0.034323 162 162 162
0.389820 -0.194124 0.033634 163 163 163
0.391242 -0.191164 0.033082 163 163 163
0.392663 -0.188208 0.032531 163 163 163
0.394083 -0.185255 0.031981 164 164 164
0.395561 -0.182301 0.031408 164 164 164
0.396921 -0.179359 0.030881 165 165 165
0.398243 -0.176422 0.030368 165 165 165
0.399563 -0.173488 0.029857 165 165 165
0.401041 -0.170546 0.029284 166 166 166
0.402775 -0.167592 0.028612 167 167 167
0.404493 -0.164642 0.027945 168 168 168
0.406308 -0.161690 0.027242 169 169 169
0.408549 -0.158715 0.026373 169 169 169
0.410585 -0.155758 0.025584 169 169 169
0.412589 -0.152807 0.024807 170 170 170
0.414336 -0.149876 0.024130 170 170 170
0.416074 -0.146949 0.023456 168 168 168
0.417526 -0.144041 0.022893 169 169 169
0.418977 -0.141137 0.022330 168 168 168
0.420249 -0.138246 0.021837 169 169 169
0.421296 -0.135370 0.021432 169 169 169
0.422230 -0.132501 0.021069 168 168 168
0.422925 -0.129647 0.020800 167 167 167
0.423598 -0.126795 0.020539 165 165 165
0.423974 -0.123959 0.020393 165 165 165
0.424306 -0.121126 0.020264 166 166 166
0.424639 -0.118293 0.020136 166 166 166
0.424971 -0.115462 0.020007 166 166 166
0.425241 -0.112634 0.019902 166 166 166
0.425475 -0.109808 0.019812 165 165 165
0.425556 -0.106989 0.019780 164 164 164
0.425586 -0.104172 0.019768 164 164 164
0.425581 -0.101356 0.019770 164 164 164
0.425661 -0.098538 0.019739 164 164 164
0.425761 -0.095718 0.019701 163 163 163
0.425858 -0.092899 0.019663 163 163 163
0.425916 -0.090082 0.019641 163 163 163
0.426021 -0.087263 0.019600 162 162 162
0.426178 -0.084443 0.019539 162 162 162
0.426334 -0.081623 0.019478 163 163 163
0.426438 -0.078805 0.019438 162 162 162
0.426450 -0.075990 0.019433 162 162 162
0.426604 -0.073171 0.019374 162 162 162
0.426707 -0.070353 0.019334 162 162 162
0.426812 -0.067536 0.019293 162 162 162
0.426943 -0.064719 0.019242 161 161 161
0.427074 -0.061901 0.019192 161 161 161
0.427217 -0.059084 0.019136 161 161 161
0.427370 -0.056267 0.019077 161 161 161
0.427488 -0.053451 0.019031 161 161 161
0.427686 -0.050633 0.018954 161 161 161
0.427913 -0.047816 0.018866 161 161 161
0.428127 -0.044999 0.018783 161 161 161
0.428228 -0.042184 0.018744 161 161 161
0.428272 -0.039371 0.018727 161 161 161
0.428316 -0.036558 0.018710 161 161 161
0.428353 -0.033744 0.018696 161 161 161
0.428151 -0.030934 0.018774 161 161 161
0.427765 -0.028126 0.018924 161 161 161
0.427378 -0.025316 0.019074 161 161 161
0.427060 -0.022505 0.019197 161 161 161
0.426717 -0.019694 0.019330 162 162 162
0.426275 -0.016882 0.019501 161 161 161
0.425881 -0.014070 0.019654 161 161 161
0.425567 -0.011256 0.019776 162 162 162
0.425160 -0.008441 0.019934 162 162 162
0.424662 -0.005626 0.020127 161 161 161
0.424136 -0.002810 0.020331 162 162 162
0.423609 0.000007 0.020535 162 162 162
0.423048 0.002825 0.020752 162 162 162
0.422468 0.005645 0.020977 162 162 162
0.421937 0.008466 0.021183 161 161 161
0.421371 0.011288 0.021402 161 161 161
0.420868 0.014111 0.021598 160 160 160
0.420348 0.016935 0.021799 160 160 160
0.419819 0.019761 0.022004 160 160 160
0.419290 0.022587 0.022209 160 160 160
0.418878 0.025414 0.022369 159 159 159
0.418491 0.028241 0.022519 159 159 159
0.418139 0.031069 0.022656 158 158 158
0.417786 0.033897 0.022792 158 158 158
0.417546 0.036725 0.022886 158 158 158
0.417387 0.039552 0.022947 158 158 158
0.417230 0.042379 0.023008 158 158 158
0.417072 0.045206 0.023069 158 158 158
0.417085 0.048031 0.023064 158 158 158
0.417104 0.050856 0.023057 157 157 157
0.417124 0.053680 0.023049 157 157 157
0.417143 0.056505 0.023042 157 157 157
0.417119 0.059330 0.023051 157 157 157
0.417085 0.062156 0.023064 157 157 157
0.416961 0.064984 0.023112 156 156 156
0.416792 0.067814 0.023178 156 156 156
0.416605 0.070644 0.023250 156 156 156
0.416403 0.073475 0.023328 156 156 156
0.416160 0.076308 0.023423 155 155 155
0.415917 0.079142 0.023517 155 155 155
0.415664 0.081976 0.023615 155 155 155
0.415373 0.084812 0.023728 155 155 155
0.415080 0.087649 0.023842 154 154 154
0.414785 0.090486 0.023956 154 154 154
0.413984 0.093343 0.024266 154 154 154
0.413065 0.096205 0.024623 154 154 154
0.412145 0.099070 0.024979 154 154 154
0.411159 0.101939 0.025361 153 153 153
0.409590 0.104835 0.025970 153 153 153
0.407998 0.107734 0.026587 153 153 153
0.406386 0.110638 0.027212 153 153 153
0.404633 0.113552 0.027891 153 153 153
0.402696 0.116477 0.028642 154 154 154
0.400757 0.119407 0.029394 154 154 154
0.398498 0.122357 0.030270 153 153 153
0.396021 0.125322 0.031230 152 152 152
0.393482 0.128295 0.032214 152 152 152
0.391111 0.131266 0.033134 152 152 152
0.389187 0.134218 0.033879 152 152 152
0.387333 0.137171 0.034598 152 152 152
0.385487 0.140128 0.035314 151 151 151
0.383797 0.143080 0.035969 152 152 152
0.381900 0.146048 0.036705 152 152 152
0.379744 0.149035 0.037540 153 153 153
0.377565 0.152027 0.038385 153 153 153
0.375537 0.155016 0.039171 154 154 154
0.373505 0.158009 0.039959 154 154 154
0.371794 0.160987 0.040622 155 155 155
0.370314 0.163954 0.041196 155 155 155
0.368803 0.166926 0.041782 155 155 155
0.367321 0.169900 0.042356 156 156 156
0.365930 0.172871 0.042895 157 157 157
0.364424 0.175853 0.043480 157 157 157
0.362906 0.178839 0.044068 157 157 157
0.361502 0.181820 0.044612 158 158 158
0.360141 0.184802 0.045140 158 158 158
0.358801 0.187785 0.045659 160 160 160
0.357373 0.190777 0.046213 161 161 161
0.355812 0.193782 0.046818 162 162 162
0.354464 0.196775 0.047341 162 162 162
0.353193 0.199765 0.047833 163 163 163
0.351632 0.202779 0.048438 163 163 163
0.350068 0.205798 0.049045 163 163 163
0.348274 0.208838 0.049740 164 164 164
0.346457 0.211884 0.050445 164 164 164
0.344500 0.214945 0.051204 164 164 164
0.342459 0.218018 0.051995 163 163 163
0.340496 0.221088 0.052756 163 163 163
0.338545 0.224162 0.053512 163 163 163
0.336681 0.227232 0.054235 163 163 163
0.334547 0.230331 0.055062 163 163 163
0.331855 0.233482 0.056105 163 163 163
0.329194 0.236637 0.057137 162 162 162
0.326196 0.239828 0.058299 160 160 160
0.322722 0.243069 0.059646 158 158 158
0.319048 0.246336 0.061071 155 155 155
0.315582 0.249592 0.062414 154 154 154
0.312408 0.252827 0.063645 153 153 153
0.309317 0.256062 0.064843 152 152 152
0.307276 0.259202 0.065634 150 150 150
0.305409 0.262330 0.066358 149 149 149
0.303668 0.265449 0.067033 148 148 148
0.302060 0.268559 0.067656 148 148 148
0.300460 0.271671 0.068276 148 148 148
0.298873 0.274786 0.068892 148 148 148
0.297443 0.277888 0.069446 148 148 148
0.296041 0.280991 0.069989 148 148 148
0.294638 0.284096 0.070534 149 149 149
0.293138 0.287215 0.071115 149 149 149
0.291521 0.290350 0.071742 149 149 149
0.289917 0.293486 0.072364 149 149 149
0.288371 0.296621 0.072963 149 149 149
0.286964 0.299743 0.073509 149 149 149
0.285556 0.302868 0.074055 149 149 149
0.284159 0.305995 0.074596 150 150 150
0.282935 0.309105 0.075071 150 150 150
0.281711 0.312218 0.075545 151 151 151
0.280487 0.315334 0.076019 152 152 152
0.279035 0.318479 0.076582 154 154 154
0.277422 0.321646 0.077208 156 156 156
0.275701 0.324830 0.077875 158 158 158
0.274114 0.328002 0.078490 161 161 161
0.272508 0.331179 0.079113 162 162 162
0.270901 0.334360 0.079736 163 163 163
0.268656 0.337624 0.080606 165 165 165
0.266082 0.340933 0.081604 166 166 166
0.263453 0.344255 0.082623 167 167 167
0.259805 0.347713 0.084038 171 171 171
0.253585 0.351509 0.086449 172 172 172
0.245686 0.355535 0.089511 175 175 175
0.234154 0.360054 0.093982 173 173 173
0.225464 0.364223 0.097350 166 166 166
0.218148 0.368229 0.100187 157 157 157
0.213660 0.371873 0.101926 155 155 155
0.209303 0.375509 0.103616 155 155 155
0.207046 0.378868 0.104490 156 156 156
0.204962 0.382209 0.105298 157 157 157
0.203149 0.385518 0.106001 156 156 156
0.201762 0.388770 0.106539 156 156 156
0.200374 0.392026 0.107077 157 157 157
0.198985 0.395286 0.107616 157 157 157
0.197135 0.398613 0.108333 158 158 158
0.195222 0.401954 0.109074 158 158 158
0.193507 0.405271 0.109739 160 160 160
0.191476 0.408638 0.110527 163 163 163
0.189451 0.412008 0.111312 162 162 162
0.187459 0.415377 0.112084 162 162 162
0.184909 0.418834 0.113072 164 164 164
0.181906 0.422365 0.114237 167 167 167
0.177491 0.426116 0.115948 174 174 174
0.172167 0.430016 0.118012 177 177 177
0.106813 0.443145 0.143348 100 100 100
0.087473 -0.442759 0.147433 177 177 177
0.093214 -0.438705 0.145213 177 177 177
0.097735 -0.434846 0.143466 177 177 177
0.101153 -0.431163 0.142145 180 180 180
0.105723 -0.427316 0.140379 185 185 185
0.112177 -0.423202 0.137884 191 191 191
0.136927 -0.416435 0.128319 178 178 178
0.144474 -0.412212 0.125402 175 175 175
0.151155 -0.408129 0.122820 171 171 171
0.156655 -0.404230 0.120694 167 167 167
0.162128 -0.400346 0.118579 162 162 162
0.166884 -0.396575 0.116740 163 163 163
0.173666 -0.392533 0.114119 161 161 161
0.179181 -0.388680 0.111988 158 158 158
0.185025 -0.384794 0.109729 162 162 162
0.190025 -0.381036 0.107796 166 166 166
0.198010 -0.376886 0.104710 170 170 170
0.208425 -0.372429 0.100685 177 177 177
0.222533 -0.367504 0.095232 177 177 177
0.231899 -0.363235 0.091612 177 177 177
0.237872 -0.359429 0.089304 175 175 175
0.242682 -0.355786 0.087444 174 174 174
0.247149 -0.352198 0.085718 174 174 174
0.251420 -0.348644 0.084067 174 174 174
0.256011 -0.345060 0.082293 175 175 175
0.260515 -0.341496 0.080552 175 175 175
0.265577 -0.337873 0.078596 177 177 177
0.273557 -0.333903 0.075511 178 178 178
0.284617 -0.329576 0.071237 174 174 174
0.290664 -0.325878 0.068900 171 171 171
0.294415 -0.322467 0.067450 169 169 169
0.297412 -0.319153 0.066292 167 167 167
0.299630 -0.315938 0.065434 165 165 165
0.301721 -0.312742 0.064626 163 163 163
0.303520 -0.309585 0.063931 162 162 162
0.305513 -0.306409 0.063161 161 161 161
0.307702 -0.303215 0.062315 161 161 161
0.309974 -0.300017 0.061436 160 160 160
0.312232 -0.296826 0.060564 160 160 160
0.314417 -0.293647 0.059719 159 159 159
0.316462 -0.290489 0.058929 160 160 160
0.318508 -0.287335 0.058138 160 160 160
0.320882 -0.284150 0.057221 159 159 159
0.323911 -0.280902 0.056050 160 160 160
0.327178 -0.277636 0.054787 161 161 161
0.331242 -0.274294 0.053217 162 162 162
0.335334 -0.270959 0.051635 163 163 163
0.340295 -0.267545 0.049718 164 164 164
0.344835 -0.264184 0.047963 164 164 164
0.348510 -0.260918 0.046543 165 165 165
0.351850 -0.257693 0.045252 165 165 165
0.354803 -0.254512 0.044110 165 165 165
0.357639 -0.251350 0.043014 164 164 164
0.360575 -0.248184 0.041879 164 164 164
0.363439 -0.245031 0.040773 164 164 164
0.365874 -0.241924 0.039831 163 163 163
0.368051 -0.238846 0.038990 163 163 163
0.369747 -0.235815 0.038334 163 163 163
0.371272 -0.232804 0.037745 162 162 162
0.372644 -0.229809 0.037215 162 162 162
0.373739 -0.226842 0.036792 162 162 162
0.374718 -0.223887 0.036413 161 161 161
0.375647 -0.220938 0.036054 161 161 161
0.376881 -0.217966 0.035577 161 161 161
0.378163 -0.214992 0.035082 161 161 161
0.379446 -0.212021 0.034586 161 161 161
0.380812 -0.209047 0.034058 161 161 161
0.382449 -0.206054 0.033425 161 161 161
0.384205 -0.203055 0.032746 161 161 161
0.385959 -0.200060 0.032069 162 162 162
0.387754 -0.197067 0.031375 163 163 163
0.389557 -0.194076 0.030678 163 163 163
0.391105 -0.191108 0.030080 163 163 163
0.392525 -0.188153 0.029531 163 163 163
0.393946 -0.185201 0.028982 164 164 164
0.395483 -0.182244 0.028388 164 164 164
0.396947 -0.179295 0.027822 165 165 165
0.398268 -0.176359 0.027311 165 165 165
0.399571 -0.173427 0.026808 165 165 165
0.401203 -0.170477 0.026177 166 166 166
0.402945 -0.167523 0.025504 167 167 167
0.404672 -0.164573 0.024836 168 168 168
0.406588 -0.161616 0.024096 168 168 168
0.408766 -0.158647 0.023254 168 168 168
0.410801 -0.155691 0.022467 169 169 169
0.412833 -0.152740 0.021682 169 169 169
0.414695 -0.149803 0.020962 168 168 168
0.416224 -0.146889 0.020372 168 168 168
0.417676 -0.143983 0.019810 168 168 168
0.419126 -0.141080 0.019250 168 168 168
0.420483 -0.138186 0.018726 168 168 168
0.421462 -0.135314 0.018347 167 167 167
0.422036 -0.132465 0.018125 167 167 167
0.422608 -0.129618 0.017904 165 165 165
0.423252 -0.126768 0.017655 164 164 164
0.423788 -0.123925 0.017448 164 164 164
0.424155 -0.121091 0.017306 164 164 164
0.424521 -0.118258 0.017165 164 164 164
0.424888 -0.115426 0.017023 164 164 164
0.425200 -0.112596 0.016902 164 164 164
0.425248 -0.109779 0.016884 163 163 163
0.425279 -0.106963 0.016872 163 163 163
0.425309 -0.104147 0.016860 163 163 163
0.425332 -0.101331 0.016851 163 163 163
0.425405 -0.098513 0.016823 162 162 162
0.425505 -0.095695 0.016784 162 162 162
0.425605 -0.092876 0.016746 162 162 162
0.425660 -0.090060 0.016724 161 161 161
0.425730 -0.087243 0.016697 161 161 161
0.425799 -0.084426 0.016671 161 161 161
0.425868 -0.081609 0.016644 160 160 160
0.425941 -0.078793 0.016616 160 160 160
0.425981 -0.075977 0.016600 160 160 160
0.426162 -0.073158 0.016531 160 160 160
0.426411 -0.070337 0.016434 161 161 161
0.426520 -0.067520 0.016392 160 160 160
0.426641 -0.064704 0.016345 160 160 160
0.426774 -0.061887 0.016294 160 160 160
0.426926 -0.059070 0.016235 160 160 160
0.427078 -0.056254 0.016176 160 160 160
0.427212 -0.053438 0.016124 160 160 160
0.427324 -0.050623 0.016082 160 160 160
0.427526 -0.047806 0.016004 160 160 160
0.427716 -0.044990 0.015930 160 160 160
0.427810 -0.042176 0.015894 159 159 159
0.427788 -0.039365 0.015902 160 160 160
0.427768 -0.036553 0.015910 160 160 160
0.427737 -0.033741 0.015922 160 160 160
0.427603 -0.030930 0.015973 160 160 160
0.427217 -0.028122 0.016123 160 160 160
0.426830 -0.025313 0.016272 160 160 160
0.426581 -0.022502 0.016369 161 161 161
0.426306 -0.019690 0.016475 162 162 162
0.425865 -0.016879 0.016645 161 161 161
0.425531 -0.014067 0.016774 162 162 162
0.425218 -0.011253 0.016896 162 162 162
0.424872 -0.008439 0.017029 162 162 162
0.424357 -0.005625 0.017228 162 162 162
0.423840 -0.002810 0.017428 163 163 163
0.423386 0.000007 0.017603 163 163 163
0.422896 0.002824 0.017793 161 161 161
0.422364 0.005643 0.017998 161 161 161
0.421846 0.008463 0.018199 161 161 161
0.421319 0.011284 0.018402 160 160 160
0.420681 0.014107 0.018649 160 160 160
0.420025 0.016931 0.018902 161 161 161
0.419487 0.019756 0.019110 160 160 160
0.418958 0.022582 0.019315 160 160 160
0.418499 0.025409 0.019492 160 160 160
0.418103 0.028235 0.019645 160 160 160
0.417707 0.031063 0.019798 159 159 159
0.417310 0.033892 0.019952 159 159 159
0.417062 0.036719 0.020048 159 159 159
0.416964 0.039544 0.020086 159 159 159
0.416866 0.042370 0.020124 158 158 158
0.416743 0.045197 0.020171 158 158 158
0.416578 0.048024 0.020235 158 158 158
0.416533 0.050849 0.020252 158 158 158
0.416515 0.053674 0.020259 157 157 157
0.416534 0.056499 0.020252 157 157 157
0.416529 0.059323 0.020254 157 157 157
0.416425 0.062150 0.020294 157 157 157
0.416255 0.064979 0.020360 156 156 156
0.416086 0.067809 0.020425 156 156 156
0.415908 0.070639 0.020494 156 156 156
0.415681 0.073470 0.020581 156 156 156
0.415438 0.076303 0.020675 155 155 155
0.415195 0.079136 0.020769 155 155 155
0.414919 0.081971 0.020876 155 155 155
0.414613 0.084808 0.020994 154 154 154
0.414307 0.087645 0.021113 154 154 154
0.413952 0.090484 0.021250 154 154 154
0.413259 0.093337 0.021518 154 154 154
0.412288 0.096201 0.021893 154 154 154
0.411366 0.099066 0.022249 153 153 153
0.410445 0.101932 0.022605 153 153 153
0.409001 0.104822 0.023163 153 153 153
0.407430 0.107720 0.023771 153 153 153
0.405856 0.110622 0.024379 153 153 153
0.404146 0.113534 0.025040 154 154 154
0.402192 0.116460 0.025795 153 153 153
0.400201 0.119392 0.026564 153 153 153
0.398141 0.122331 0.027361 152 152 152
0.395596 0.125299 0.028344 152 152 152
0.393039 0.128272 0.029333 152 152 152
0.390486 0.131252 0.030319 152 152 152
0.388563 0.134204 0.031063 152 152 152
0.386636 0.137160 0.031807 152 152 152
0.384732 0.140120 0.032543 151 151 151
0.382925 0.143079 0.033242 152 152 152
0.381099 0.146042 0.033947 152 152 152
0.379024 0.149024 0.034750 153 153 153
0.377048 0.152004 0.035513 154 154 154
0.375126 0.154986 0.036256 154 154 154
0.373095 0.157979 0.037041 155 155 155
0.371213 0.160966 0.037768 155 155 155
0.369748 0.163932 0.038335 155 155 155
0.368281 0.166901 0.038901 155 155 155
0.366782 0.169876 0.039481 156 156 156
0.365329 0.172851 0.040042 157 157 157
0.363819 0.175832 0.040626 156 156 156
0.362385 0.178812 0.041180 157 157 157
0.361020 0.181790 0.041708 157 157 157
0.359699 0.184769 0.042218 158 158 158
0.358314 0.187754 0.042754 159 159 159
0.356929 0.190743 0.043289 160 160 160
0.355539 0.193735 0.043826 161 161 161
0.354191 0.196727 0.044347 161 161 161
0.352928 0.199715 0.044836 162 162 162
0.351480 0.202721 0.045395 163 163 163
0.349916 0.205738 0.045999 163 163 163
0.348350 0.208760 0.046605 163 163 163
0.346614 0.211798 0.047276 163 163 163
0.344559 0.214866 0.048070 163 163 163
0.342500 0.217939 0.048866 162 162 162
0.340478 0.221013 0.049647 162 162 162
0.338531 0.224085 0.050400 162 162 162
0.336533 0.227166 0.051172 162 162 162
0.334558 0.230250 0.051935 162 162 162
0.331867 0.233400 0.052975 162 162 162
0.329170 0.236557 0.054018 161 161 161
0.326247 0.239740 0.055148 160 160 160
0.322633 0.242993 0.056544 158 158 158
0.318810 0.246273 0.058022 156 156 156
0.315049 0.249555 0.059475 154 154 154
0.311591 0.252817 0.060812 153 153 153
0.308377 0.256063 0.062054 152 152 152
0.306158 0.259220 0.062912 150 150 150
0.304208 0.262356 0.063666 149 149 149
0.302529 0.265469 0.064315 148 148 148
0.300903 0.268581 0.064943 149 149 149
0.299323 0.271692 0.065554 149 149 149
0.297740 0.274807 0.066166 149 149 149
0.296269 0.277913 0.066734 149 149 149
0.294910 0.281011 0.067259 149 149 149
0.293519 0.284115 0.067797 149 149 149
0.292069 0.287229 0.068357 149 149 149
0.290451 0.290364 0.068983 149 149 149
0.288832 0.293503 0.069609 149 149 149
0.287215 0.296644 0.070233 149 149 149
0.285920 0.299754 0.070734 150 150 150
0.284626 0.302867 0.071234 150 150 150
0.283331 0.305982 0.071735 150 150 150
0.282049 0.309099 0.072230 150 150 150
0.280789 0.312216 0.072717 151 151 151
0.279565 0.315332 0.073190 151 151 151
0.278203 0.318466 0.073717 153 153 153
0.276687 0.321622 0.074302 154 154 154
0.275049 0.324796 0.074936 156 156 156
0.273471 0.327966 0.075545 159 159 159
0.271861 0.331143 0.076168 161 161 161
0.270239 0.334325 0.076795 163 163 163
0.268827 0.337485 0.077340 163 163 163
0.266597 0.340751 0.078202 164 164 164
0.263969 0.344071 0.079218 166 166 166
0.260945 0.347448 0.080387 168 168 168
0.256504 0.351012 0.082103 170 170 170
0.250530 0.354785 0.084412 174 174 174
0.237957 0.359432 0.089272 172 172 172
0.226390 0.363975 0.093742 167 167 167
0.217576 0.368177 0.097149 158 158 158
0.213152 0.371812 0.098859 158 158 158
0.209036 0.375414 0.100449 158 158 158
0.206493 0.378812 0.101432 159 159 159
0.204570 0.382130 0.102175 159 159 159
0.202736 0.385441 0.102884 158 158 158
0.201384 0.388688 0.103407 157 157 157
0.199996 0.391943 0.103943 158 158 158
0.198607 0.395202 0.104480 158 158 158
0.196929 0.398505 0.105129 159 159 159
0.195017 0.401845 0.105868 159 159 159
0.193101 0.405189 0.106608 160 160 160
0.191151 0.408543 0.107362 160 160 160
0.189189 0.411903 0.108120 161 161 161
0.187224 0.415268 0.108880 161 161 161
0.185142 0.418654 0.109684 163 163 163
0.182493 0.422131 0.110708 165 165 165
0.179373 0.425684 0.111914 170 170 170
0.173827 0.429614 0.114058 173 173 173
0.162579 0.434431 0.118405 132 132 132
0.075223 -0.447669 0.148742 132 132 132
0.089284 -0.442329 0.143325 175 175 175
0.093838 -0.438458 0.141570 175 175 175
0.098073 -0.434645 0.139938 177 177 177
0.103192 -0.430709 0.137965 183 183 183
0.109593 -0.426595 0.135499 187 187 187
0.131068 -0.420281 0.127224 186 186 186
0.138270 -0.416095 0.124449 178 178 178
0.144369 -0.412084 0.122099 174 174 174
0.149906 -0.408167 0.119966 171 171 171
0.155397 -0.404269 0.117850 167 167 167
0.160789 -0.400397 0.115772 162 162 162
0.165450 -0.396639 0.113976 162 162 162
0.171111 -0.392752 0.111795 162 162 162
0.177009 -0.388845 0.109522 162 162 162
0.183072 -0.384928 0.107186 165 165 165
0.191662 -0.380681 0.103876 170 170 170
0.200533 -0.376415 0.100458 175 175 175
0.212467 -0.371759 0.095859 180 180 180
0.226043 -0.366912 0.090628 178 178 178
0.234267 -0.362798 0.087459 177 177 177
0.238694 -0.359197 0.085754 177 177 177
0.243475 -0.355560 0.083911 175 175 175
0.248260 -0.351933 0.082067 175 175 175
0.252664 -0.348365 0.080371 175 175 175
0.257141 -0.344798 0.078645 176 176 176
0.261942 -0.341200 0.076796 177 177 177
0.266772 -0.337608 0.074934 178 178 178
0.276879 -0.333380 0.071040 178 178 178
0.287061 -0.329164 0.067117 174 174 174
0.290924 -0.325733 0.065628 171 171 171
0.294756 -0.322314 0.064151 170 170 170
0.297127 -0.319076 0.063238 167 167 167
0.298963 -0.315907 0.062531 166 166 166
0.301120 -0.312704 0.061699 164 164 164
0.302984 -0.309539 0.060981 163 163 163
0.305000 -0.306361 0.060204 162 162 162
