ply
format ascii 1.0
element vertex 1185
property float x
property float y
property float z
property uchar red
property uchar green
property uchar blue
end_header
-0.014046 0.340147 -0.164028 138 138 138
-0.021006 0.340347 -0.162331 138 138 138
-0.028157 0.340476 -0.160577 138 138 138
-0.047809 0.335120 -0.154939 138 138 138
-0.059545 0.333282 -0.151767 138 138 138
-0.067168 0.333269 -0.149875 138 138 138
-0.071653 0.334639 -0.148960 138 138 138
-0.075665 0.336223 -0.148192 138 138 138
-0.079334 0.337962 -0.147531 138 138 138
-0.083005 0.339705 -0.146871 138 138 138
-0.086639 0.341469 -0.146222 138 138 138
-0.090423 0.343174 -0.145528 138 138 138
-0.096380 0.343953 -0.144163 138 138 138
-0.102705 0.344586 -0.142686 138 138 138
-0.125449 0.338233 -0.136139 138 138 138
-0.139798 0.335499 -0.132191 138 138 138
-0.147674 0.335540 -0.130244 138 138 138
-0.154168 0.336181 -0.128726 138 138 138
-0.161861 0.336329 -0.126840 138 138 138
-0.167963 0.337160 -0.125447 138 138 138
-0.175380 0.337452 -0.123650 138 138 138
-0.185627 0.336576 -0.120985 138 138 138
-0.195947 0.335691 -0.118300 100 100 100
0.202408 -0.318169 -0.126757 138 138 138
0.223534 -0.298220 -0.134818 138 138 138
0.228703 -0.290410 -0.137207 138 138 138
0.232119 -0.283945 -0.138973 138 138 138
0.234801 -0.278049 -0.140475 138 138 138
0.237710 -0.271997 -0.142057 138 138 138
0.241553 -0.265258 -0.143966 138 138 138
0.247608 -0.256884 -0.146655 138 138 138
0.254698 -0.247762 -0.149706 138 138 138
0.259687 -0.240233 -0.152011 138 138 138
0.265406 -0.232182 -0.154571 138 138 138
0.272076 -0.223450 -0.157463 138 138 138
0.281311 -0.212847 -0.161255 138 138 138
0.287699 -0.204381 -0.164040 138 138 138
0.290266 -0.198754 -0.165476 138 138 138
0.292612 -0.193304 -0.166832 138 138 138
0.295852 -0.187209 -0.168501 139 139 139
0.300542 -0.180070 -0.170677 140 140 140
0.305180 -0.172988 -0.172831 140 140 140
0.309365 -0.166256 -0.174825 141 141 141
0.311548 -0.160998 -0.176113 141 141 141
0.312577 -0.156588 -0.176996 140 140 140
0.313309 -0.152401 -0.177774 140 140 140
0.313738 -0.148441 -0.178444 139 139 139
0.313650 -0.144859 -0.178933 139 139 139
0.313457 -0.141356 -0.179385 138 138 138
0.313453 -0.137722 -0.179902 138 138 138
0.313691 -0.133921 -0.180503 138 138 138
0.313987 -0.130082 -0.181123 138 138 138
0.314310 -0.126230 -0.181752 138 138 138
0.314542 -0.122449 -0.182348 138 138 138
0.314617 -0.118785 -0.182889 138 138 138
0.314715 -0.115109 -0.183437 138 138 138
0.314905 -0.111373 -0.184017 138 138 138
0.315300 -0.107498 -0.184667 138 138 138
0.315604 -0.103693 -0.185285 138 138 138
0.315823 -0.099953 -0.185872 138 138 138
0.316015 -0.096237 -0.186449 138 138 138
0.316140 -0.092574 -0.187002 138 138 138
0.316455 -0.088783 -0.187620 138 138 138
0.317080 -0.084782 -0.188345 138 138 138
0.317991 -0.080589 -0.189168 138 138 138
0.318826 -0.076457 -0.189963 138 138 138
0.319545 -0.072412 -0.190717 138 138 138
0.320129 -0.068466 -0.191424 138 138 138
0.320667 -0.064558 -0.192114 138 138 138
0.321284 -0.060603 -0.192830 138 138 138
0.322229 -0.056429 -0.193659 138 138 138
0.323334 -0.052154 -0.194541 138 138 138
0.325075 -0.047454 -0.195641 138 138 138
0.327335 -0.042410 -0.196918 138 138 138
0.328569 -0.038074 -0.197841 138 138 138
0.329473 -0.033969 -0.198649 138 138 138
0.329596 -0.030399 -0.199189 138 138 138
0.329720 -0.026833 -0.199727 138 138 138
0.329842 -0.023273 -0.200265 138 138 138
0.329765 -0.019851 -0.200734 138 138 138
0.329672 -0.016445 -0.201197 138 138 138
0.329579 -0.013042 -0.201659 138 138 138
0.329486 -0.009643 -0.202120 138 138 138
0.329437 -0.006220 -0.202596 138 138 138
0.329387 -0.002801 -0.203071 138 138 138
0.329342 0.000617 -0.203548 138 138 138
0.329357 0.004070 -0.204044 138 138 138
0.329470 0.007583 -0.204572 138 138 138
0.329569 0.011082 -0.205096 138 138 138
0.329635 0.014555 -0.205607 138 138 138
0.329739 0.018049 -0.206131 138 138 138
0.329766 0.021487 -0.206628 138 138 138
0.329726 0.024878 -0.207101 138 138 138
0.329509 0.028149 -0.207514 138 138 138
0.329166 0.031335 -0.207884 138 138 138
0.328824 0.034518 -0.208253 138 138 138
0.328482 0.037698 -0.208622 138 138 138
0.328037 0.040809 -0.208955 138 138 138
0.327483 0.043847 -0.209252 138 138 138
0.326928 0.046882 -0.209547 138 138 138
0.326375 0.049915 -0.209843 138 138 138
0.325875 0.052980 -0.210157 138 138 138
0.325405 0.056060 -0.210480 138 138 138
0.324935 0.059138 -0.210802 138 138 138
0.324450 0.062204 -0.211120 138 138 138
0.323995 0.065285 -0.211447 138 138 138
0.323482 0.068327 -0.211754 138 138 138
0.322964 0.071364 -0.212059 138 138 138
0.322446 0.074397 -0.212363 138 138 138
0.321832 0.077368 -0.212635 138 138 138
0.321215 0.080335 -0.212906 138 138 138
0.320588 0.083293 -0.213173 138 138 138
0.319937 0.086234 -0.213431 138 138 138
0.319041 0.089021 -0.213607 138 138 138
0.318136 0.091801 -0.213780 138 138 138
0.317216 0.094570 -0.213948 138 138 138
0.316296 0.097338 -0.214115 138 138 138
0.314897 0.099810 -0.214122 138 138 138
0.313489 0.102277 -0.214126 138 138 138
0.312031 0.104713 -0.214113 138 138 138
0.310571 0.107148 -0.214100 138 138 138
0.308942 0.109480 -0.214030 138 138 138
0.307219 0.111757 -0.213929 138 138 138
0.305589 0.114090 -0.213859 138 138 138
0.304024 0.116463 -0.213811 138 138 138
0.302468 0.118842 -0.213766 138 138 138
0.300945 0.121241 -0.213732 138 138 138
0.299427 0.123644 -0.213700 138 138 138
0.297921 0.126054 -0.213672 138 138 138
0.296414 0.128463 -0.213643 138 138 138
0.294795 0.130807 -0.213577 138 138 138
0.293216 0.133174 -0.213525 138 138 138
0.291641 0.135544 -0.213474 138 138 138
0.290127 0.137951 -0.213443 138 138 138
0.288681 0.140398 -0.213435 138 138 138
0.287278 0.142871 -0.213441 138 138 138
0.285687 0.145233 -0.213385 138 138 138
0.284061 0.147575 -0.213317 138 138 138
0.282438 0.149919 -0.213251 138 138 138
0.280989 0.152366 -0.213242 138 138 138
0.279568 0.154828 -0.213242 138 138 138
0.278169 0.157304 -0.213249 138 138 138
0.276717 0.159748 -0.213239 138 138 138
0.275343 0.162238 -0.213255 138 138 138
0.273967 0.164727 -0.213270 138 138 138
0.272516 0.167172 -0.213261 139 139 139
0.271066 0.169618 -0.213251 140 140 140
0.269733 0.172131 -0.213280 140 140 140
0.268515 0.174709 -0.213347 140 140 140
0.267298 0.177287 -0.213414 140 140 140
0.266081 0.179864 -0.213481 140 140 140
0.264827 0.182420 -0.213536 141 141 141
0.263461 0.184912 -0.213554 141 141 141
0.262096 0.187405 -0.213572 141 141 141
0.260731 0.189898 -0.213590 141 141 141
0.259385 0.192401 -0.213615 141 141 141
0.258219 0.195004 -0.213698 140 140 140
0.257072 0.197617 -0.213787 140 140 140
0.255925 0.200230 -0.213877 140 140 140
0.254779 0.202841 -0.213966 140 140 140
0.253590 0.205429 -0.214041 140 140 140
0.252388 0.208009 -0.214112 141 141 141
0.251187 0.210589 -0.214183 142 142 142
0.249986 0.213168 -0.214255 143 143 143
0.248847 0.215780 -0.214346 142 142 142
0.247709 0.218392 -0.214437 142 142 142
0.246570 0.221004 -0.214528 142 142 142
0.245433 0.223615 -0.214620 142 142 142
0.244315 0.226235 -0.214717 142 142 142
0.243239 0.228878 -0.214828 143 143 143
0.242164 0.231520 -0.214939 143 143 143
0.241088 0.234161 -0.215050 143 143 143
0.240012 0.236801 -0.215161 143 143 143
0.238984 0.239465 -0.215287 142 142 142
0.237955 0.242128 -0.215412 141 141 141
0.236926 0.244790 -0.215538 141 141 141
0.235897 0.247450 -0.215663 142 142 142
0.234827 0.250088 -0.215775 142 142 142
0.233755 0.252725 -0.215886 142 142 142
0.232684 0.255360 -0.215997 142 142 142
0.231614 0.257995 -0.216109 142 142 142
0.230197 0.260448 -0.216109 142 142 142
0.228703 0.262860 -0.216084 141 141 141
0.227208 0.265272 -0.216058 140 140 140
0.225718 0.267688 -0.216035 141 141 141
0.224201 0.270089 -0.216003 141 141 141
0.222729 0.272513 -0.215985 141 141 141
0.221300 0.274960 -0.215981 140 140 140
0.219871 0.277408 -0.215977 139 139 139
0.218424 0.279845 -0.215967 139 139 139
0.217097 0.282345 -0.215996 138 138 138
0.215771 0.284844 -0.216025 138 138 138
0.214411 0.287326 -0.216043 138 138 138
0.213008 0.289786 -0.216047 138 138 138
0.211537 0.292212 -0.216029 138 138 138
0.210054 0.294631 -0.216008 138 138 138
0.208579 0.297055 -0.215989 138 138 138
0.207068 0.299461 -0.215959 138 138 138
0.205352 0.301765 -0.215864 138 138 138
0.203416 0.303959 -0.215699 138 138 138
0.201476 0.306153 -0.215533 138 138 138
0.199536 0.308348 -0.215366 138 138 138
0.197482 0.310489 -0.215164 138 138 138
0.195141 0.312489 -0.214872 138 138 138
0.192504 0.314346 -0.214485 138 138 138
0.189733 0.316140 -0.214057 138 138 138
0.186878 0.317896 -0.213602 138 138 138
0.183981 0.319636 -0.213135 138 138 138
0.179628 0.320670 -0.212207 138 138 138
0.175218 0.321684 -0.211263 138 138 138
0.170586 0.322598 -0.210249 138 138 138
0.165256 0.323183 -0.209017 138 138 138
0.160330 0.323973 -0.207913 138 138 138
0.155829 0.324977 -0.206945 138 138 138
0.151616 0.326126 -0.206068 138 138 138
0.147518 0.327338 -0.205229 138 138 138
0.144003 0.328835 -0.204575 138 138 138
0.140500 0.330343 -0.203925 138 138 138
0.137251 0.331976 -0.203355 138 138 138
0.134619 0.333907 -0.202981 138 138 138
0.132133 0.335909 -0.202652 138 138 138
0.129782 0.337978 -0.202366 138 138 138
0.127527 0.340093 -0.202111 138 138 138
0.125417 0.342279 -0.201902 138 138 138
0.123100 0.344370 -0.201628 138 138 138
0.120623 0.346389 -0.201304 138 138 138
0.118097 0.348388 -0.200965 138 138 138
0.115210 0.350222 -0.200514 138 138 138
0.112199 0.352003 -0.200024 138 138 138
0.109168 0.353778 -0.199529 138 138 138
0.104981 0.355028 -0.198673 138 138 138
0.100196 0.356010 -0.197632 138 138 138
0.094736 0.356693 -0.196381 138 138 138
0.085744 0.355779 -0.194030 138 138 138
0.075978 0.354532 -0.191441 138 138 138
0.064141 0.352369 -0.188210 138 138 138
0.055109 0.351499 -0.185856 138 138 138
0.048648 0.351804 -0.184304 138 138 138
0.039411 0.350877 -0.181890 138 138 138
0.022140 0.346373 -0.176984 138 138 138
0.002596 0.340896 -0.171377 138 138 138
-0.008158 0.339375 -0.168505 138 138 138
-0.017315 0.338586 -0.166131 138 138 138
-0.025105 0.338422 -0.164184 138 138 138
-0.050096 0.330683 -0.156910 138 138 138
-0.060346 0.329490 -0.154209 138 138 138
-0.067406 0.329717 -0.152498 138 138 138
-0.071855 0.331101 -0.151597 138 138 138
-0.076342 0.332475 -0.150685 138 138 138
-0.079952 0.334238 -0.150045 138 138 138
-0.082769 0.336351 -0.149651 138 138 138
-0.086247 0.338180 -0.149052 138 138 138
-0.090151 0.339831 -0.148324 138 138 138
-0.094342 0.341364 -0.147507 138 138 138
-0.099755 0.342380 -0.146316 138 138 138
-0.109989 0.341345 -0.143641 138 138 138
-0.128759 0.336692 -0.138343 138 138 138
-0.142033 0.334419 -0.134741 138 138 138
-0.150860 0.334058 -0.132510 138 138 138
-0.158538 0.334201 -0.130634 138 138 138
-0.166780 0.334122 -0.128588 138 138 138
-0.179543 0.332159 -0.125157 138 138 138
-0.189717 0.331309 -0.122523 138 138 138
-0.198899 0.330894 -0.120197 100 100 100
0.201847 -0.314497 -0.130428 138 138 138
0.224079 -0.293753 -0.138842 138 138 138
0.227868 -0.287001 -0.140733 138 138 138
0.231806 -0.280154 -0.142674 138 138 138
0.235154 -0.273768 -0.144405 138 138 138
0.238487 -0.267410 -0.146127 138 138 138
0.244019 -0.259424 -0.148622 138 138 138
0.250365 -0.250853 -0.151400 138 138 138
0.255425 -0.243265 -0.153722 138 138 138
0.259738 -0.236254 -0.155779 138 138 138
0.265169 -0.228433 -0.158225 138 138 138
0.272495 -0.219233 -0.161334 138 138 138
0.282474 -0.208104 -0.165369 138 138 138
0.287243 -0.200849 -0.167572 138 138 138
0.289682 -0.195326 -0.168957 138 138 138
0.293148 -0.189064 -0.170698 138 138 138
0.297428 -0.182221 -0.172723 140 140 140
0.303867 -0.173821 -0.175500 140 140 140
0.307742 -0.167315 -0.177377 140 140 140
0.310026 -0.161982 -0.178696 140 140 140
0.310860 -0.157712 -0.179507 139 139 139
0.311476 -0.153609 -0.180241 138 138 138
0.311835 -0.149697 -0.180885 138 138 138
0.311867 -0.146027 -0.181414 138 138 138
0.311857 -0.142391 -0.181928 138 138 138
0.311850 -0.138758 -0.182443 138 138 138
0.312068 -0.134970 -0.183034 138 138 138
0.312375 -0.131122 -0.183656 138 138 138
0.312583 -0.127351 -0.184243 138 138 138
0.312989 -0.123445 -0.184897 138 138 138
0.313118 -0.119741 -0.185455 138 138 138
0.313200 -0.116075 -0.185996 138 138 138
0.313311 -0.112395 -0.186546 138 138 138
0.313609 -0.108586 -0.187160 138 138 138
0.313875 -0.104807 -0.187762 138 138 138
0.314095 -0.101065 -0.188348 138 138 138
0.314362 -0.097295 -0.188949 138 138 138
0.314605 -0.093548 -0.189540 138 138 138
0.314863 -0.089796 -0.190137 138 138 138
0.315253 -0.085957 -0.190778 138 138 138
0.316126 -0.081789 -0.191585 138 138 138
0.316927 -0.077678 -0.192365 138 138 138
0.317664 -0.073619 -0.193123 138 138 138
0.318325 -0.069619 -0.193854 138 138 138
0.318870 -0.065705 -0.194543 138 138 138
0.319497 -0.061742 -0.195261 138 138 138
0.320486 -0.057536 -0.196101 138 138 138
0.321628 -0.053235 -0.196993 138 138 138
0.322771 -0.048940 -0.197884 138 138 138
0.324861 -0.044010 -0.199098 138 138 138
0.326056 -0.039698 -0.200004 138 138 138
0.326736 -0.035742 -0.200733 138 138 138
0.327235 -0.031915 -0.201400 138 138 138
0.327377 -0.028335 -0.201943 138 138 138
0.327585 -0.024715 -0.202508 138 138 138
0.327729 -0.021142 -0.203051 138 138 138
0.327778 -0.017639 -0.203561 138 138 138
0.327756 -0.014187 -0.204045 138 138 138
0.327664 -0.010786 -0.204506 138 138 138
0.327607 -0.007367 -0.204977 138 138 138
0.327613 -0.003909 -0.205470 138 138 138
0.327570 -0.000489 -0.205945 138 138 138
0.327463 0.002886 -0.206398 138 138 138
0.327548 0.006382 -0.206915 138 138 138
0.327616 0.009862 -0.207426 138 138 138
0.327683 0.013338 -0.207936 138 138 138
0.327765 0.016818 -0.208451 138 138 138
0.327810 0.020270 -0.208952 138 138 138
0.327805 0.023685 -0.209436 138 138 138
0.327661 0.027006 -0.209872 138 138 138
0.327363 0.030223 -0.210255 138 138 138
0.327019 0.033406 -0.210623 138 138 138
0.326674 0.036586 -0.210990 138 138 138
0.326330 0.039763 -0.211356 138 138 138
0.325848 0.042849 -0.211676 138 138 138
0.325357 0.045926 -0.211992 138 138 138
0.324820 0.048970 -0.212292 138 138 138
0.324276 0.052007 -0.212590 138 138 138
0.323806 0.055089 -0.212912 138 138 138
0.323333 0.058167 -0.213232 138 138 138
0.322823 0.061217 -0.213540 138 138 138
0.322313 0.064265 -0.213848 138 138 138
0.321800 0.067309 -0.214154 138 138 138
0.321282 0.070347 -0.214458 138 138 138
0.320765 0.073382 -0.214762 138 138 138
0.320206 0.076389 -0.215051 138 138 138
0.319590 0.079358 -0.215321 138 138 138
0.318974 0.082324 -0.215591 138 138 138
0.318346 0.085280 -0.215856 138 138 138
0.317584 0.088152 -0.216077 138 138 138
0.316666 0.090925 -0.216245 138 138 138
0.315746 0.093695 -0.216412 138 138 138
0.314827 0.096463 -0.216579 138 138 138
0.313699 0.099103 -0.216676 138 138 138
0.312277 0.101562 -0.216676 138 138 138
0.310816 0.103997 -0.216662 138 138 138
0.309354 0.106432 -0.216648 138 138 138
0.307826 0.108826 -0.216612 138 138 138
0.306063 0.111079 -0.216499 138 138 138
0.304422 0.113406 -0.216426 138 138 138
0.302800 0.115745 -0.216359 138 138 138
0.301223 0.118112 -0.216307 138 138 138
0.299685 0.120503 -0.216268 138 138 138
0.298173 0.122909 -0.216238 138 138 138
0.296666 0.125319 -0.216210 138 138 138
0.295210 0.127760 -0.216198 138 138 138
0.293730 0.130187 -0.216179 138 138 138
0.292155 0.132557 -0.216128 138 138 138
0.290580 0.134927 -0.216077 138 138 138
0.289096 0.137352 -0.216056 138 138 138
0.287611 0.139777 -0.216036 138 138 138
0.286166 0.142225 -0.216028 138 138 138
0.284540 0.144567 -0.215960 138 138 138
0.283042 0.146985 -0.215936 138 138 138
0.281598 0.149434 -0.215928 138 138 138
0.280176 0.151896 -0.215928 138 138 138
0.278754 0.154358 -0.215928 138 138 138
0.277328 0.156818 -0.215926 139 139 139
0.275880 0.159265 -0.215918 139 139 139
0.274426 0.161709 -0.215907 139 139 139
0.273014 0.164177 -0.215910 139 139 139
0.271649 0.166672 -0.215929 140 140 140
0.270373 0.169218 -0.215977 141 141 141
0.269083 0.171755 -0.216020 141 141 141
0.267799 0.174295 -0.216064 141 141 141
0.266515 0.176835 -0.216109 141 141 141
0.265257 0.179389 -0.216162 141 141 141
0.264040 0.181966 -0.216229 142 142 142
0.262712 0.184479 -0.216259 142 142 142
0.261361 0.186980 -0.216282 142 142 142
0.260080 0.189520 -0.216328 142 142 142
0.258799 0.192059 -0.216374 142 142 142
0.257559 0.194620 -0.216432 141 141 141
0.256362 0.197206 -0.216505 140 140 140
0.255165 0.199790 -0.216577 140 140 140
0.254005 0.202394 -0.216662 140 140 140
0.252844 0.204997 -0.216746 140 140 140
0.251642 0.207577 -0.216817 141 141 141
0.250509 0.210195 -0.216910 142 142 142
0.249393 0.212820 -0.217008 143 143 143
0.248276 0.215444 -0.217106 143 143 143
0.247149 0.218062 -0.217201 142 142 142
0.246023 0.220680 -0.217295 142 142 142
0.244892 0.223294 -0.217388 142 142 142
0.243755 0.225904 -0.217479 142 142 142
0.242671 0.228542 -0.217587 143 143 143
0.241577 0.231174 -0.217692 143 143 143
0.240453 0.233789 -0.217787 143 143 143
0.239330 0.236403 -0.217882 142 142 142
0.238285 0.239058 -0.218002 142 142 142
0.237280 0.241734 -0.218135 141 141 141
0.236274 0.244407 -0.218267 141 141 141
0.235245 0.247068 -0.218392 141 141 141
0.234196 0.249717 -0.218510 142 142 142
0.233124 0.252353 -0.218621 142 142 142
0.231892 0.254904 -0.218680 142 142 142
0.230632 0.257439 -0.218730 142 142 142
0.229313 0.259944 -0.218761 141 141 141
0.227820 0.262356 -0.218736 140 140 140
0.226325 0.264769 -0.218712 140 140 140
0.224831 0.267182 -0.218686 140 140 140
0.223347 0.269600 -0.218665 140 140 140
0.221881 0.272028 -0.218649 140 140 140
0.220447 0.274473 -0.218644 139 139 139
0.219009 0.276915 -0.218637 139 139 139
0.217511 0.279327 -0.218611 138 138 138
0.216088 0.281777 -0.218609 138 138 138
0.214762 0.284277 -0.218638 138 138 138
0.213376 0.286746 -0.218648 138 138 138
0.211973 0.289207 -0.218652 138 138 138
0.210549 0.291656 -0.218649 138 138 138
0.209041 0.294064 -0.218620 138 138 138
0.207475 0.296442 -0.218573 138 138 138
0.205907 0.298820 -0.218525 138 138 138
0.204313 0.301185 -0.218469 138 138 138
0.202443 0.303413 -0.218325 138 138 138
0.200525 0.305618 -0.218166 138 138 138
0.198585 0.307813 -0.218001 138 138 138
0.196549 0.309963 -0.217805 138 138 138
0.194200 0.311960 -0.217511 138 138 138
0.191325 0.313699 -0.217051 138 138 138
0.188446 0.315441 -0.216590 138 138 138
0.185564 0.317184 -0.216129 138 138 138
0.182705 0.318944 -0.215676 138 138 138
0.178703 0.320149 -0.214862 138 138 138
0.174238 0.321136 -0.213904 138 138 138
0.169748 0.322120 -0.212940 138 138 138
0.164844 0.322911 -0.211846 138 138 138
0.159919 0.323700 -0.210747 138 138 138
0.155287 0.324640 -0.209741 138 138 138
0.151015 0.325761 -0.208849 138 138 138
0.146939 0.326983 -0.208020 138 138 138
0.143359 0.328449 -0.207348 138 138 138
0.140174 0.330108 -0.206800 138 138 138
0.136985 0.331769 -0.206251 138 138 138
0.134140 0.333598 -0.205811 138 138 138
0.131549 0.335550 -0.205451 138 138 138
0.129182 0.337611 -0.205162 138 138 138
0.126814 0.339674 -0.204872 138 138 138
0.124489 0.341759 -0.204596 138 138 138
0.121992 0.343766 -0.204267 138 138 138
0.119491 0.345774 -0.203937 138 138 138
0.116987 0.347783 -0.203607 138 138 138
0.114078 0.349608 -0.203150 138 138 138
0.110824 0.351276 -0.202587 138 138 138
0.107432 0.352887 -0.201981 138 138 138
0.103013 0.354031 -0.201057 138 138 138
0.098175 0.354990 -0.200003 138 138 138
0.090650 0.354732 -0.198115 138 138 138
0.077679 0.352010 -0.194538 138 138 138
0.064227 0.349099 -0.190816 138 138 138
0.055841 0.348512 -0.188670 138 138 138
0.049419 0.348829 -0.187136 138 138 138
0.041719 0.348583 -0.185207 138 138 138
0.033470 0.348106 -0.183110 138 138 138
0.014365 0.342788 -0.177655 138 138 138
0.000465 0.339837 -0.173817 138 138 138
-0.010326 0.338301 -0.170945 138 138 138
-0.019723 0.337407 -0.168507 138 138 138
-0.046280 0.328939 -0.160772 138 138 138
-0.058772 0.326741 -0.157387 138 138 138
-0.067383 0.326278 -0.155203 138 138 138
-0.072058 0.327559 -0.154236 138 138 138
-0.075869 0.329227 -0.153535 138 138 138
-0.079520 0.330970 -0.152884 138 138 138
-0.082932 0.332822 -0.152308 138 138 138
-0.086210 0.334737 -0.151774 138 138 138
-0.089541 0.336633 -0.151224 138 138 138
-0.093378 0.338316 -0.150519 138 138 138
-0.097906 0.339707 -0.149603 138 138 138
-0.103587 0.340612 -0.148334 138 138 138
-0.113246 0.339825 -0.145846 138 138 138
-0.132015 0.335175 -0.140570 138 138 138
-0.144691 0.333158 -0.137165 138 138 138
-0.155455 0.331978 -0.134350 138 138 138
-0.163409 0.332009 -0.132398 138 138 138
-0.182916 0.327187 -0.126915 138 138 138
-0.192651 0.326516 -0.124425 138 138 138
-0.200805 0.326526 -0.122421 100 100 100
0.190323 -0.323071 -0.129676 138 138 138
0.215895 -0.299787 -0.139235 138 138 138
0.223424 -0.290201 -0.142436 138 138 138
0.228496 -0.282496 -0.144768 138 138 138
0.232293 -0.275770 -0.146650 138 138 138
0.235626 -0.269409 -0.148367 138 138 138
0.240238 -0.262107 -0.150529 139 139 139
0.246961 -0.253250 -0.153430 139 139 139
0.252457 -0.245334 -0.155896 139 139 139
0.256844 -0.238265 -0.157971 138 138 138
0.261488 -0.231025 -0.160133 138 138 138
0.265899 -0.223977 -0.162211 138 138 138
0.275479 -0.213133 -0.166092 138 138 138
0.283354 -0.203581 -0.169373 138 138 138
0.286747 -0.197352 -0.171085 138 138 138
0.289951 -0.191279 -0.172729 138 138 138
0.294595 -0.184167 -0.174873 139 139 139
0.301250 -0.175606 -0.177715 139 139 139
0.305629 -0.168730 -0.179760 139 139 139
0.307888 -0.163414 -0.181066 138 138 138
0.309024 -0.158924 -0.181979 138 138 138
0.309641 -0.154817 -0.182711 138 138 138
0.309914 -0.150966 -0.183323 138 138 138
0.310105 -0.147179 -0.183906 138 138 138
0.310136 -0.143513 -0.184432 138 138 138
0.310223 -0.139812 -0.184977 138 138 138
0.310267 -0.136146 -0.185506 138 138 138
0.310525 -0.132332 -0.186109 138 138 138
0.310735 -0.128558 -0.186694 138 138 138
0.311228 -0.124588 -0.187377 138 138 138
0.311622 -0.120695 -0.188024 138 138 138
0.311697 -0.117033 -0.188560 138 138 138
0.311797 -0.113359 -0.189104 138 138 138
0.311917 -0.109676 -0.189655 138 138 138
0.312261 -0.105840 -0.190282 138 138 138
0.312634 -0.101990 -0.190918 138 138 138
0.312949 -0.098186 -0.191533 138 138 138
0.313118 -0.094489 -0.192097 138 138 138
0.313364 -0.090744 -0.192687 138 138 138
0.313651 -0.086976 -0.193291 138 138 138
0.314259 -0.082990 -0.194004 138 138 138
0.315027 -0.078901 -0.194770 138 138 138
0.315807 -0.074811 -0.195540 139 139 139
0.316605 -0.070715 -0.196315 138 138 138
0.317255 -0.066727 -0.197038 138 138 138
0.317982 -0.062693 -0.197787 138 138 138
0.318917 -0.058525 -0.198606 138 138 138
0.319921 -0.054316 -0.199447 138 138 138
0.321064 -0.050020 -0.200335 138 138 138
0.322384 -0.045612 -0.201282 138 138 138
0.323540 -0.041324 -0.202172 138 138 138
0.324240 -0.037352 -0.202905 138 138 138
0.324975 -0.033363 -0.203649 138 138 138
0.325219 -0.029712 -0.204226 138 138 138
0.325366 -0.026131 -0.204768 138 138 138
0.325512 -0.022555 -0.205310 138 138 138
0.325620 -0.019010 -0.205838 138 138 138
0.325665 -0.015511 -0.206344 138 138 138
0.325711 -0.012017 -0.206849 138 138 138
0.325750 -0.008531 -0.207352 138 138 138
0.325717 -0.005098 -0.207829 138 138 138
0.325574 -0.001742 -0.208269 138 138 138
0.325391 0.001584 -0.208695 138 138 138
0.325383 0.005021 -0.209179 138 138 138
0.325559 0.008574 -0.209725 138 138 138
0.325730 0.012120 -0.210268 138 138 138
0.325799 0.015594 -0.210777 138 138 138
0.325851 0.019052 -0.211278 138 138 138
0.325854 0.022474 -0.211763 138 138 138
0.325753 0.025824 -0.212212 138 138 138
0.325516 0.029082 -0.212615 138 138 138
0.325203 0.032287 -0.212992 138 138 138
0.324864 0.035472 -0.213359 138 138 138
0.324520 0.038651 -0.213725 138 138 138
0.324121 0.041791 -0.214071 138 138 138
0.323631 0.044870 -0.214387 138 138 138
0.323141 0.047946 -0.214702 138 138 138
0.322654 0.051021 -0.215017 138 138 138
0.322158 0.054087 -0.215330 138 138 138
0.321647 0.057142 -0.215637 138 138 138
0.321137 0.060194 -0.215943 138 138 138
0.320628 0.063244 -0.216250 138 138 138
0.320117 0.066290 -0.216556 138 138 138
0.319599 0.069329 -0.216859 138 138 138
0.319082 0.072366 -0.217162 138 138 138
0.318564 0.075400 -0.217464 138 138 138
0.317947 0.078370 -0.217733 138 138 138
0.317303 0.081319 -0.217992 138 138 138
0.316686 0.084284 -0.218261 138 138 138
0.316072 0.087248 -0.218529 138 138 138
0.315178 0.090037 -0.218705 138 138 138
0.314266 0.092813 -0.218874 138 138 138
0.313354 0.095587 -0.219043 138 138 138
0.312437 0.098357 -0.219210 138 138 138
0.311061 0.100845 -0.219225 138 138 138
0.309556 0.103254 -0.219197 138 138 138
0.308051 0.105663 -0.219169 138 138 138
0.306546 0.108072 -0.219141 138 138 138
0.304907 0.110400 -0.219069 138 138 138
0.303280 0.112736 -0.219001 138 138 138
0.301657 0.115076 -0.218934 138 138 138
0.300034 0.117416 -0.218867 138 138 138
0.298424 0.119764 -0.218805 138 138 138
0.296966 0.122204 -0.218793 138 138 138
0.295516 0.124648 -0.218784 138 138 138
0.294069 0.127095 -0.218775 138 138 138
0.292636 0.129549 -0.218771 138 138 138
0.291094 0.131940 -0.218732 138 138 138
0.289548 0.134328 -0.218691 138 138 138
0.288064 0.136753 -0.218670 138 138 138
0.286579 0.139178 -0.218649 138 138 138
0.285137 0.141628 -0.218643 138 138 138
0.283693 0.144078 -0.218635 138 138 138
0.282249 0.146527 -0.218628 138 138 138
0.280804 0.148976 -0.218620 138 138 138
0.279363 0.151427 -0.218614 139 139 139
0.277942 0.153890 -0.218614 139 139 139
0.276498 0.156339 -0.218607 140 140 140
0.275044 0.158782 -0.218596 140 140 140
0.273608 0.161237 -0.218592 140 140 140
0.272312 0.163772 -0.218633 140 140 140
0.271036 0.166317 -0.218680 141 141 141
0.269754 0.168859 -0.218726 141 141 141
0.268464 0.171396 -0.218768 142 142 142
0.267177 0.173934 -0.218812 142 142 142
0.265893 0.176474 -0.218857 142 142 142
0.264609 0.179013 -0.218902 141 141 141
0.263334 0.181557 -0.218949 142 142 142
0.262073 0.184109 -0.219001 143 143 143
0.260775 0.186639 -0.219041 143 143 143
0.259494 0.189178 -0.219086 143 143 143
0.258214 0.191717 -0.219132 142 142 142
0.256934 0.194256 -0.219177 142 142 142
0.255737 0.196841 -0.219250 141 141 141
0.254540 0.199426 -0.219322 140 140 140
0.253343 0.202010 -0.219394 140 140 140
0.252182 0.204613 -0.219478 140 140 140
0.251049 0.207230 -0.219571 141 141 141
0.249930 0.209855 -0.219668 142 142 142
0.248814 0.212480 -0.219766 143 143 143
0.247698 0.215105 -0.219864 143 143 143
0.246576 0.217725 -0.219959 142 142 142
0.245449 0.220342 -0.220053 142 142 142
0.244323 0.222958 -0.220148 142 142 142
0.243176 0.225563 -0.220235 142 142 142
0.242022 0.228163 -0.220320 142 142 142
0.240912 0.230786 -0.220419 142 142 142
0.239789 0.233400 -0.220514 142 142 142
0.238665 0.236014 -0.220608 142 142 142
0.237563 0.238639 -0.220710 142 142 142
0.236558 0.241315 -0.220842 141 141 141
0.235554 0.243989 -0.220974 141 141 141
0.234550 0.246663 -0.221106 141 141 141
0.233456 0.249288 -0.221210 141 141 141
0.232146 0.251798 -0.221244 141 141 141
0.230886 0.254334 -0.221294 141 141 141
0.229626 0.256870 -0.221344 141 141 141
0.228367 0.259406 -0.221394 141 141 141
0.226935 0.261852 -0.221389 140 140 140
0.225441 0.264265 -0.221365 140 140 140
0.223948 0.266678 -0.221340 140 140 140
0.222476 0.269103 -0.221322 140 140 140
0.221019 0.271536 -0.221310 139 139 139
0.219582 0.273979 -0.221303 139 139 139
0.218144 0.276421 -0.221296 138 138 138
0.216612 0.278816 -0.221260 138 138 138
0.215079 0.281210 -0.221223 138 138 138
0.213745 0.283706 -0.221249 138 138 138
0.212342 0.286167 -0.221253 138 138 138
0.210909 0.288612 -0.221248 138 138 138
0.209418 0.291028 -0.221224 138 138 138
0.207883 0.293423 -0.221187 138 138 138
0.206317 0.295802 -0.221140 138 138 138
0.204739 0.298175 -0.221089 138 138 138
0.203145 0.300541 -0.221033 138 138 138
0.201450 0.302857 -0.220946 138 138 138
0.199532 0.305062 -0.220788 138 138 138
0.197556 0.307240 -0.220611 138 138 138
0.195163 0.309213 -0.220304 138 138 138
0.192715 0.311161 -0.219980 138 138 138
0.189966 0.312964 -0.219562 138 138 138
0.187086 0.314705 -0.219102 138 138 138
0.184226 0.316461 -0.218650 138 138 138
0.181352 0.318213 -0.218194 138 138 138
0.177659 0.319570 -0.217481 138 138 138
0.173289 0.320604 -0.216556 138 138 138
0.168729 0.321553 -0.215573 138 138 138
0.164314 0.322581 -0.214637 138 138 138
0.159509 0.323428 -0.213579 138 138 138
0.154821 0.324340 -0.212560 138 138 138
0.150414 0.325396 -0.211630 138 138 138
0.146581 0.326734 -0.210880 138 138 138
0.143172 0.328281 -0.210263 138 138 138
0.140014 0.329952 -0.209726 138 138 138
0.136826 0.331612 -0.209180 138 138 138
0.133705 0.333310 -0.208655 138 138 138
0.131027 0.335221 -0.208269 138 138 138
0.128599 0.337252 -0.207962 138 138 138
0.126266 0.339331 -0.207684 138 138 138
0.123857 0.341376 -0.207383 138 138 138
0.121053 0.343240 -0.206960 138 138 138
0.118381 0.345169 -0.206578 138 138 138
0.115877 0.347178 -0.206249 138 138 138
0.112969 0.349003 -0.205794 138 138 138
0.109520 0.350583 -0.205173 138 138 138
0.105522 0.351915 -0.204382 138 138 138
0.101134 0.353074 -0.203470 138 138 138
0.095386 0.353618 -0.202139 138 138 138
0.084777 0.351954 -0.199304 138 138 138
0.064165 0.345760 -0.193378 138 138 138
0.056378 0.345437 -0.191424 138 138 138
0.050079 0.345803 -0.189933 138 138 138
0.044024 0.346292 -0.188518 138 138 138
0.037504 0.346583 -0.186962 138 138 138
0.026530 0.344887 -0.184033 138 138 138
0.012117 0.341675 -0.180048 138 138 138
-0.001668 0.338777 -0.176260 138 138 138
-0.012496 0.337226 -0.173388 138 138 138
-0.024676 0.335098 -0.170103 138 138 138
-0.056412 0.324342 -0.160805 138 138 138
-0.064960 0.323896 -0.158648 138 138 138
-0.070768 0.324673 -0.157335 138 138 138
-0.075351 0.325998 -0.156399 138 138 138
-0.079035 0.327724 -0.155741 138 138 138
-0.082499 0.329551 -0.155150 138 138 138
-0.085917 0.331403 -0.154575 138 138 138
-0.089339 0.333258 -0.153999 138 138 138
-0.092779 0.335111 -0.153418 138 138 138
-0.096391 0.336893 -0.152786 138 138 138
-0.100584 0.338431 -0.151976 138 138 138
-0.107299 0.338894 -0.150396 138 138 138
-0.116615 0.338257 -0.148023 138 138 138
-0.135458 0.333578 -0.142745 138 138 138
-0.148062 0.331594 -0.139376 138 138 138
-0.160046 0.329900 -0.136200 138 138 138
-0.185889 0.322374 -0.128803 138 138 138
-0.194740 0.322069 -0.126592 138 138 138
-0.202322 0.322315 -0.124769 100 100 100
0.190229 -0.319035 -0.133519 138 138 138
0.217076 -0.294838 -0.143481 138 138 138
0.224206 -0.285575 -0.146526 138 138 138
0.228975 -0.278113 -0.148742 138 138 138
0.232905 -0.271301 -0.150661 138 138 138
0.237487 -0.264019 -0.152805 140 140 140
0.243858 -0.255423 -0.155571 141 141 141
0.249938 -0.247069 -0.158232 139 139 139
0.254416 -0.239930 -0.160331 139 139 139
0.257801 -0.233620 -0.162046 138 138 138
0.261478 -0.227111 -0.163861 138 138 138
0.267021 -0.219241 -0.166323 138 138 138
0.277597 -0.207688 -0.170532 138 138 138
0.283234 -0.199803 -0.173018 138 138 138
0.286772 -0.193481 -0.174773 138 138 138
0.290503 -0.187033 -0.176592 138 138 138
0.297296 -0.178367 -0.179471 138 138 138
0.303156 -0.170408 -0.182023 138 138 138
0.306206 -0.164514 -0.183597 138 138 138
0.306966 -0.160295 -0.184377 138 138 138
0.307799 -0.156030 -0.185182 138 138 138
0.307992 -0.152236 -0.185763 138 138 138
0.308159 -0.148465 -0.186336 138 138 138
0.308174 -0.144808 -0.186854 138 138 138
0.308245 -0.141116 -0.187392 138 138 138
0.308313 -0.137432 -0.187928 138 138 138
0.308674 -0.133543 -0.188564 138 138 138
0.308885 -0.129767 -0.189147 138 138 138
0.309467 -0.125732 -0.189858 138 138 138
0.310080 -0.121682 -0.190578 138 138 138
0.310201 -0.117986 -0.191129 138 138 138
0.310363 -0.114268 -0.191692 138 138 138
0.310553 -0.110534 -0.192265 138 138 138
0.310848 -0.106732 -0.192872 138 138 138
0.311222 -0.102879 -0.193507 138 138 138
0.311515 -0.099090 -0.194112 139 139 139
0.311743 -0.095351 -0.194694 139 139 139
0.311875 -0.091685 -0.195243 139 139 139
0.312153 -0.087922 -0.195841 138 138 138
0.312486 -0.084127 -0.196457 138 138 138
0.313394 -0.079939 -0.197269 139 139 139
0.314330 -0.075740 -0.198089 139 139 139
0.314984 -0.071742 -0.198812 139 139 139
0.315639 -0.067750 -0.199535 138 138 138
0.316467 -0.063646 -0.200315 138 138 138
0.317399 -0.059478 -0.201130 139 139 139
0.318360 -0.055297 -0.201953 138 138 138
0.319356 -0.051101 -0.202788 138 138 138
0.320499 -0.046811 -0.203671 138 138 138
0.321507 -0.042622 -0.204507 138 138 138
0.322408 -0.038512 -0.205306 138 138 138
0.323193 -0.034488 -0.206065 138 138 138
0.323284 -0.030938 -0.206587 138 138 138
0.323301 -0.027443 -0.207084 138 138 138
0.323318 -0.023952 -0.207580 138 138 138
0.323440 -0.020395 -0.208111 138 138 138
0.323507 -0.016880 -0.208623 138 138 138
0.323471 -0.013438 -0.209099 138 138 138
0.323407 -0.010019 -0.209565 138 138 138
0.323333 -0.006611 -0.210027 138 138 138
0.323409 -0.003107 -0.210539 138 138 138
0.323317 0.000280 -0.210994 138 138 138
0.323223 0.003663 -0.211448 138 138 138
0.323350 0.007186 -0.211975 138 138 138
0.323526 0.010738 -0.212519 138 138 138
0.323703 0.014284 -0.213062 138 138 138
0.323827 0.017791 -0.213586 138 138 138
0.323767 0.021174 -0.214048 138 138 138
0.323695 0.024545 -0.214506 138 138 138
0.323581 0.027884 -0.214948 138 138 138
0.323307 0.031117 -0.215337 138 138 138
0.322996 0.034321 -0.215713 138 138 138
0.322685 0.037522 -0.216088 138 138 138
0.322365 0.040715 -0.216460 138 138 138
0.321905 0.043814 -0.216784 138 138 138
0.321422 0.046896 -0.217100 138 138 138
0.320939 0.049975 -0.217416 138 138 138
0.320457 0.053052 -0.217732 138 138 138
0.319952 0.056112 -0.218040 138 138 138
0.319447 0.059168 -0.218348 138 138 138
0.318941 0.062221 -0.218654 138 138 138
0.318432 0.065271 -0.218960 138 138 138
0.317915 0.068312 -0.219262 138 138 138
0.317380 0.071338 -0.219558 138 138 138
0.316834 0.074356 -0.219850 138 138 138
0.316258 0.077352 -0.220132 138 138 138
0.315639 0.080319 -0.220399 138 138 138
0.315025 0.083287 -0.220667 138 138 138
0.314411 0.086252 -0.220935 138 138 138
0.313685 0.089146 -0.221165 138 138 138
0.312773 0.091923 -0.221334 138 138 138
0.311860 0.094698 -0.221503 138 138 138
0.310949 0.097473 -0.221671 138 138 138
0.309846 0.100129 -0.221776 138 138 138
0.308326 0.102528 -0.221743 138 138 138
0.306805 0.104928 -0.221710 138 138 138
0.305284 0.107329 -0.221677 138 138 138
0.303774 0.109736 -0.221648 138 138 138
0.302148 0.112073 -0.221580 138 138 138
0.300530 0.114416 -0.221516 138 138 138
0.298967 0.116792 -0.221469 138 138 138
0.297377 0.119153 -0.221414 138 138 138
0.295823 0.121536 -0.221370 138 138 138
0.294373 0.123981 -0.221361 138 138 138
0.292931 0.126431 -0.221354 138 138 138
0.291497 0.128886 -0.221350 138 138 138
0.290033 0.131323 -0.221336 138 138 138
0.288516 0.133729 -0.221305 138 138 138
0.287097 0.136193 -0.221306 138 138 138
0.285720 0.138682 -0.221320 138 138 138
0.284344 0.141171 -0.221335 139 139 139
0.282905 0.143622 -0.221330 139 139 139
0.281458 0.146070 -0.221321 139 139 139
0.280011 0.148517 -0.221313 139 139 139
0.278566 0.150967 -0.221305 140 140 140
0.277130 0.153421 -0.221301 140 140 140
0.275726 0.155893 -0.221306 140 140 140
0.274388 0.158404 -0.221334 140 140 140
0.273034 0.160905 -0.221356 140 140 140
0.271699 0.163417 -0.221384 141 141 141
0.270424 0.165963 -0.221431 141 141 141
0.269135 0.168501 -0.221474 142 142 142
0.267845 0.171037 -0.221517 142 142 142
0.266554 0.173574 -0.221559 143 143 143
0.265276 0.176116 -0.221606 143 143 143
0.264059 0.178693 -0.221672 142 142 142
0.262843 0.181270 -0.221738 142 142 142
0.261565 0.183812 -0.221784 142 142 142
0.260261 0.186338 -0.221822 143 143 143
0.258954 0.188862 -0.221859 143 143 143
0.257646 0.191386 -0.221895 143 143 143
0.256347 0.193914 -0.221934 143 143 143
0.255111 0.196477 -0.221994 142 142 142
0.253948 0.199080 -0.222077 140 140 140
0.252796 0.201688 -0.222163 140 140 140
0.251645 0.204296 -0.222250 140 140 140
0.250501 0.206908 -0.222339 140 140 140
0.249374 0.209527 -0.222433 142 142 142
0.248247 0.212146 -0.222527 143 143 143
0.247120 0.214765 -0.222621 143 143 143
0.246002 0.217387 -0.222717 143 143 143
0.244857 0.219994 -0.222805 142 142 142
0.243669 0.222577 -0.222879 141 141 141
0.242481 0.225159 -0.222953 141 141 141
0.241294 0.227741 -0.223027 142 142 142
0.240186 0.230364 -0.223126 142 142 142
0.239087 0.232992 -0.223228 142 142 142
0.237988 0.235619 -0.223330 142 142 142
0.236878 0.238239 -0.223428 142 142 142
0.235837 0.240896 -0.223549 141 141 141
0.234743 0.243523 -0.223652 141 141 141
0.233634 0.246141 -0.223750 140 140 140
0.232526 0.248759 -0.223849 140 140 140
0.231313 0.251320 -0.223914 141 141 141
0.229995 0.253826 -0.223945 141 141 141
0.228678 0.256332 -0.223977 141 141 141
0.227360 0.258838 -0.224008 140 140 140
0.226050 0.261347 -0.224042 140 140 140
0.224568 0.263766 -0.224021 139 139 139
0.223098 0.266192 -0.224004 139 139 139
0.221641 0.268625 -0.223991 139 139 139
0.220168 0.271049 -0.223973 139 139 139
0.218716 0.273484 -0.223962 138 138 138
0.217252 0.275913 -0.223947 138 138 138
0.215713 0.278305 -0.223909 138 138 138
0.214174 0.280696 -0.223870 138 138 138
0.212684 0.283113 -0.223847 138 138 138
0.211183 0.285524 -0.223820 138 138 138
0.209681 0.287935 -0.223794 138 138 138
0.208202 0.290358 -0.223774 138 138 138
0.206724 0.292782 -0.223755 138 138 138
0.205158 0.295161 -0.223708 138 138 138
0.203571 0.297530 -0.223654 138 138 138
0.201976 0.299896 -0.223598 138 138 138
0.200355 0.302249 -0.223534 138 138 138
0.198257 0.304366 -0.223321 138 138 138
0.196059 0.306434 -0.223076 138 138 138
0.193578 0.308364 -0.222742 138 138 138
0.191096 0.310296 -0.222408 138 138 138
0.188606 0.312228 -0.222073 138 138 138
0.185724 0.313969 -0.221615 138 138 138
0.182967 0.315776 -0.221197 138 138 138
0.179644 0.317309 -0.220602 138 138 138
0.175790 0.318589 -0.219842 138 138 138
0.172276 0.320040 -0.219188 138 138 138
0.167711 0.320987 -0.218208 138 138 138
0.163294 0.322014 -0.217274 138 138 138
0.158866 0.323043 -0.216339 138 138 138
0.154410 0.324067 -0.215396 138 138 138
0.150379 0.325303 -0.214586 138 138 138
0.146523 0.326628 -0.213831 138 138 138
0.142922 0.328082 -0.213158 138 138 138
0.139775 0.329758 -0.212626 138 138 138
0.136624 0.331436 -0.212093 138 138 138
0.133469 0.333116 -0.211560 138 138 138
0.130614 0.334943 -0.211120 138 138 138
0.128094 0.336930 -0.210785 138 138 138
0.125783 0.339019 -0.210516 138 138 138
0.123284 0.341022 -0.210188 138 138 138
0.120500 0.342895 -0.209772 138 138 138
0.117676 0.344752 -0.209345 138 138 138
0.114849 0.346612 -0.208917 138 138 138
0.111788 0.348366 -0.208417 138 138 138
0.107765 0.349681 -0.207620 138 138 138
0.103690 0.350979 -0.206809 138 138 138
0.099178 0.352082 -0.205863 138 138 138
0.090037 0.351074 -0.203490 138 138 138
0.064936 0.342800 -0.196198 138 138 138
0.056830 0.342323 -0.194153 138 138 138
0.051386 0.343071 -0.192929 138 138 138
0.045957 0.343836 -0.191712 138 138 138
0.039659 0.344219 -0.190229 138 138 138
0.032366 0.344166 -0.188442 138 138 138
0.021533 0.342539 -0.185569 138 138 138
0.009866 0.340562 -0.182443 138 138 138
-0.003622 0.337797 -0.178761 138 138 138
-0.013664 0.336597 -0.176141 138 138 138
-0.052377 0.322692 -0.164734 138 138 138
-0.062899 0.321359 -0.161978 138 138 138
-0.069055 0.321974 -0.160562 138 138 138
-0.073584 0.323318 -0.159646 138 138 138
-0.078048 0.324697 -0.158751 138 138 138
-0.082037 0.326292 -0.158002 138 138 138
-0.085436 0.328151 -0.157435 138 138 138
-0.088834 0.330014 -0.156868 138 138 138
-0.092159 0.331914 -0.156324 138 138 138
-0.095522 0.333801 -0.155769 138 138 138
-0.099066 0.335615 -0.155160 138 138 138
-0.103505 0.337050 -0.154279 138 138 138
-0.111458 0.336984 -0.152328 138 138 138
-0.120668 0.336396 -0.149998 138 138 138
-0.139252 0.331831 -0.144819 138 138 138
-0.153104 0.329319 -0.141084 138 138 138
-0.183533 0.319810 -0.132318 138 138 138
-0.195482 0.318184 -0.129173 138 138 138
-0.203940 0.318055 -0.127090 138 138 138
0.189296 -0.315638 -0.137062 138 138 138
0.219219 -0.289178 -0.148050 138 138 138
0.225484 -0.280586 -0.150779 138 138 138
0.230739 -0.272778 -0.153153 138 138 138
0.235642 -0.265254 -0.155401 140 140 140
0.241485 -0.257050 -0.157973 141 141 141
0.247358 -0.248848 -0.160552 139 139 139
0.251902 -0.241657 -0.162666 139 139 139
0.255413 -0.235252 -0.164418 140 140 140
0.258359 -0.229282 -0.165972 141 141 141
0.262664 -0.222322 -0.167996 140 140 140
0.271956 -0.211710 -0.171744 138 138 138
0.279180 -0.202652 -0.174772 138 138 138
0.283420 -0.195809 -0.176763 138 138 138
0.286930 -0.189519 -0.178499 138 138 138
0.293192 -0.181238 -0.181184 138 138 138
0.300326 -0.172345 -0.184166 138 138 138
0.303994 -0.166000 -0.185948 138 138 138
0.305261 -0.161411 -0.186900 138 138 138
0.305838 -0.157330 -0.187614 138 138 138
0.305916 -0.153616 -0.188154 138 138 138
0.305994 -0.149907 -0.188693 138 138 138
0.306072 -0.146204 -0.189232 138 138 138
0.306091 -0.142547 -0.189750 138 138 138
0.306357 -0.138719 -0.190352 138 138 138
0.306675 -0.134858 -0.190971 138 138 138
0.307087 -0.130937 -0.191622 138 138 138
0.307703 -0.126877 -0.192341 138 138 138
0.308174 -0.122927 -0.193010 138 138 138
0.308776 -0.118890 -0.193723 138 138 138
0.308937 -0.115170 -0.194284 139 139 139
0.309225 -0.111367 -0.194888 139 139 139
0.309435 -0.107624 -0.195465 139 139 139
0.309801 -0.103776 -0.196094 139 139 139
0.310080 -0.099996 -0.196692 139 139 139
0.310359 -0.096221 -0.197290 139 139 139
0.310522 -0.092531 -0.197847 139 139 139
0.310833 -0.088745 -0.198454 139 139 139
0.311242 -0.084896 -0.199094 139 139 139
0.311914 -0.080871 -0.199822 139 139 139
0.312851 -0.076669 -0.200640 140 140 140
0.313421 -0.072729 -0.201332 140 140 140
0.314022 -0.068773 -0.202033 139 139 139
0.314951 -0.064598 -0.202845 139 139 139
0.315884 -0.060429 -0.203657 139 139 139
0.316876 -0.056226 -0.204488 139 139 139
0.317923 -0.051993 -0.205336 138 138 138
0.318769 -0.047905 -0.206116 138 138 138
0.319889 -0.043638 -0.206987 138 138 138
0.320792 -0.039526 -0.207784 138 138 138
0.321322 -0.035673 -0.208453 138 138 138
0.321453 -0.032095 -0.208987 138 138 138
0.321487 -0.028586 -0.209488 138 138 138
0.321506 -0.025093 -0.209983 138 138 138
0.321339 -0.021728 -0.210415 138 138 138
0.321118 -0.018402 -0.210828 138 138 138
0.321070 -0.014966 -0.211298 138 138 138
0.321007 -0.011544 -0.211763 138 138 138
0.320944 -0.008126 -0.212228 138 138 138
0.320943 -0.004671 -0.212712 138 138 138
0.321100 -0.001116 -0.213250 138 138 138
0.321100 0.002330 -0.213733 138 138 138
0.321135 0.005795 -0.214228 138 138 138
0.321303 0.009342 -0.214767 138 138 138
0.321470 0.012884 -0.215304 138 138 138
0.321636 0.016422 -0.215842 138 138 138
0.321667 0.019865 -0.216332 138 138 138
0.321596 0.023239 -0.216788 138 138 138
0.321513 0.026600 -0.217240 138 138 138
0.321409 0.029944 -0.217684 138 138 138
0.321100 0.033152 -0.218059 138 138 138
0.320818 0.036373 -0.218443 138 138 138
0.320509 0.039575 -0.218817 138 138 138
0.320117 0.042719 -0.219163 138 138 138
0.319685 0.045835 -0.219495 138 138 138
0.319223 0.048929 -0.219818 138 138 138
0.318742 0.052007 -0.220132 138 138 138
0.318250 0.055077 -0.220444 138 138 138
0.317746 0.058135 -0.220750 138 138 138
0.317242 0.061192 -0.221057 138 138 138
0.316748 0.064251 -0.221366 138 138 138
0.316229 0.067292 -0.221667 138 138 138
0.315690 0.070318 -0.221961 138 138 138
0.315153 0.073342 -0.222254 138 138 138
0.314648 0.076384 -0.222559 138 138 138
0.314077 0.079382 -0.222841 138 138 138
0.313436 0.082334 -0.223099 138 138 138
0.312796 0.085285 -0.223358 138 138 138
0.312158 0.088234 -0.223617 138 138 138
0.311278 0.091032 -0.223795 138 138 138
0.310367 0.093809 -0.223964 138 138 138
0.309456 0.096585 -0.224132 138 138 138
0.308545 0.099359 -0.224300 138 138 138
0.307172 0.101850 -0.224316 138 138 138
0.305651 0.104251 -0.224283 138 138 138
0.304154 0.106666 -0.224258 138 138 138
0.302733 0.109127 -0.224258 138 138 138
0.301084 0.111451 -0.224183 138 138 138
0.299536 0.113837 -0.224142 138 138 138
0.297988 0.116222 -0.224100 138 138 138
0.296357 0.118559 -0.224032 138 138 138
0.294683 0.120870 -0.223949 138 138 138
0.293229 0.123313 -0.223939 138 138 138
0.291792 0.125766 -0.223933 138 138 138
0.290358 0.128222 -0.223929 138 138 138
0.289011 0.130729 -0.223954 139 139 139
0.287656 0.133231 -0.223976 139 139 139
0.286276 0.135718 -0.223989 139 139 139
0.284900 0.138207 -0.224004 139 139 139
0.283523 0.140696 -0.224019 140 140 140
0.282120 0.143169 -0.224025 140 140 140
0.280673 0.145617 -0.224017 140 140 140
0.279226 0.148064 -0.224008 140 140 140
0.277809 0.150530 -0.224010 140 140 140
0.276461 0.153034 -0.224034 140 140 140
0.275124 0.155546 -0.224061 141 141 141
0.273786 0.158056 -0.224088 141 141 141
0.272447 0.160566 -0.224115 141 141 141
0.271103 0.163072 -0.224140 141 141 141
0.269806 0.165605 -0.224180 141 141 141
0.268515 0.168142 -0.224223 142 142 142
0.267235 0.170684 -0.224268 143 143 143
0.266006 0.173255 -0.224330 143 143 143
0.264784 0.175829 -0.224394 143 143 143
0.263567 0.178406 -0.224460 142 142 142
0.262343 0.180978 -0.224524 142 142 142
0.261053 0.183512 -0.224566 142 142 142
0.259757 0.186043 -0.224606 143 143 143
0.258450 0.188566 -0.224642 143 143 143
0.257142 0.191090 -0.224679 143 143 143
0.255867 0.193631 -0.224725 143 143 143
0.254611 0.196183 -0.224778 142 142 142
0.253429 0.198774 -0.224854 141 141 141
0.252259 0.201373 -0.224935 140 140 140
0.251108 0.203980 -0.225021 139 139 139
0.249958 0.206588 -0.225107 140 140 140
0.248827 0.209205 -0.225200 141 141 141
0.247700 0.211824 -0.225293 142 142 142
0.246552 0.214430 -0.225380 143 143 143
0.245347 0.217005 -0.225449 143 143 143
0.244157 0.219587 -0.225522 142 142 142
0.242975 0.222173 -0.225597 141 141 141
0.241788 0.224755 -0.225671 141 141 141
0.240600 0.227337 -0.225745 141 141 141
0.239449 0.229937 -0.225830 141 141 141
0.238350 0.232565 -0.225932 142 142 142
0.237252 0.235193 -0.226033 142 142 142
0.236129 0.237806 -0.226127 142 142 142
0.234994 0.240412 -0.226217 141 141 141
0.233834 0.243004 -0.226299 141 141 141
0.232703 0.245611 -0.226390 140 140 140
0.231594 0.248228 -0.226488 140 140 140
0.230486 0.250846 -0.226586 140 140 140
0.229170 0.253352 -0.226617 140 140 140
0.227852 0.255858 -0.226649 140 140 140
0.226519 0.258356 -0.226675 140 140 140
0.225165 0.260842 -0.226695 140 140 140
0.223730 0.263286 -0.226689 139 139 139
0.222260 0.265712 -0.226672 138 138 138
0.220806 0.268146 -0.226660 138 138 138
0.219355 0.270581 -0.226650 138 138 138
0.217851 0.272990 -0.226622 138 138 138
0.216353 0.275402 -0.226596 138 138 138
0.214795 0.277784 -0.226552 138 138 138
0.213163 0.280128 -0.226484 138 138 138
0.211466 0.282439 -0.226396 138 138 138
0.209955 0.284846 -0.226367 138 138 138
0.208454 0.287258 -0.226340 138 138 138
0.206987 0.289688 -0.226325 138 138 138
0.205524 0.292120 -0.226310 138 138 138
0.203997 0.294519 -0.226276 138 138 138
0.202389 0.296879 -0.226216 138 138 138
0.200537 0.299116 -0.226080 138 138 138
0.198684 0.301354 -0.225944 138 138 138
0.196780 0.303568 -0.225792 138 138 138
0.194482 0.305588 -0.225516 138 138 138
0.192000 0.307518 -0.225184 138 138 138
0.189515 0.309451 -0.224851 138 138 138
0.187029 0.311385 -0.224518 138 138 138
0.184296 0.313201 -0.224109 138 138 138
0.181224 0.314853 -0.223594 138 138 138
0.177474 0.316180 -0.222868 138 138 138
0.174007 0.317650 -0.222232 138 138 138
0.170540 0.319125 -0.221596 138 138 138
0.166692 0.320421 -0.220842 138 138 138
0.162281 0.321451 -0.219915 138 138 138
0.157997 0.322550 -0.219027 138 138 138
0.154175 0.323878 -0.218285 138 138 138
0.150500 0.325284 -0.217589 138 138 138
0.146464 0.326522 -0.216781 138 138 138
0.142807 0.327949 -0.216093 138 138 138
0.139526 0.329559 -0.215521 138 138 138
0.136376 0.331237 -0.214990 138 138 138
0.133305 0.332956 -0.214485 138 138 138
0.130278 0.334701 -0.213994 138 138 138
0.127657 0.336640 -0.213629 138 138 138
0.125299 0.338707 -0.213346 138 138 138
0.122710 0.340667 -0.212992 138 138 138
0.119927 0.342539 -0.212578 138 138 138
0.117123 0.344406 -0.212158 138 138 138
0.114043 0.346148 -0.211654 138 138 138
0.110190 0.347536 -0.210912 138 138 138
0.105779 0.348672 -0.210000 138 138 138
0.101706 0.349972 -0.209192 138 138 138
0.094572 0.349873 -0.207444 138 138 138
0.066372 0.340145 -0.199223 138 138 138
0.057911 0.339496 -0.197075 138 138 138
0.052854 0.340414 -0.195974 138 138 138
