ply
format ascii 1.0
element vertex 1222
property float x
property float y
property float z
property uchar red
property uchar green
property uchar blue
end_header
0.323522 0.169537 0.258377 180 180 180
0.321582 0.172409 0.257680 180 180 180
0.319457 0.174890 0.257180 180 180 180
0.317315 0.177332 0.256701 180 180 180
0.315172 0.179767 0.256224 180 180 180
0.313047 0.182234 0.255730 181 181 181
0.310967 0.184786 0.255192 182 182 182
0.308980 0.187520 0.254561 183 183 183
0.307062 0.190388 0.253860 184 184 184
0.305370 0.193702 0.252929 184 184 184
0.304191 0.198035 0.251475 188 188 188
0.303191 0.202713 0.249843 187 187 187
0.302199 0.207387 0.248211 187 187 187
0.301456 0.212540 0.246330 186 186 186
0.300371 0.216995 0.244806 184 184 184
0.299208 0.221277 0.243369 182 182 182
0.297935 0.225328 0.242048 181 181 181
0.296664 0.229367 0.240733 180 180 180
0.295309 0.233228 0.239507 180 180 180
0.293775 0.236725 0.238468 179 179 179
0.292325 0.240375 0.237348 178 178 178
0.290900 0.244063 0.236207 177 177 177
0.289301 0.247399 0.235246 176 176 176
0.287289 0.249926 0.234703 176 176 176
0.285304 0.252499 0.234135 175 175 175
0.283320 0.255069 0.233568 175 175 175
0.281317 0.257595 0.233023 174 174 174
0.279150 0.259802 0.232642 173 173 173
0.276949 0.261939 0.232297 173 173 173
0.274707 0.263995 0.231994 173 173 173
0.272466 0.266049 0.231692 174 174 174
0.270188 0.268031 0.231426 174 174 174
0.267682 0.269579 0.231386 175 175 175
0.265177 0.271127 0.231345 176 176 176
0.262890 0.273086 0.231091 179 179 179
0.260733 0.275285 0.230712 179 179 179
0.258401 0.277153 0.230504 183 183 183
0.256694 0.280185 0.229689 184 184 184
0.255249 0.283695 0.228624 186 186 186
0.254047 0.287647 0.227327 187 187 187
0.252963 0.291802 0.225923 186 186 186
0.251916 0.296010 0.224488 186 186 186
0.250871 0.300210 0.223056 186 186 186
0.249701 0.304164 0.221751 186 186 186
0.248555 0.308148 0.220429 184 184 184
0.247464 0.312221 0.219058 183 183 183
0.246505 0.316520 0.217567 183 183 183
0.245035 0.319875 0.216569 183 183 183
0.243515 0.323129 0.215623 182 182 182
0.241996 0.326378 0.214679 182 182 182
0.240178 0.329077 0.214022 180 180 180
0.238202 0.331484 0.213518 179 179 179
0.236023 0.333526 0.213206 177 177 177
0.233830 0.335536 0.212910 177 177 177
0.231659 0.337585 0.212593 176 176 176
0.229228 0.339168 0.212522 176 176 176
0.226585 0.340374 0.212649 175 175 175
0.223778 0.341292 0.212929 175 175 175
0.220951 0.342176 0.213227 175 175 175
0.218078 0.342984 0.213566 175 175 175
0.215199 0.343783 0.213909 176 176 176
0.212107 0.344214 0.214448 176 176 176
0.209035 0.344684 0.214967 176 176 176
0.205990 0.345206 0.215459 176 176 176
0.203016 0.345858 0.215883 178 178 178
0.200223 0.346826 0.216140 178 178 178
0.197618 0.348121 0.216223 179 179 179
0.195289 0.349893 0.216053 179 179 179
0.192948 0.351643 0.215894 180 180 180
0.190608 0.353392 0.215736 180 180 180
0.188592 0.355695 0.215283 180 180 180
0.186677 0.358166 0.214739 181 181 181
0.184765 0.360636 0.214195 180 180 180
0.182858 0.363109 0.213649 180 180 180
0.180892 0.365477 0.213158 179 179 179
0.178867 0.367742 0.212722 177 177 177
0.176906 0.370109 0.212230 175 175 175
0.175018 0.372595 0.211675 175 175 175
0.172887 0.374668 0.211339 172 172 172
0.170874 0.376935 0.210899 170 170 170
0.168895 0.379254 0.210431 167 167 167
0.166703 0.381216 0.210154 165 165 165
0.164504 0.383164 0.209884 163 163 163
0.162143 0.384840 0.209759 156 156 156
0.159635 0.386272 0.209765 153 153 153
0.157244 0.387897 0.209668 151 151 151
0.154838 0.389497 0.209584 150 150 150
0.152345 0.390954 0.209577 148 148 148
0.149663 0.392102 0.209737 147 147 147
0.146899 0.393117 0.209968 145 145 145
0.143994 0.393906 0.210322 139 139 139
0.141154 0.394803 0.210617 144 144 144
0.138253 0.395604 0.210965 145 145 145
0.135350 0.396405 0.211313 145 145 145
0.132503 0.397301 0.211611 148 148 148
0.129573 0.398064 0.211981 150 150 150
0.126509 0.398618 0.212464 151 151 151
0.123443 0.399172 0.212949 152 152 152
0.120413 0.399788 0.213400 154 154 154
0.117606 0.400763 0.213657 159 159 159
0.114697 0.401578 0.214001 164 164 164
0.112010 0.402747 0.214153 165 165 165
0.109339 0.403944 0.214291 164 164 164
0.106668 0.405141 0.214428 164 164 164
0.103975 0.406305 0.214584 164 164 164
0.101139 0.407246 0.214861 164 164 164
0.098306 0.408195 0.215134 163 163 163
0.095426 0.409073 0.215446 163 163 163
0.092492 0.409870 0.215804 165 165 165
0.089612 0.410754 0.216113 168 168 168
0.086762 0.411687 0.216397 169 169 169
0.083634 0.412194 0.216914 169 169 169
0.080450 0.412618 0.217478 168 168 168
0.077203 0.412951 0.218091 166 166 166
0.073601 0.412746 0.219000 162 162 162
0.070004 0.412557 0.219903 158 158 158
0.065832 0.411500 0.221282 154 154 154
0.061742 0.410579 0.222589 149 149 149
0.057686 0.409722 0.223862 143 143 143
0.053473 0.408637 0.225262 139 139 139
0.049081 0.407296 0.226806 138 138 138
0.044878 0.406252 0.228187 138 138 138
0.040671 0.405215 0.229567 138 138 138
0.036418 0.404121 0.230980 138 138 138
0.032051 0.402869 0.232482 138 138 138
0.027694 0.401643 0.233971 138 138 138
0.022747 0.399556 0.235939 138 138 138
0.017761 0.397425 0.237934 138 138 138
0.012655 0.395135 0.240019 138 138 138
0.007670 0.393041 0.241998 138 138 138
0.002999 0.391428 0.243714 138 138 138
-0.001710 0.389774 0.245455 138 138 138
-0.006269 0.388354 0.247067 138 138 138
-0.010823 0.386956 0.248671 138 138 138
-0.015543 0.385328 0.250404 138 138 138
-0.020411 0.383501 0.252250 138 138 138
-0.025578 0.381255 0.254331 138 138 138
-0.030921 0.378772 0.256548 138 138 138
-0.036551 0.375893 0.258988 138 138 138
-0.042026 0.373259 0.261295 138 138 138
-0.047462 0.370698 0.263564 138 138 138
-0.052728 0.368403 0.265688 138 138 138
-0.058260 0.365744 0.268018 138 138 138
-0.073911 0.348650 0.278420 139 139 139
-0.108195 0.305090 0.303640 187 187 187
-0.114789 0.301111 0.306739 180 180 180
-0.118465 0.301297 0.307510 179 179 179
-0.122879 0.300446 0.308863 176 176 176
-0.126864 0.300211 0.309873 174 174 174
-0.130891 0.299926 0.310912 170 170 170
-0.134947 0.299608 0.311971 168 168 168
-0.138962 0.299356 0.312994 170 170 170
-0.142993 0.299091 0.314026 170 170 170
-0.146952 0.298935 0.314998 169 169 169
-0.153229 0.295561 0.317784 174 174 174
-0.164137 0.285778 0.324185 0 0 0
0.354043 0.062916 0.290424 145 145 145
0.354383 0.071124 0.287087 195 195 195
0.354425 0.078635 0.284095 191 191 191
0.353603 0.084215 0.282068 190 190 190
0.352744 0.089690 0.280091 190 190 190
0.351467 0.094231 0.278581 188 188 188
0.350237 0.098857 0.277026 188 188 188
0.349116 0.103702 0.275360 188 188 188
0.348138 0.108835 0.273546 188 188 188
0.347281 0.114207 0.271610 187 187 187
0.346527 0.119781 0.269570 187 187 187
0.345457 0.124652 0.267881 187 187 187
0.344271 0.129257 0.266325 183 183 183
0.343017 0.133700 0.264848 183 183 183
0.341767 0.138131 0.263375 182 182 182
0.340174 0.141821 0.262276 182 182 182
0.338458 0.145239 0.261312 182 182 182
0.336791 0.148749 0.260301 181 181 181
0.335279 0.152574 0.259129 181 181 181
0.333577 0.155986 0.258164 181 181 181
0.331902 0.159443 0.257176 180 180 180
0.330269 0.162978 0.256147 180 180 180
0.328426 0.166066 0.255343 180 180 180
0.326533 0.169040 0.254596 179 179 179
0.324569 0.171858 0.253927 179 179 179
0.322644 0.174750 0.253221 179 179 179
0.320552 0.177291 0.252691 179 179 179
0.318447 0.179800 0.252178 180 180 180
0.316347 0.182314 0.251661 180 180 180
0.314309 0.184947 0.251082 182 182 182
0.312481 0.188002 0.250288 183 183 183
0.310791 0.191326 0.249356 184 184 184
0.309102 0.194642 0.248427 185 185 185
0.307675 0.198476 0.247232 187 187 187
0.306565 0.202932 0.245717 185 185 185
0.305457 0.207378 0.244206 186 186 186
0.304478 0.212063 0.242570 185 185 185
0.303170 0.216076 0.241277 183 183 183
0.301580 0.219513 0.240277 182 182 182
0.300384 0.223723 0.238880 181 181 181
0.299111 0.227762 0.237568 181 181 181
0.297642 0.231405 0.236458 179 179 179
0.296186 0.235059 0.235341 178 178 178
0.294678 0.238600 0.234281 178 178 178
0.293250 0.242285 0.233145 177 177 177
0.291688 0.245698 0.232148 176 176 176
0.289891 0.248644 0.231391 175 175 175
0.287922 0.251248 0.230808 174 174 174
0.285955 0.253849 0.230227 173 173 173
0.283989 0.256447 0.229646 173 173 173
0.282001 0.258997 0.229089 172 172 172
0.279829 0.261187 0.228717 173 173 173
0.277658 0.263376 0.228346 173 173 173
0.275484 0.265556 0.227979 173 173 173
0.273301 0.267715 0.227622 174 174 174
0.271034 0.269709 0.227350 175 175 175
0.268716 0.271606 0.227128 177 177 177
0.266493 0.273679 0.226814 177 177 177
0.264272 0.275752 0.226501 177 177 177
0.262343 0.278370 0.225903 180 180 180
0.260259 0.280692 0.225459 183 183 183
0.258815 0.284202 0.224397 184 184 184
0.257359 0.287679 0.223350 184 184 184
0.256062 0.291440 0.222154 185 185 185
0.254949 0.295529 0.220786 185 185 185
0.253852 0.299634 0.219408 185 185 185
0.252633 0.303500 0.218152 185 185 185
0.251458 0.307435 0.216859 184 184 184
0.250379 0.311533 0.215479 183 183 183
0.249320 0.315651 0.214087 182 182 182
0.247994 0.319270 0.212954 179 179 179
0.246493 0.322560 0.211992 179 179 179
0.244992 0.325841 0.211033 178 178 178
0.243493 0.329114 0.210078 178 178 178
0.241581 0.331634 0.209516 174 174 174
0.239428 0.333716 0.209182 176 176 176
0.237257 0.335763 0.208867 176 176 176
0.235088 0.337810 0.208552 175 175 175
0.232920 0.339855 0.208237 175 175 175
0.230420 0.341308 0.208233 175 175 175
0.227769 0.342493 0.208370 174 174 174
0.225209 0.343839 0.208423 175 175 175
0.222468 0.344867 0.208643 175 175 175
0.219555 0.345594 0.209022 176 176 176
0.216677 0.346386 0.209367 176 176 176
0.213805 0.347194 0.209705 177 177 177
0.210681 0.347564 0.210274 177 177 177
0.207724 0.348230 0.210687 178 178 178
0.205000 0.349305 0.210885 180 180 180
0.202301 0.350424 0.211059 180 180 180
0.199745 0.351794 0.211101 180 180 180
0.197241 0.353252 0.211097 180 180 180
0.194865 0.354931 0.210974 180 180 180
0.192654 0.356891 0.210703 181 181 181
0.190739 0.359356 0.210164 181 181 181
0.188749 0.361687 0.209694 180 180 180
0.186740 0.363982 0.209244 180 180 180
0.184733 0.366274 0.208794 179 179 179
0.182648 0.368432 0.208415 178 178 178
0.180517 0.370507 0.208079 177 177 177
0.178211 0.372284 0.207902 176 176 176
0.175818 0.373914 0.207804 173 173 173
0.173596 0.375830 0.207553 171 171 171
0.171530 0.378004 0.207163 169 169 169
0.169393 0.380055 0.206839 167 167 167
0.167136 0.381903 0.206622 161 161 161
0.164740 0.383520 0.206529 158 158 158
0.162347 0.385141 0.206435 156 156 156
0.159749 0.386422 0.206521 153 153 153
0.157167 0.387731 0.206594 150 150 150
0.154761 0.389330 0.206510 148 148 148
0.152178 0.390637 0.206583 148 148 148
0.149367 0.391573 0.206856 143 143 143
0.146612 0.392602 0.207079 141 141 141
0.143715 0.393404 0.207425 141 141 141
0.140878 0.394305 0.207717 145 145 145
0.138045 0.395216 0.208005 146 146 146
0.135143 0.396017 0.208352 147 147 147
0.132304 0.396924 0.208643 149 149 149
0.129490 0.397873 0.208911 152 152 152
0.126469 0.398493 0.209358 153 153 153
0.123709 0.399536 0.209576 157 157 157
0.120968 0.400608 0.209779 161 161 161
0.118253 0.401725 0.209958 164 164 164
0.115572 0.402898 0.210106 165 165 165
0.112904 0.404092 0.210244 167 167 167
0.110235 0.405287 0.210381 168 168 168
0.107566 0.406481 0.210519 168 168 168
0.104993 0.407829 0.210574 168 168 168
0.102384 0.409120 0.210659 167 167 167
0.099499 0.409980 0.210979 167 167 167
0.096622 0.410857 0.211290 167 167 167
0.093682 0.411638 0.211654 168 168 168
0.090739 0.412418 0.212019 169 169 169
0.087814 0.413228 0.212368 170 170 170
0.084728 0.413794 0.212851 170 170 170
0.081680 0.414423 0.213300 169 169 169
0.078474 0.414813 0.213879 168 168 168
0.074594 0.414176 0.215022 164 164 164
0.071001 0.413987 0.215920 161 161 161
0.066911 0.413049 0.217230 156 156 156
0.062544 0.411702 0.218766 152 152 152
0.058256 0.410487 0.220231 146 146 146
0.054148 0.409557 0.221543 141 141 141
0.049663 0.408072 0.223160 138 138 138
0.045303 0.406787 0.224670 138 138 138
0.041097 0.405748 0.226046 138 138 138
0.036880 0.404705 0.227427 138 138 138
0.032580 0.403548 0.228872 138 138 138
0.028314 0.402457 0.230283 138 138 138
0.023514 0.400583 0.232127 138 138 138
0.018534 0.398457 0.234113 138 138 138
0.012569 0.394890 0.236896 138 138 138
0.007367 0.392474 0.239048 138 138 138
0.002469 0.390525 0.240945 138 138 138
-0.002247 0.388861 0.242686 138 138 138
-0.006639 0.387687 0.244159 138 138 138
-0.011210 0.386263 0.245772 138 138 138
-0.015632 0.385070 0.247259 138 138 138
-0.020459 0.383301 0.249069 138 138 138
-0.025579 0.381121 0.251108 138 138 138
-0.030871 0.378711 0.253277 138 138 138
-0.036523 0.375796 0.255730 138 138 138
-0.042117 0.372989 0.258127 138 138 138
-0.047589 0.370376 0.260419 138 138 138
-0.052946 0.367949 0.262610 138 138 138
-0.058389 0.365416 0.264864 138 138 138
-0.071589 0.351821 0.273287 138 138 138
-0.078473 0.347299 0.276660 148 148 148
-0.087674 0.339511 0.281861 174 174 174
-0.114745 0.306419 0.301205 181 181 181
-0.119867 0.304551 0.303121 178 178 178
-0.124242 0.303754 0.304440 177 177 177
-0.128974 0.302465 0.306036 175 175 175
-0.133199 0.301902 0.307228 174 174 174
-0.137486 0.301262 0.308465 172 172 172
-0.141668 0.300779 0.309615 171 171 171
-0.145680 0.300542 0.310629 170 170 170
-0.149640 0.300387 0.311598 170 170 170
-0.156323 0.296459 0.314690 173 173 173
0.359085 0.059369 0.287296 145 145 145
0.359324 0.067389 0.284065 195 195 195
0.359002 0.074129 0.281470 190 190 190
0.357879 0.079072 0.279769 190 190 190
0.356970 0.084464 0.277842 188 188 188
0.355814 0.089290 0.276195 188 188 188
0.354543 0.093846 0.274682 187 187 187
0.353336 0.098526 0.273105 187 187 187
0.352262 0.103475 0.271391 186 186 186
0.351206 0.108443 0.269665 187 187 187
0.350151 0.113394 0.267946 186 186 186
0.349330 0.118831 0.265981 185 185 185
0.348125 0.123417 0.264440 185 185 185
0.346874 0.127889 0.262956 184 184 184
0.345681 0.132466 0.261416 182 182 182
0.344368 0.136770 0.260012 181 181 181
0.342815 0.140548 0.258871 181 181 181
0.341207 0.144195 0.257795 181 181 181
0.339520 0.147664 0.256807 181 181 181
0.337998 0.151470 0.255648 181 181 181
0.336381 0.155063 0.254595 180 180 180
0.334731 0.158576 0.253581 180 180 180
0.333097 0.162109 0.252555 179 179 179
0.331450 0.165605 0.251547 180 180 180
0.329510 0.168481 0.250852 179 179 179
0.327583 0.171374 0.250148 179 179 179
0.325657 0.174263 0.249444 179 179 179
0.323716 0.177114 0.248759 179 179 179
0.321612 0.179621 0.248247 179 179 179
0.319546 0.182201 0.247698 182 182 182
0.317631 0.185081 0.246995 182 182 182
0.315724 0.187972 0.246286 183 183 183
0.314021 0.191269 0.245370 183 183 183
0.312364 0.194650 0.244410 184 184 184
0.310840 0.198286 0.243319 184 184 184
0.309592 0.202467 0.241949 184 184 184
0.308480 0.206907 0.240445 184 184 184
0.307361 0.211316 0.238955 183 183 183
0.305975 0.215176 0.237743 182 182 182
0.304363 0.218572 0.236767 182 182 182
0.302785 0.222025 0.235761 181 181 181
0.301512 0.226071 0.234450 180 180 180
0.299975 0.229584 0.233410 178 178 178
0.298517 0.233238 0.232296 178 178 178
0.297061 0.236885 0.231185 177 177 177
0.295599 0.240509 0.230085 176 176 176
0.293931 0.243718 0.229195 175 175 175
0.292226 0.246845 0.228347 174 174 174
0.290464 0.249855 0.227558 173 173 173
0.288502 0.252465 0.226973 173 173 173
0.286569 0.255128 0.226360 171 171 171
0.284547 0.257613 0.225839 171 171 171
0.282527 0.260095 0.225318 172 172 172
0.280378 0.262324 0.224926 172 172 172
0.278208 0.264510 0.224557 172 172 172
0.276040 0.266695 0.224187 173 173 173
0.273943 0.269013 0.223749 173 173 173
0.271951 0.271523 0.223210 175 175 175
0.269874 0.273868 0.222756 177 177 177
0.267799 0.276212 0.222303 177 177 177
0.265649 0.278409 0.221924 178 178 178
0.263735 0.281046 0.221318 181 181 181
0.262244 0.284466 0.220305 183 183 183
0.260831 0.288023 0.219219 183 183 183
0.259422 0.291574 0.218135 184 184 184
0.258031 0.295148 0.217038 184 184 184
0.256804 0.299015 0.215787 184 184 184
0.255488 0.302705 0.214627 184 184 184
0.254202 0.306438 0.213443 183 183 183
0.253048 0.310401 0.212137 183 183 183
0.251803 0.314183 0.210925 182 182 182
0.250552 0.317943 0.209722 180 180 180
0.249174 0.321459 0.208645 178 178 178
0.247674 0.324742 0.207688 177 177 177
0.246136 0.327948 0.206770 175 175 175
0.244333 0.330665 0.206106 174 174 174
0.242374 0.333096 0.205591 174 174 174
0.240348 0.335400 0.205142 174 174 174
0.238324 0.337702 0.204693 173 173 173
0.236301 0.340003 0.204245 173 173 173
0.234008 0.341817 0.204051 173 173 173
0.231406 0.343081 0.204145 172 172 172
0.228889 0.344497 0.204160 173 173 173
0.226331 0.345839 0.204213 174 174 174
0.223727 0.347103 0.204308 174 174 174
0.221123 0.348365 0.204403 175 175 175
0.218319 0.349278 0.204683 175 175 175
0.215418 0.350025 0.205050 177 177 177
0.212778 0.351230 0.205177 178 178 178
0.210190 0.352528 0.205255 179 179 179
0.207554 0.353741 0.205377 180 180 180
0.204834 0.354813 0.205574 181 181 181
0.202199 0.356031 0.205694 181 181 181
0.199709 0.357501 0.205682 182 182 182
0.197345 0.359187 0.205554 182 182 182
0.195139 0.361144 0.205284 182 182 182
0.192955 0.363135 0.204995 182 182 182
0.190772 0.365125 0.204706 182 182 182
0.188602 0.367135 0.204406 181 181 181
0.186535 0.369316 0.204015 180 180 180
0.184221 0.371075 0.203847 178 178 178
0.181867 0.372766 0.203716 177 177 177
0.179513 0.374455 0.203585 175 175 175
0.177125 0.376086 0.203485 173 173 173
0.174726 0.377697 0.203396 171 171 171
0.172124 0.378968 0.203488 166 166 166
0.169726 0.380581 0.203397 161 161 161
0.167334 0.382201 0.203303 159 159 159
0.164942 0.383822 0.203208 157 157 157
0.162515 0.385384 0.203144 155 155 155
0.159878 0.386598 0.203266 153 153 153
0.157240 0.387812 0.203389 150 150 150
0.154684 0.389163 0.203438 146 146 146
0.151948 0.390216 0.203646 143 143 143
0.149214 0.391278 0.203851 144 144 144
0.146371 0.392163 0.204150 144 144 144
0.143451 0.392925 0.204516 144 144 144
0.140574 0.393761 0.204843 147 147 147
0.137764 0.394708 0.205110 148 148 148
0.134936 0.395629 0.205392 148 148 148
0.132105 0.396547 0.205676 150 150 150
0.129626 0.398033 0.205654 153 153 153
0.127132 0.399495 0.205645 155 155 155
0.124484 0.400712 0.205769 157 157 157
0.121811 0.401888 0.205914 161 161 161
0.119099 0.403004 0.206093 164 164 164
0.116408 0.404156 0.206252 167 167 167
0.113778 0.405406 0.206358 170 170 170
0.111226 0.406779 0.206398 171 171 171
0.108663 0.408135 0.206447 171 171 171
0.106099 0.409491 0.206496 171 171 171
0.103536 0.410847 0.206545 171 171 171
0.100847 0.412008 0.206700 171 171 171
0.097911 0.412786 0.207063 171 171 171
0.095033 0.413656 0.207376 172 172 172
0.092303 0.414760 0.207563 173 173 173
0.089596 0.415900 0.207731 172 172 172
0.086266 0.416081 0.208420 171 171 171
0.083072 0.416476 0.208994 171 171 171
0.079947 0.416984 0.209508 170 170 170
0.075793 0.415919 0.210879 166 166 166
0.071997 0.415415 0.211946 163 163 163
0.067890 0.414446 0.213269 159 159 159
0.063695 0.413353 0.214661 154 154 154
0.059255 0.411903 0.216250 149 149 149
0.054804 0.410450 0.217843 144 144 144
0.050422 0.409114 0.219373 138 138 138
0.046046 0.407801 0.220894 138 138 138
0.041731 0.406595 0.222358 138 138 138
0.037613 0.405694 0.223656 138 138 138
0.033460 0.404755 0.224977 138 138 138
0.029200 0.403665 0.226383 138 138 138
0.024243 0.401553 0.228352 138 138 138
0.019201 0.399331 0.230385 138 138 138
0.011949 0.393854 0.234211 138 138 138
0.006742 0.391431 0.236361 138 138 138
0.001842 0.389481 0.238253 138 138 138
-0.002821 0.387893 0.239948 138 138 138
-0.007087 0.386905 0.241315 138 138 138
-0.011580 0.385595 0.242860 138 138 138
-0.016027 0.384365 0.244364 138 138 138
-0.020530 0.383067 0.245908 138 138 138
-0.025597 0.380963 0.247899 138 138 138
-0.030863 0.378587 0.250044 138 138 138
-0.036495 0.375701 0.252474 138 138 138
-0.042208 0.372720 0.254960 138 138 138
-0.047716 0.370054 0.257275 138 138 138
-0.053165 0.367492 0.259536 138 138 138
-0.058554 0.365036 0.261740 138 138 138
-0.066905 0.358368 0.266289 138 138 138
-0.077501 0.348537 0.272604 139 139 139
-0.083479 0.345326 0.275243 155 155 155
-0.091665 0.339005 0.279617 173 173 173
-0.104120 0.326681 0.287344 186 186 186
-0.118895 0.311145 0.296873 182 182 182
-0.124546 0.308543 0.299195 180 180 180
-0.130040 0.306179 0.301387 179 179 179
-0.134824 0.304830 0.303015 177 177 177
-0.139339 0.303872 0.304427 175 175 175
-0.143705 0.303132 0.305718 174 174 174
-0.147850 0.302711 0.306832 173 173 173
-0.152001 0.302290 0.307948 171 171 171
-0.159518 0.297215 0.311676 171 171 171
0.364149 0.055876 0.284142 145 145 145
0.364008 0.063083 0.281328 195 195 195
0.363464 0.069361 0.278973 190 190 190
0.362398 0.074452 0.277205 187 187 187
0.361205 0.079240 0.275586 188 188 188
0.360135 0.084279 0.273841 186 186 186
0.358810 0.088738 0.272382 186 186 186
0.357479 0.093167 0.270936 186 186 186
0.356156 0.097595 0.269489 185 185 185
0.354907 0.102169 0.267968 185 185 185
0.353832 0.107104 0.266264 185 185 185
0.352774 0.112055 0.264550 185 185 185
0.352022 0.117647 0.262513 184 184 184
0.350795 0.122191 0.260998 184 184 184
0.349538 0.126654 0.259523 183 183 183
0.348299 0.131140 0.258034 182 182 182
0.346890 0.135243 0.256735 180 180 180
0.345308 0.138962 0.255627 180 180 180
0.343743 0.142707 0.254504 180 180 180
0.342136 0.146349 0.253433 180 180 180
0.340528 0.149975 0.252367 180 180 180
0.339020 0.153803 0.251199 180 180 180
0.337422 0.157425 0.250134 180 180 180
0.335778 0.160941 0.249120 179 179 179
0.334121 0.164417 0.248125 179 179 179
0.332396 0.167741 0.247206 178 178 178
0.330504 0.170707 0.246466 178 178 178
0.328614 0.173670 0.245727 178 178 178
0.326726 0.176628 0.244989 177 177 177
0.324813 0.179527 0.244280 180 180 180
0.322902 0.182421 0.243573 181 181 181
0.320992 0.185311 0.242867 183 183 183
0.319085 0.188198 0.242162 182 182 182
0.317244 0.191210 0.241392 183 183 183
0.315699 0.194816 0.240321 183 183 183
0.314172 0.198448 0.239234 183 183 183
0.312649 0.202074 0.238150 184 184 184
0.311502 0.206445 0.236685 183 183 183
0.310109 0.210308 0.235477 182 182 182
0.308667 0.214058 0.234325 181 181 181
0.307086 0.217518 0.233319 181 181 181
0.305471 0.220899 0.232352 180 180 180
0.303786 0.224132 0.231460 179 179 179
0.302221 0.227591 0.230451 177 177 177
0.300735 0.231196 0.229366 177 177 177
0.299251 0.234794 0.228283 177 177 177
0.297719 0.238284 0.227254 174 174 174
0.296126 0.241646 0.226290 175 175 175
0.294423 0.244782 0.225440 174 174 174
0.292723 0.247914 0.224591 173 173 173
0.290971 0.250936 0.223797 171 171 171
0.289054 0.253630 0.223170 170 170 170
0.287087 0.256221 0.222595 171 171 171
0.285066 0.258703 0.222076 171 171 171
0.283048 0.261183 0.221557 171 171 171
0.280925 0.263458 0.221142 172 172 172
0.278785 0.265695 0.220747 173 173 173
0.276785 0.268195 0.220215 174 174 174
0.274787 0.270693 0.219684 175 175 175
0.272818 0.273241 0.219127 177 177 177
0.270743 0.275583 0.218675 177 177 177
0.268670 0.277924 0.218224 178 178 178
0.266789 0.280621 0.217587 178 178 178
0.265119 0.283706 0.216750 181 181 181
0.263689 0.287232 0.215683 181 181 181
0.262271 0.290768 0.214610 182 182 182
0.260827 0.294245 0.213567 182 182 182
0.259412 0.297767 0.212498 182 182 182
0.258086 0.301441 0.211350 182 182 182
0.256772 0.305125 0.210194 182 182 182
0.255628 0.309111 0.208881 182 182 182
0.254325 0.312791 0.207725 181 181 181
0.253034 0.316481 0.206562 180 180 180
0.251781 0.320228 0.205368 178 178 178
0.250351 0.323642 0.204346 179 179 179
0.248683 0.326612 0.203553 173 173 173
0.246879 0.329329 0.202892 173 173 173
0.245077 0.332042 0.202231 173 173 173
0.243155 0.334533 0.201686 173 173 173
0.241130 0.336834 0.201239 173 173 173
0.239000 0.338942 0.200892 172 172 172
0.236799 0.340917 0.200614 171 171 171
0.234668 0.343018 0.200270 170 170 170
0.232458 0.344973 0.200002 172 172 172
0.230007 0.346497 0.199959 173 173 173
0.227450 0.347835 0.200014 173 173 173
0.224852 0.349100 0.200106 174 174 174
0.222263 0.350383 0.200190 175 175 175
0.219712 0.351732 0.200239 176 176 176
0.217234 0.353210 0.200220 177 177 177
0.214729 0.354641 0.200227 178 178 178
0.212158 0.355958 0.200293 180 180 180
0.209575 0.357254 0.200370 181 181 181
0.207083 0.358707 0.200364 181 181 181
0.204767 0.360466 0.200197 181 181 181
0.202436 0.362196 0.200046 182 182 182
0.200293 0.364248 0.199724 182 182 182
0.198106 0.366222 0.199443 182 182 182
0.195905 0.368170 0.199176 183 183 183
0.193652 0.370025 0.198957 182 182 182
0.191214 0.371565 0.198905 179 179 179
0.188576 0.372762 0.199033 178 178 178
0.185874 0.373854 0.199218 177 177 177
0.183168 0.374942 0.199405 176 176 176
0.180812 0.376621 0.199280 174 174 174
0.178430 0.378253 0.199178 172 172 172
0.175669 0.379250 0.199414 168 168 168
0.172861 0.380172 0.199690 165 165 165
0.170056 0.381101 0.199963 162 162 162
0.167535 0.382503 0.199984 159 159 159
0.165144 0.384123 0.199889 157 157 157
0.162643 0.385560 0.199892 155 155 155
0.160007 0.386773 0.200014 152 152 152
0.157321 0.387906 0.200179 150 150 150
0.154552 0.388904 0.200416 149 149 149
0.151815 0.389956 0.200625 147 147 147
0.149024 0.390923 0.200879 147 147 147
0.146106 0.391684 0.201244 147 147 147
0.143186 0.392447 0.201609 147 147 147
0.140269 0.393217 0.201969 146 146 146
0.137459 0.394164 0.202236 149 149 149
0.134891 0.395502 0.202293 150 150 150
0.132436 0.397023 0.202252 151 151 151
0.129990 0.398560 0.202203 153 153 153
0.127531 0.400075 0.202166 156 156 156
0.125062 0.401573 0.202137 158 158 158
0.122427 0.402806 0.202251 161 161 161
0.119781 0.404022 0.202374 164 164 164
0.117392 0.405649 0.202276 167 167 167
0.114974 0.407227 0.202204 170 170 170
0.112556 0.408805 0.202132 171 171 171
0.110120 0.410355 0.202076 173 173 173
0.107570 0.411726 0.202116 173 173 173
0.104918 0.412935 0.202243 174 174 174
0.102268 0.414150 0.202367 174 174 174
0.099658 0.415428 0.202458 174 174 174
0.096966 0.416579 0.202617 174 174 174
0.094279 0.417740 0.202771 174 174 174
0.091576 0.418878 0.202938 174 174 174
0.088498 0.419438 0.203418 174 174 174
0.084854 0.419132 0.204370 173 173 173
0.081415 0.419148 0.205148 171 171 171
0.077269 0.418088 0.206512 168 168 168
0.073267 0.417262 0.207750 166 166 166
0.069028 0.416084 0.209182 162 162 162
0.064954 0.415171 0.210472 158 158 158
0.060568 0.413796 0.212014 154 154 154
0.056126 0.412348 0.213599 149 149 149
0.051711 0.410957 0.215155 144 144 144
0.047341 0.409648 0.216668 139 139 139
0.042650 0.407869 0.218441 138 138 138
0.038438 0.406822 0.219814 138 138 138
0.034289 0.405884 0.221131 138 138 138
0.030084 0.404872 0.222489 138 138 138
0.025060 0.402655 0.224510 138 138 138
0.019552 0.399737 0.226918 138 138 138
0.011328 0.392817 0.231526 138 138 138
0.006117 0.390389 0.233673 138 138 138
0.001302 0.388563 0.235492 138 138 138
-0.003371 0.386963 0.237189 138 138 138
-0.007692 0.385893 0.238597 138 138 138
-0.011950 0.384926 0.239949 138 138 138
-0.016422 0.383660 0.241469 138 138 138
-0.020847 0.382475 0.242946 138 138 138
-0.025641 0.380767 0.244713 138 138 138
-0.031000 0.378254 0.246928 138 138 138
-0.036571 0.375455 0.249303 138 138 138
-0.042378 0.372336 0.251859 138 138 138
-0.048139 0.369306 0.254369 138 138 138
-0.053702 0.366580 0.256714 138 138 138
-0.059101 0.364110 0.258920 138 138 138
-0.066943 0.358167 0.263055 138 138 138
-0.076836 0.349336 0.268798 138 138 138
-0.082786 0.346162 0.271408 147 147 147
-0.088528 0.343304 0.273846 160 160 160
-0.095551 0.338654 0.277283 173 173 173
-0.105624 0.329726 0.283106 183 183 183
-0.117415 0.318428 0.290256 186 186 186
-0.122785 0.316215 0.292354 184 184 184
-0.128849 0.313045 0.294988 182 182 182
-0.134564 0.310386 0.297341 181 181 181
-0.139999 0.308136 0.299469 180 180 180
-0.144480 0.307234 0.300847 178 178 178
-0.149715 0.305296 0.302806 176 176 176
-0.154139 0.304497 0.304130 175 175 175
-0.162631 0.298086 0.308598 173 173 173
0.368154 0.057566 0.279189 196 196 196
0.367938 0.064609 0.276464 190 190 190
0.366879 0.069738 0.274685 187 187 187
0.365537 0.074216 0.273227 187 187 187
0.364198 0.078683 0.271772 183 183 183
0.362751 0.082895 0.270442 184 184 184
0.361323 0.087131 0.269098 185 185 185
0.359968 0.091514 0.267680 185 185 185
0.358789 0.096265 0.266077 184 184 184
0.357587 0.100945 0.264507 184 184 184
0.356387 0.105614 0.262941 185 185 185
0.355396 0.110717 0.261157 184 184 184
0.354485 0.115974 0.259293 183 183 183
0.353328 0.120677 0.257704 182 182 182
0.351944 0.124872 0.256367 182 182 182
0.350558 0.129047 0.255038 181 181 181
0.349082 0.133015 0.253810 180 180 180
0.347544 0.136834 0.252656 180 180 180
0.345963 0.140549 0.251553 179 179 179
0.344557 0.144624 0.250267 178 178 178
0.342906 0.148163 0.249249 179 179 179
0.341341 0.151874 0.248143 179 179 179
0.339924 0.155884 0.246886 179 179 179
0.338316 0.159479 0.245836 179 179 179
0.336634 0.162905 0.244869 179 179 179
0.334939 0.166294 0.243920 178 178 178
0.333227 0.169639 0.242992 178 178 178
0.331337 0.172600 0.242255 178 178 178
0.329422 0.175504 0.241547 179 179 179
0.327596 0.178581 0.240750 181 181 181
0.325835 0.181785 0.239889 180 180 180
0.323972 0.184770 0.239137 181 181 181
0.322111 0.187751 0.238386 181 181 181
0.320349 0.190923 0.237537 181 181 181
0.318767 0.194455 0.236506 181 181 181
0.317316 0.198239 0.235346 181 181 181
0.315867 0.202017 0.234187 182 182 182
0.314354 0.205650 0.233100 182 182 182
0.312656 0.208901 0.232206 181 181 181
0.311064 0.212353 0.231208 180 180 180
0.309574 0.216001 0.230111 179 179 179
0.307985 0.219437 0.229119 178 178 178
0.306238 0.222548 0.228290 178 178 178
0.304489 0.225646 0.227468 177 177 177
0.302850 0.228953 0.226538 175 175 175
0.301365 0.232553 0.225458 175 175 175
0.299808 0.236000 0.224455 174 174 174
0.298207 0.239351 0.223499 173 173 173
0.296598 0.242675 0.222556 173 173 173
0.294896 0.245808 0.221709 173 173 173
0.293152 0.248849 0.220908 170 170 170
0.291307 0.251686 0.220210 168 168 168
0.289394 0.254384 0.219582 170 170 170
0.287429 0.256974 0.219009 170 170 170
0.285466 0.259562 0.218436 171 171 171
0.283504 0.262147 0.217864 171 171 171
0.281592 0.264820 0.217246 173 173 173
0.279623 0.267379 0.216686 174 174 174
0.277625 0.269876 0.216157 174 174 174
0.275628 0.272370 0.215629 175 175 175
0.273683 0.274955 0.215053 177 177 177
0.271585 0.277248 0.214627 178 178 178
0.269824 0.280169 0.213877 178 178 178
0.268068 0.283093 0.213125 178 178 178
0.266448 0.286264 0.212244 181 181 181
0.265029 0.289799 0.211175 181 181 181
0.263540 0.293196 0.210175 181 181 181
0.262041 0.296563 0.209190 181 181 181
0.260668 0.300152 0.208089 181 181 181
0.259356 0.303843 0.206933 181 181 181
0.258134 0.307689 0.205697 181 181 181
0.256847 0.311403 0.204526 180 180 180
0.255553 0.315090 0.203369 179 179 179
0.254262 0.318773 0.202212 178 178 178
0.252958 0.322420 0.201072 176 176 176
0.251227 0.325277 0.200340 173 173 173
0.249423 0.327993 0.199681 172 172 172
0.247620 0.330707 0.199022 172 172 172
0.245821 0.333420 0.198362 171 171 171
0.243907 0.335919 0.197814 171 171 171
0.241666 0.337825 0.197572 170 170 170
0.239470 0.339810 0.197290 169 169 169
0.237277 0.341797 0.197006 169 169 169
0.235344 0.344245 0.196482 169 169 169
0.233199 0.346310 0.196156 170 170 170
0.230842 0.347997 0.196027 172 172 172
0.228593 0.349873 0.195800 173 173 173
0.226235 0.351554 0.195674 174 174 174
0.223718 0.352954 0.195695 175 175 175
0.221200 0.354354 0.195716 176 176 176
0.218766 0.355900 0.195661 177 177 177
0.216360 0.357495 0.195580 179 179 179
0.214028 0.359217 0.195432 180 180 180
0.211829 0.361169 0.195163 180 180 180
0.209509 0.362908 0.195006 181 181 181
0.207146 0.364573 0.194887 181 181 181
0.205006 0.366620 0.194568 181 181 181
0.202775 0.368508 0.194332 182 182 182
0.200474 0.370274 0.194159 181 181 181
0.198140 0.371981 0.194017 180 180 180
0.195812 0.373696 0.193871 179 179 179
0.193244 0.375003 0.193941 178 178 178
0.190523 0.376050 0.194147 177 177 177
0.187803 0.377101 0.194352 175 175 175
0.185082 0.378153 0.194556 174 174 174
0.182300 0.379104 0.194814 173 173 173
0.179234 0.379580 0.195324 171 171 171
0.176401 0.380451 0.195625 169 169 169
0.173595 0.381371 0.195901 166 166 166
0.170788 0.382291 0.196177 163 163 163
0.167979 0.383211 0.196453 160 160 160
0.165345 0.384424 0.196574 156 156 156
0.162752 0.385705 0.196659 154 154 154
0.159985 0.386699 0.196897 153 153 153
0.157216 0.387694 0.197135 152 152 152
0.154446 0.388689 0.197373 151 151 151
0.151675 0.389684 0.197611 150 150 150
0.148763 0.390452 0.197971 150 150 150
0.145861 0.391238 0.198321 150 150 150
0.142957 0.392025 0.198672 149 149 149
0.140123 0.392929 0.198960 149 149 149
0.137642 0.394407 0.198942 150 150 150
0.135181 0.395915 0.198907 152 152 152
0.132719 0.397423 0.198873 153 153 153
0.130274 0.398958 0.198825 154 154 154
0.127830 0.400493 0.198776 157 157 157
0.125386 0.402028 0.198727 159 159 159
0.123242 0.404041 0.198422 162 162 162
0.120887 0.405716 0.198298 163 163 163
0.118507 0.407349 0.198196 167 167 167
0.116091 0.408926 0.198124 170 170 170
0.113676 0.410502 0.198052 172 172 172
0.111314 0.412161 0.197936 175 175 175
0.108932 0.413789 0.197837 175 175 175
0.106493 0.415326 0.197786 176 176 176
0.104002 0.416781 0.197780 176 176 176
0.101561 0.418314 0.197731 176 176 176
0.098947 0.419578 0.197827 176 176 176
0.096251 0.420715 0.197992 176 176 176
0.093554 0.421853 0.198157 176 176 176
0.090845 0.422973 0.198332 176 176 176
0.087638 0.423328 0.198922 175 175 175
0.084037 0.423085 0.199836 174 174 174
0.079751 0.421798 0.201318 172 172 172
0.075750 0.420963 0.202556 170 170 170
0.070531 0.418279 0.204800 165 165 165
0.066372 0.417229 0.206159 161 161 161
0.062069 0.415973 0.207633 158 158 158
0.057576 0.414443 0.209257 154 154 154
0.053035 0.412853 0.210916 149 149 149
0.048634 0.411489 0.212454 145 145 145
0.043951 0.409716 0.214217 138 138 138
0.039393 0.408147 0.215871 138 138 138
0.035176 0.407100 0.217242 138 138 138
0.030964 0.406074 0.218604 138 138 138
0.025896 0.403784 0.220658 138 138 138
0.019903 0.400142 0.223455 138 138 138
0.010707 0.391780 0.228840 138 138 138
0.005506 0.389367 0.230973 138 138 138
0.000763 0.387648 0.232729 138 138 138
-0.003911 0.386045 0.234423 138 138 138
-0.008297 0.384880 0.235879 138 138 138
-0.012703 0.383698 0.237346 138 138 138
-0.017297 0.382255 0.238959 138 138 138
-0.021704 0.381096 0.240418 138 138 138
-0.026506 0.379377 0.242186 138 138 138
-0.031519 0.377368 0.244118 138 138 138
-0.037139 0.374499 0.246526 138 138 138
-0.043144 0.371093 0.249232 138 138 138
-0.048911 0.368054 0.251741 138 138 138
-0.054495 0.365300 0.254095 138 138 138
-0.059819 0.362937 0.256236 138 138 138
-0.067278 0.357542 0.260057 138 138 138
-0.075842 0.350605 0.264737 138 138 138
-0.081831 0.347369 0.267373 141 141 141
-0.087486 0.344631 0.269737 153 153 153
-0.093083 0.341993 0.272049 165 165 165
-0.098008 0.340326 0.273825 171 171 171
-0.106343 0.333868 0.278264 181 181 181
-0.117176 0.323937 0.284639 185 185 185
-0.122865 0.321273 0.286982 184 184 184
-0.127759 0.319741 0.288698 184 184 184
-0.133062 0.317653 0.290726 183 183 183
-0.138631 0.315210 0.292954 182 182 182
-0.144155 0.312849 0.295140 181 181 181
-0.150239 0.309731 0.297752 180 180 180
-0.155670 0.307536 0.299851 178 178 178
-0.166180 0.298354 0.305857 178 178 178
0.371794 0.058458 0.274643 194 194 194
0.370806 0.063774 0.272779 189 189 189
0.369565 0.068500 0.271204 187 187 187
0.368221 0.072979 0.269750 184 184 184
0.366856 0.077394 0.268325 183 183 183
0.365297 0.081359 0.267121 183 183 183
0.363855 0.085572 0.265793 183 183 183
0.362445 0.089837 0.264438 184 184 184
0.361272 0.094609 0.262829 184 184 184
0.360074 0.099305 0.261257 184 184 184
0.358919 0.104079 0.259643 184 184 184
0.357922 0.109178 0.257867 184 184 184
0.356622 0.113596 0.256426 183 183 183
0.355366 0.118094 0.254944 181 181 181
0.354152 0.122664 0.253425 181 181 181
0.352736 0.126781 0.252129 181 181 181
0.351202 0.130631 0.250964 179 179 179
0.349761 0.134665 0.249706 179 179 179
0.348197 0.138423 0.248585 179 179 179
0.346729 0.142372 0.247367 178 178 178
0.345210 0.146199 0.246208 178 178 178
0.343653 0.149931 0.245096 178 178 178
0.342152 0.153768 0.243929 179 179 179
0.340753 0.157809 0.242658 178 178 178
0.339145 0.161394 0.241615 178 178 178
0.337448 0.164783 0.240669 178 178 178
0.335756 0.168170 0.239722 178 178 178
0.334057 0.171532 0.238787 178 178 178
0.332077 0.174300 0.238149 179 179 179
0.330326 0.177535 0.237275 179 179 179
0.328600 0.180811 0.236380 180 180 180
0.326842 0.184013 0.235521 180 180 180
0.325009 0.187050 0.234744 181 181 181
0.323321 0.190376 0.233820 181 181 181
0.321636 0.193698 0.232897 181 181 181
0.320074 0.197258 0.231853 180 180 180
0.318624 0.201035 0.230699 180 180 180
0.317071 0.204591 0.229654 180 180 180
0.315461 0.208021 0.228672 180 180 180
0.313687 0.211108 0.227862 179 179 179
0.312114 0.214591 0.226850 178 178 178
0.310405 0.217791 0.225981 177 177 177
0.308649 0.220887 0.225163 176 176 176
0.306925 0.224037 0.224317 175 175 175
0.305190 0.227157 0.223485 175 175 175
0.303478 0.230313 0.222633 174 174 174
0.301897 0.233717 0.221655 173 173 173
0.300294 0.237068 0.220702 173 173 173
0.298694 0.240415 0.219750 172 172 172
0.297069 0.243703 0.218828 173 173 173
0.295276 0.246653 0.218075 170 170 170
0.293345 0.249325 0.217463 168 168 168
0.291598 0.252348 0.216672 169 169 169
0.289734 0.255138 0.215999 169 169 169
0.287770 0.257726 0.215428 170 170 170
0.285826 0.260346 0.214840 170 170 170
0.283935 0.263062 0.214202 171 171 171
0.282040 0.265764 0.213570 173 173 173
0.280137 0.268443 0.212950 173 173 173
0.278236 0.271119 0.212329 174 174 174
0.276343 0.273806 0.211703 175 175 175
0.274547 0.276668 0.210987 176 176 176
0.272826 0.279665 0.210200 177 177 177
0.271098 0.282640 0.209423 178 178 178
0.269344 0.285558 0.208675 178 178 178
0.267744 0.288758 0.207781 180 180 180
0.266243 0.292133 0.206795 180 180 180
0.264744 0.295502 0.205812 180 180 180
0.263244 0.298859 0.204834 180 180 180
0.261886 0.302467 0.203724 179 179 179
0.260579 0.306161 0.202570 179 179 179
0.259268 0.309832 0.201425 178 178 178
0.257955 0.313490 0.200286 178 178 178
0.256634 0.317122 0.199159 177 177 177
0.255085 0.320323 0.198253 176 176 176
0.253355 0.323187 0.197520 175 175 175
0.251690 0.326159 0.196731 171 171 171
0.249937 0.328966 0.196025 171 171 171
0.248188 0.331771 0.195321 170 170 170
0.246332 0.334377 0.194718 169 169 169
0.244333 0.336718 0.194252 168 168 168
0.242139 0.338705 0.193969 168 168 168
0.239946 0.340691 0.193686 168 168 168
0.237827 0.342805 0.193336 168 168 168
0.236018 0.345470 0.192700 168 168 168
0.233779 0.347362 0.192465 169 169 169
0.231315 0.348853 0.192437 171 171 171
0.229162 0.350895 0.192124 172 172 172
0.227042 0.352992 0.191781 173 173 173
0.224923 0.355087 0.191438 173 173 173
0.222696 0.356989 0.191196 175 175 175
0.220386 0.358743 0.191031 178 178 178
0.218078 0.360500 0.190864 178 178 178
0.215771 0.362256 0.190698 179 179 179
0.213623 0.364286 0.190388 180 180 180
0.211476 0.366317 0.190077 180 180 180
0.209274 0.368247 0.189818 180 180 180
0.207063 0.370162 0.189567 180 180 180
0.204772 0.371934 0.189391 179 179 179
0.202447 0.373648 0.189245 179 179 179
0.200125 0.375365 0.189097 178 178 178
0.197757 0.377002 0.188991 178 178 178
0.194969 0.377924 0.189261 177 177 177
0.192193 0.378867 0.189520 176 176 176
0.189290 0.379601 0.189890 175 175 175
0.186496 0.380519 0.190163 173 173 173
0.183700 0.381438 0.190436 172 172 172
0.180653 0.381940 0.190930 171 171 171
0.177419 0.382131 0.191588 170 170 170
0.174328 0.382568 0.192118 166 166 166
0.171524 0.383488 0.192392 163 163 163
0.168689 0.384360 0.192693 160 160 160
0.165698 0.384975 0.193129 158 158 158
0.162815 0.385773 0.193470 156 156 156
0.160067 0.386798 0.193691 155 155 155
0.157318 0.387823 0.193912 154 154 154
0.154568 0.388848 0.194133 153 153 153
0.151632 0.389571 0.194514 153 153 153
0.148651 0.390223 0.194934 150 150 150
0.145799 0.391091 0.195240 150 150 150
0.143053 0.392133 0.195453 150 150 150
0.140339 0.393229 0.195639 152 152 152
0.137821 0.394644 0.195654 156 156 156
0.135377 0.396178 0.195605 156 156 156
0.133010 0.397836 0.195491 155 155 155
0.130558 0.399355 0.195450 156 156 156
0.128194 0.401016 0.195334 158 158 158
0.126052 0.403032 0.195028 163 163 163
0.124154 0.405431 0.194516 163 163 163
0.122052 0.407503 0.194179 166 166 166
0.119679 0.409141 0.194074 168 168 168
0.117455 0.411014 0.193842 173 173 173
0.115104 0.412684 0.193720 176 176 176
0.112787 0.414408 0.193568 177 177 177
0.110471 0.416131 0.193416 177 177 177
0.108156 0.417855 0.193264 177 177 177
0.105784 0.419487 0.193161 178 178 178
0.103343 0.421011 0.193116 178 178 178
0.100916 0.422558 0.193058 178 178 178
0.098311 0.423827 0.193151 177 177 177
0.095651 0.425012 0.193289 177 177 177
0.092990 0.426196 0.193427 176 176 176
0.090328 0.427382 0.193565 176 176 176
0.087286 0.427984 0.194018 175 175 175
0.083329 0.427188 0.195228 174 174 174
0.078631 0.425271 0.197047 173 173 173
0.073138 0.422159 0.199515 169 169 169
0.067785 0.419282 0.201859 164 164 164
0.063509 0.418058 0.203309 162 162 162
0.059119 0.416677 0.204847 159 159 159
0.054584 0.415090 0.206499 155 155 155
0.049989 0.413426 0.208195 150 150 150
0.045294 0.411628 0.209965 141 141 141
0.040557 0.409782 0.211765 138 138 138
0.036077 0.408337 0.213349 138 138 138
0.031831 0.407254 0.214737 138 138 138
0.027239 0.405671 0.216400 138 138 138
0.020734 0.401260 0.219608 138 138 138
0.010058 0.390701 0.226176 138 138 138
0.004232 0.387366 0.228807 138 138 138
-0.000488 0.385682 0.230539 138 138 138
-0.005185 0.384049 0.232246 138 138 138
-0.009718 0.382671 0.233815 138 138 138
-0.014143 0.381464 0.235293 138 138 138
-0.018483 0.380394 0.236697 138 138 138
-0.022872 0.379266 0.238136 138 138 138
-0.027340 0.378034 0.239633 138 138 138
-0.032475 0.375849 0.241655 138 138 138
-0.037897 0.373266 0.243900 138 138 138
-0.043911 0.369849 0.246605 138 138 138
-0.049692 0.366790 0.249118 138 138 138
-0.055288 0.364019 0.251475 138 138 138
-0.060537 0.361765 0.253551 138 138 138
-0.067245 0.357444 0.256770 138 138 138
-0.074393 0.352524 0.260323 138 138 138
-0.080527 0.349075 0.263069 142 142 142
-0.086100 0.346446 0.265366 152 152 152
-0.091575 0.343975 0.267577 163 163 163
-0.096197 0.342727 0.269116 168 168 168
-0.101025 0.341203 0.270810 173 173 173
-0.107252 0.337727 0.273587 179 179 179
-0.113689 0.333979 0.276519 184 184 184
-0.124087 0.324715 0.282516 185 185 185
-0.128513 0.323836 0.283864 184 184 184
-0.132948 0.322956 0.285216 183 183 183
-0.138099 0.321094 0.287115 183 183 183
-0.143443 0.318979 0.289158 182 182 182
-0.149783 0.315504 0.291961 181 181 181
-0.156991 0.310855 0.295422 181 181 181
-0.166827 0.302618 0.300888 178 178 178
0.374091 0.056333 0.271591 193 193 193
0.373545 0.062656 0.269238 190 190 190
0.372254 0.067276 0.267720 186 186 186
0.370883 0.071699 0.266298 183 183 183
0.369443 0.075949 0.264959 182 182 182
0.367881 0.079914 0.263759 182 182 182
0.366322 0.083871 0.262561 182 182 182
0.364931 0.088184 0.261186 183 183 183
0.363648 0.092719 0.259700 183 183 183
0.362351 0.097207 0.258235 183 183 183
0.361330 0.102283 0.256477 183 183 183
0.360254 0.107218 0.254788 183 183 183
0.359065 0.111884 0.253229 183 183 183
0.357637 0.116016 0.251933 181 181 181
0.356332 0.120397 0.250512 180 180 180
0.354895 0.124476 0.249239 179 179 179
0.353366 0.128343 0.248070 179 179 179
0.351834 0.132188 0.246911 178 178 178
0.350431 0.136297 0.245618 179 179 179
0.348881 0.140078 0.244488 178 178 178
0.347363 0.143912 0.243329 178 178 178
0.345847 0.147739 0.242173 178 178 178
0.344399 0.151694 0.240951 178 178 178
0.342923 0.155577 0.239764 178 178 178
0.341447 0.159448 0.238581 178 178 178
0.339850 0.163050 0.237532 178 178 178
0.338213 0.166556 0.236528 178 178 178
0.336551 0.169998 0.235556 178 178 178
0.334783 0.173209 0.234698 179 179 179
0.333053 0.176489 0.233804 179 179 179
0.331326 0.179765 0.232912 179 179 179
0.329601 0.183036 0.232020 179 179 179
0.327966 0.186481 0.231041 180 180 180
0.326289 0.189830 0.230108 180 180 180
0.324604 0.193150 0.229189 180 180 180
0.322922 0.196468 0.228269 180 180 180
0.321335 0.199968 0.227257 179 179 179
0.319761 0.203483 0.226236 179 179 179
0.318188 0.206990 0.225218 179 179 179
0.316488 0.210227 0.224335 178 178 178
0.314729 0.213337 0.223514 178 178 178
0.312858 0.216213 0.222811 176 176 176
0.310953 0.219012 0.222145 175 175 175
0.309177 0.222063 0.221352 174 174 174
0.307446 0.225194 0.220517 173 173 173
0.305603 0.228094 0.219797 171 171 171
0.303856 0.231176 0.218985 171 171 171
0.302218 0.234463 0.218068 171 171 171
0.300662 0.237903 0.217072 171 171 171
0.299109 0.241338 0.216078 171 171 171
0.297381 0.244419 0.215262 170 170 170
0.295419 0.247034 0.214681 168 168 168
0.293634 0.249989 0.213927 168 168 168
0.291888 0.253010 0.213139 168 168 168
0.290074 0.255890 0.212421 168 168 168
0.288158 0.258568 0.211805 169 169 169
0.286267 0.261286 0.211168 170 170 170
0.284378 0.264000 0.210532 171 171 171
0.282488 0.266706 0.209900 172 172 172
0.280586 0.269383 0.209281 173 173 173
0.278752 0.272183 0.208599 174 174 174
0.277054 0.275234 0.207788 175 175 175
0.275355 0.278275 0.206981 176 176 176
0.273636 0.281268 0.206198 177 177 177
0.271918 0.284256 0.205416 177 177 177
0.270207 0.287249 0.204630 178 178 178
0.268650 0.290522 0.203700 179 179 179
0.267140 0.293873 0.202729 179 179 179
0.265633 0.297219 0.201759 180 180 180
0.264193 0.300681 0.200729 177 177 177
0.262756 0.304137 0.199700 178 178 178
0.261495 0.307907 0.198508 177 177 177
0.260273 0.311739 0.197283 176 176 176
0.258978 0.315422 0.196133 176 176 176
0.257270 0.318335 0.195379 174 174 174
0.255540 0.321201 0.194648 173 173 173
0.253812 0.324062 0.193917 171 171 171
0.252111 0.326967 0.193164 169 169 169
0.250361 0.329773 0.192461 168 168 168
0.248394 0.332180 0.191963 168 168 168
0.246389 0.334514 0.191502 167 167 167
0.244387 0.336847 0.191041 166 166 166
0.242430 0.339257 0.190539 166 166 166
0.240422 0.341570 0.190087 166 166 166
0.238389 0.343834 0.189660 167 167 167
0.236353 0.346089 0.189237 168 168 168
0.234248 0.348217 0.188880 169 169 169
0.231849 0.349819 0.188795 171 171 171
0.229729 0.351915 0.188453 171 171 171
0.227611 0.354010 0.188112 172 172 172
0.225617 0.356321 0.187657 174 174 174
0.223714 0.358785 0.187123 174 174 174
0.221657 0.360975 0.186730 175 175 175
0.219601 0.363165 0.186337 177 177 177
0.217509 0.365286 0.185979 178 178 178
0.215316 0.367229 0.185714 179 179 179
0.213201 0.369304 0.185379 179 179 179
0.211133 0.371457 0.185004 179 179 179
0.208924 0.373364 0.184757 179 179 179
0.206659 0.375171 0.184561 178 178 178
0.204376 0.376946 0.184382 178 178 178
0.202094 0.378721 0.184203 178 178 178
0.199514 0.379986 0.184291 176 176 176
0.196754 0.380947 0.184539 176 176 176
0.193989 0.381899 0.184791 175 175 175
0.191130 0.382696 0.185126 174 174 174
0.188058 0.383138 0.185647 173 173 173
0.185095 0.383766 0.186071 171 171 171
0.182085 0.384321 0.186534 170 170 170
0.178857 0.384514 0.187189 169 169 169
0.175542 0.384569 0.187917 168 168 168
0.172277 0.384714 0.188599 164 164 164
0.169043 0.384917 0.189251 163 163 163
0.166037 0.385504 0.189701 161 161 161
0.163046 0.386120 0.190136 158 158 158
0.160224 0.387019 0.190422 157 157 157
0.157476 0.388044 0.190642 156 156 156
0.154579 0.388824 0.190992 156 156 156
0.151671 0.389591 0.191349 156 156 156
0.148811 0.390439 0.191663 156 156 156
0.145980 0.391339 0.191951 152 152 152
0.143236 0.392381 0.192164 153 153 153
0.140579 0.393567 0.192300 155 155 155
0.138062 0.394982 0.192315 158 158 158
0.135546 0.396396 0.192330 162 162 162
0.133135 0.397981 0.192254 162 162 162
0.131026 0.400049 0.191921 161 161 161
0.128793 0.401916 0.191695 164 164 164
0.126989 0.404466 0.191104 164 164 164
0.125065 0.406819 0.190618 166 166 166
0.122964 0.408887 0.190282 169 169 169
0.120967 0.411117 0.189861 172 172 172
0.118944 0.413300 0.189463 175 175 175
0.116791 0.415276 0.189176 178 178 178
0.114539 0.417093 0.188974 178 178 178
0.112288 0.418909 0.188771 179 179 179
0.109975 0.420627 0.188621 179 179 179
0.107604 0.422253 0.188520 179 179 179
0.105302 0.423986 0.188362 178 178 178
