ply
format ascii 1.0
element vertex 1182
property float x
property float y
property float z
property uchar red
property uchar green
property uchar blue
end_header
-0.173652 0.056303 -0.375541 138 138 138
-0.177235 0.047375 -0.373717 138 138 138
-0.180800 0.039054 -0.372017 138 138 138
-0.184376 0.030832 -0.370338 138 138 138
-0.187918 0.023413 -0.368822 138 138 138
-0.191462 0.016218 -0.367352 138 138 138
-0.195270 0.005189 -0.365099 138 138 138
-0.200117 -0.021121 -0.359724 138 138 138
0.239726 0.066610 -0.380722 138 138 138
0.235451 0.081937 -0.383837 138 138 138
0.231760 0.090358 -0.385549 138 138 138
0.228280 0.096321 -0.386761 138 138 138
0.224905 0.101091 -0.387730 139 139 139
0.221594 0.105156 -0.388557 141 141 141
0.218362 0.108298 -0.389195 140 140 140
0.215095 0.111991 -0.389946 140 140 140
0.211841 0.115605 -0.390680 140 140 140
0.208606 0.119069 -0.391384 141 141 141
0.205378 0.122525 -0.392087 141 141 141
0.202139 0.126249 -0.392844 140 140 140
0.198888 0.130254 -0.393658 141 141 141
0.195633 0.134437 -0.394508 141 141 141
0.192404 0.138365 -0.395306 140 140 140
0.189233 0.141546 -0.395953 139 139 139
0.186083 0.144493 -0.396551 138 138 138
0.182952 0.147246 -0.397111 138 138 138
0.179827 0.150005 -0.397672 138 138 138
0.176721 0.152537 -0.398186 138 138 138
0.173640 0.154756 -0.398637 138 138 138
0.170577 0.156739 -0.399040 138 138 138
0.167531 0.158512 -0.399401 138 138 138
0.164524 0.159675 -0.399637 138 138 138
0.161519 0.160861 -0.399878 138 138 138
0.158517 0.162018 -0.400113 138 138 138
0.155530 0.162956 -0.400304 138 138 138
0.152549 0.163812 -0.400478 138 138 138
0.149558 0.164897 -0.400698 138 138 138
0.146549 0.166369 -0.400998 138 138 138
0.143531 0.168061 -0.401341 138 138 138
0.140494 0.170233 -0.401783 139 139 139
0.137461 0.172401 -0.402224 140 140 140
0.134414 0.174957 -0.402743 141 141 141
0.131331 0.178404 -0.403444 141 141 141
0.128229 0.182426 -0.404261 141 141 141
0.125166 0.185757 -0.404938 142 142 142
0.122096 0.189411 -0.405681 143 143 143
0.119018 0.193421 -0.406496 141 141 141
0.115954 0.197284 -0.407281 140 140 140
0.112924 0.200531 -0.407941 140 140 140
0.109913 0.203461 -0.408536 140 140 140
0.106908 0.206386 -0.409131 140 140 140
0.103909 0.209305 -0.409724 139 139 139
0.100938 0.211637 -0.410198 139 139 139
0.097977 0.213815 -0.410641 138 138 138
0.095031 0.215687 -0.411021 138 138 138
0.092109 0.216938 -0.411276 138 138 138
0.089194 0.218068 -0.411505 138 138 138
0.086286 0.219066 -0.411708 138 138 138
0.083396 0.219515 -0.411799 138 138 138
0.080512 0.219769 -0.411851 138 138 138
0.077631 0.219954 -0.411889 138 138 138
0.074748 0.220229 -0.411944 138 138 138
0.071866 0.220504 -0.412000 138 138 138
0.068985 0.220746 -0.412050 138 138 138
0.066115 0.220546 -0.412009 138 138 138
0.063246 0.220287 -0.411956 138 138 138
0.060376 0.220027 -0.411903 138 138 138
0.057506 0.219753 -0.411848 138 138 138
0.054637 0.219437 -0.411783 138 138 138
0.051766 0.219120 -0.411719 138 138 138
0.048895 0.218803 -0.411655 138 138 138
0.046024 0.218486 -0.411590 138 138 138
0.043157 0.217854 -0.411462 138 138 138
0.040290 0.217064 -0.411301 138 138 138
0.037422 0.216274 -0.411141 138 138 138
0.034553 0.215484 -0.410980 138 138 138
0.031688 0.214089 -0.410696 138 138 138
0.028823 0.212545 -0.410383 138 138 138
0.025953 0.211086 -0.410086 138 138 138
0.023076 0.210138 -0.409893 138 138 138
0.020201 0.208595 -0.409580 138 138 138
0.017325 0.206862 -0.409228 138 138 138
0.014446 0.204914 -0.408832 138 138 138
0.011561 0.203260 -0.408495 138 138 138
0.008672 0.201975 -0.408234 138 138 138
0.005781 0.200705 -0.407976 138 138 138
0.002887 0.199365 -0.407704 138 138 138
-0.000010 0.198138 -0.407454 138 138 138
-0.002909 0.197219 -0.407268 138 138 138
-0.005810 0.196738 -0.407170 138 138 138
-0.008711 0.196288 -0.407078 138 138 138
-0.011613 0.195889 -0.406997 138 138 138
-0.014515 0.195491 -0.406916 138 138 138
-0.017418 0.195188 -0.406855 138 138 138
-0.020320 0.195085 -0.406834 138 138 138
-0.023224 0.194743 -0.406764 138 138 138
-0.026130 0.194327 -0.406680 138 138 138
-0.029037 0.193895 -0.406592 138 138 138
-0.031946 0.193269 -0.406465 138 138 138
-0.034861 0.192345 -0.406277 138 138 138
-0.037776 0.191593 -0.406124 138 138 138
-0.040691 0.190895 -0.405982 138 138 138
-0.043609 0.190107 -0.405822 138 138 138
-0.046535 0.188919 -0.405581 138 138 138
-0.049464 0.187729 -0.405339 138 138 138
-0.052392 0.186716 -0.405133 138 138 138
-0.055330 0.185298 -0.404845 138 138 138
-0.058277 0.183577 -0.404495 138 138 138
-0.061228 0.181854 -0.404145 138 138 138
-0.064184 0.180059 -0.403780 138 138 138
-0.067150 0.178021 -0.403366 138 138 138
-0.070119 0.175994 -0.402954 138 138 138
-0.073093 0.173964 -0.402541 138 138 138
-0.076065 0.172168 -0.402176 138 138 138
-0.079040 0.170377 -0.401812 138 138 138
-0.082016 0.168685 -0.401468 138 138 138
-0.084990 0.167194 -0.401165 138 138 138
-0.087963 0.165807 -0.400883 138 138 138
-0.090940 0.164418 -0.400601 138 138 138
-0.093919 0.163041 -0.400321 138 138 138
-0.096905 0.161518 -0.400012 138 138 138
-0.099896 0.159972 -0.399697 138 138 138
-0.102890 0.158422 -0.399382 138 138 138
-0.105893 0.156714 -0.399035 138 138 138
-0.108924 0.154394 -0.398564 138 138 138
-0.111965 0.151904 -0.398058 138 138 138
-0.115020 0.149214 -0.397511 138 138 138
-0.118108 0.145866 -0.396830 138 138 138
-0.121238 0.141703 -0.395984 138 138 138
-0.124417 0.136584 -0.394944 138 138 138
-0.127613 0.131356 -0.393881 138 138 138
-0.130748 0.127685 -0.393135 138 138 138
-0.133870 0.124443 -0.392476 138 138 138
-0.137001 0.121171 -0.391811 138 138 138
-0.140104 0.118609 -0.391290 138 138 138
-0.143222 0.115859 -0.390731 138 138 138
-0.146354 0.112935 -0.390137 138 138 138
-0.149552 0.108862 -0.389309 138 138 138
-0.152767 0.104609 -0.388445 138 138 138
-0.156059 0.099113 -0.387328 138 138 138
-0.159434 0.092317 -0.385947 138 138 138
-0.162875 0.084577 -0.384374 138 138 138
-0.166419 0.075317 -0.382492 138 138 138
-0.170108 0.063904 -0.380172 138 138 138
-0.173926 0.050700 -0.377488 138 138 138
-0.177495 0.042085 -0.375737 138 138 138
-0.181069 0.033691 -0.374031 138 138 138
-0.184623 0.025898 -0.372447 138 138 138
-0.188166 0.018530 -0.370950 138 138 138
-0.191754 0.010686 -0.369356 138 138 138
-0.195790 -0.003737 -0.366424 138 138 138
-0.200721 -0.031221 -0.360838 100 100 100
0.243097 0.024483 -0.375277 126 126 126
0.235982 0.074422 -0.385375 138 138 138
0.232058 0.085673 -0.387650 138 138 138
0.228385 0.094041 -0.389342 138 138 138
0.225007 0.098828 -0.390309 138 138 138
0.221645 0.103546 -0.391263 139 139 139
0.218380 0.107108 -0.391984 140 140 140
0.215130 0.110574 -0.392684 140 140 140
0.211874 0.114215 -0.393421 140 140 140
0.208619 0.117948 -0.394175 140 140 140
0.205385 0.121493 -0.394892 141 141 141
0.202118 0.125605 -0.395724 140 140 140
0.198866 0.129632 -0.396538 140 140 140
0.195607 0.133875 -0.397396 140 140 140
0.192420 0.137191 -0.398066 140 140 140
0.189248 0.140379 -0.398711 139 139 139
0.186098 0.143330 -0.399308 138 138 138
0.182970 0.146035 -0.399854 138 138 138
0.179867 0.148435 -0.400340 138 138 138
0.176761 0.150961 -0.400850 138 138 138
0.173665 0.153410 -0.401346 138 138 138
0.170602 0.155393 -0.401746 138 138 138
0.167551 0.157242 -0.402120 138 138 138
0.164522 0.158786 -0.402433 138 138 138
0.161519 0.159922 -0.402662 138 138 138
0.158516 0.161108 -0.402902 138 138 138
0.155526 0.162096 -0.403102 138 138 138
0.152528 0.163275 -0.403340 138 138 138
0.149516 0.164748 -0.403638 138 138 138
0.146508 0.166220 -0.403936 138 138 138
0.143501 0.167735 -0.404242 139 139 139
0.140476 0.169660 -0.404631 140 140 140
0.137427 0.172180 -0.405141 141 141 141
0.134371 0.174935 -0.405698 142 142 142
0.131301 0.178116 -0.406341 141 141 141
0.128210 0.181922 -0.407111 141 141 141
0.125145 0.185302 -0.407794 141 141 141
0.122087 0.188685 -0.408478 142 142 142
0.119013 0.192616 -0.409273 141 141 141
0.115949 0.196501 -0.410058 140 140 140
0.112901 0.200176 -0.410801 140 140 140
0.109892 0.203083 -0.411389 140 140 140
0.106888 0.205983 -0.411976 139 139 139
0.103898 0.208699 -0.412525 139 139 139
0.100928 0.210989 -0.412988 138 138 138
0.097970 0.213106 -0.413416 138 138 138
0.095017 0.215185 -0.413836 138 138 138
0.092095 0.216460 -0.414094 138 138 138
0.089186 0.217422 -0.414288 138 138 138
0.086281 0.218320 -0.414470 138 138 138
0.083377 0.219219 -0.414652 138 138 138
0.080485 0.219812 -0.414772 138 138 138
0.077603 0.220050 -0.414820 138 138 138
0.074721 0.220311 -0.414873 138 138 138
0.071842 0.220495 -0.414910 138 138 138
0.068966 0.220579 -0.414927 138 138 138
0.066097 0.220395 -0.414890 138 138 138
0.063229 0.220097 -0.414829 138 138 138
0.060361 0.219799 -0.414769 138 138 138
0.057492 0.219534 -0.414715 138 138 138
0.054623 0.219217 -0.414651 138 138 138
0.051754 0.218894 -0.414586 138 138 138
0.048883 0.218571 -0.414521 138 138 138
0.046015 0.218118 -0.414429 138 138 138
0.043153 0.217202 -0.414244 138 138 138
0.040291 0.216071 -0.414015 138 138 138
0.037425 0.215153 -0.413830 138 138 138
0.034555 0.214363 -0.413670 138 138 138
0.031688 0.213190 -0.413433 138 138 138
0.028823 0.211646 -0.413121 138 138 138
0.025954 0.210100 -0.412808 138 138 138
0.023085 0.208177 -0.412419 138 138 138
0.020210 0.206570 -0.412094 138 138 138
0.017334 0.204413 -0.411658 138 138 138
0.014455 0.202248 -0.411220 138 138 138
0.011568 0.200721 -0.410911 138 138 138
0.008677 0.199460 -0.410657 138 138 138
0.005784 0.198188 -0.410399 138 138 138
0.002888 0.196881 -0.410135 138 138 138
-0.000010 0.195815 -0.409920 138 138 138
-0.002910 0.195334 -0.409822 138 138 138
-0.005812 0.194852 -0.409725 138 138 138
-0.008714 0.194387 -0.409631 138 138 138
-0.011617 0.193989 -0.409550 138 138 138
-0.014519 0.193770 -0.409506 138 138 138
-0.017422 0.193660 -0.409484 138 138 138
-0.020325 0.193550 -0.409462 138 138 138
-0.023227 0.193476 -0.409447 138 138 138
-0.026133 0.193061 -0.409363 138 138 138
-0.029040 0.192631 -0.409276 138 138 138
-0.031948 0.192188 -0.409186 138 138 138
-0.034862 0.191378 -0.409022 138 138 138
-0.037776 0.190673 -0.408880 138 138 138
-0.040690 0.190014 -0.408747 138 138 138
-0.043605 0.189444 -0.408631 138 138 138
-0.046530 0.188318 -0.408404 138 138 138
-0.049457 0.187197 -0.408177 138 138 138
-0.052384 0.186201 -0.407976 138 138 138
-0.055317 0.185051 -0.407743 138 138 138
-0.058263 0.183330 -0.407395 138 138 138
-0.061213 0.181613 -0.407048 138 138 138
-0.064167 0.179897 -0.406701 138 138 138
-0.067131 0.177886 -0.406294 138 138 138
-0.070101 0.175814 -0.405875 138 138 138
-0.073075 0.173738 -0.405456 138 138 138
-0.076045 0.171971 -0.405098 138 138 138
-0.079015 0.170340 -0.404769 138 138 138
-0.081990 0.168675 -0.404432 138 138 138
-0.084966 0.167071 -0.404108 138 138 138
-0.087938 0.165684 -0.403827 138 138 138
-0.090915 0.164252 -0.403538 138 138 138
-0.093897 0.162766 -0.403237 138 138 138
-0.096886 0.161150 -0.402910 138 138 138
-0.099880 0.159489 -0.402574 138 138 138
-0.102876 0.157874 -0.402248 138 138 138
-0.105879 0.156162 -0.401902 138 138 138
-0.108915 0.153677 -0.401399 138 138 138
-0.111958 0.151161 -0.400891 138 138 138
-0.115013 0.148476 -0.400348 138 138 138
-0.118111 0.144869 -0.399619 138 138 138
-0.121240 0.140706 -0.398777 138 138 138
-0.124409 0.135842 -0.397793 138 138 138
-0.127583 0.131084 -0.396831 138 138 138
-0.130733 0.127072 -0.396020 138 138 138
-0.133856 0.123811 -0.395361 138 138 138
-0.136987 0.120524 -0.394696 138 138 138
-0.140119 0.117352 -0.394055 138 138 138
-0.143260 0.114149 -0.393407 138 138 138
-0.146403 0.111024 -0.392775 138 138 138
-0.149602 0.106941 -0.391950 138 138 138
-0.152833 0.102419 -0.391035 138 138 138
-0.156145 0.096570 -0.389853 138 138 138
-0.159513 0.089921 -0.388508 138 138 138
-0.163007 0.081265 -0.386758 138 138 138
-0.166600 0.071197 -0.384722 138 138 138
-0.170382 0.058222 -0.382099 138 138 138
-0.174180 0.045437 -0.379514 138 138 138
-0.177764 0.036653 -0.377738 138 138 138
-0.181315 0.028690 -0.376128 138 138 138
-0.184866 0.021006 -0.374574 138 138 138
-0.188407 0.013738 -0.373104 138 138 138
-0.192009 0.005745 -0.371488 138 138 138
-0.196269 -0.012066 -0.367887 138 138 138
0.236946 0.061534 -0.385845 138 138 138
0.232447 0.079842 -0.389528 138 138 138
0.228680 0.089345 -0.391439 138 138 138
0.225119 0.096442 -0.392867 138 138 138
0.221741 0.101345 -0.393853 138 138 138
0.218411 0.105757 -0.394740 140 140 140
0.215166 0.109144 -0.395422 140 140 140
0.211913 0.112742 -0.396145 139 139 139
0.208634 0.116801 -0.396962 140 140 140
0.205365 0.120824 -0.397771 140 140 140
0.202099 0.124937 -0.398598 140 140 140
0.198844 0.129009 -0.399417 139 139 139
0.195623 0.132714 -0.400162 139 139 139
0.192438 0.135994 -0.400822 139 139 139
0.189263 0.139211 -0.401469 139 139 139
0.186113 0.142168 -0.402064 138 138 138
0.183010 0.144488 -0.402531 138 138 138
0.179908 0.146854 -0.403007 138 138 138
0.176800 0.149403 -0.403519 138 138 138
0.173699 0.151918 -0.404025 138 138 138
0.170631 0.153993 -0.404443 138 138 138
0.167582 0.155796 -0.404805 138 138 138
0.164545 0.157468 -0.405142 138 138 138
0.161511 0.159135 -0.405477 138 138 138
0.158512 0.160250 -0.405701 138 138 138
0.155502 0.161612 -0.405975 138 138 138
0.152488 0.163094 -0.406273 138 138 138
0.149477 0.164573 -0.406571 138 138 138
0.146469 0.166052 -0.406868 139 139 139
0.143464 0.167528 -0.407165 140 140 140
0.140441 0.169453 -0.407552 141 141 141
0.137383 0.172158 -0.408097 141 141 141
0.134327 0.174936 -0.408655 142 142 142
0.131260 0.178075 -0.409287 141 141 141
0.128189 0.181455 -0.409967 140 140 140
0.125124 0.184846 -0.410649 140 140 140
0.122067 0.188230 -0.411329 141 141 141
0.119004 0.191909 -0.412069 141 141 141
0.115936 0.195898 -0.412872 140 140 140
0.112885 0.199657 -0.413628 139 139 139
0.109869 0.202741 -0.414248 139 139 139
0.106871 0.205520 -0.414807 139 139 139
0.103889 0.208014 -0.415309 139 139 139
0.100918 0.210360 -0.415781 138 138 138
0.097958 0.212542 -0.416219 138 138 138
0.095005 0.214617 -0.416637 138 138 138
0.092088 0.215775 -0.416870 138 138 138
0.089181 0.216674 -0.417051 138 138 138
0.086276 0.217572 -0.417231 138 138 138
0.083372 0.218471 -0.417412 138 138 138
0.080469 0.219431 -0.417605 138 138 138
0.077577 0.220080 -0.417736 138 138 138
0.074701 0.220169 -0.417754 138 138 138
0.071825 0.220253 -0.417771 138 138 138
0.068950 0.220337 -0.417788 138 138 138
0.066077 0.220306 -0.417781 138 138 138
0.063210 0.220008 -0.417721 138 138 138
0.060343 0.219710 -0.417661 138 138 138
0.057477 0.219340 -0.417587 138 138 138
0.054610 0.218976 -0.417514 138 138 138
0.051741 0.218654 -0.417449 138 138 138
0.048872 0.218331 -0.417384 138 138 138
0.046008 0.217600 -0.417237 138 138 138
0.043145 0.216792 -0.417074 138 138 138
0.040284 0.215676 -0.416850 138 138 138
0.037421 0.214544 -0.416622 138 138 138
0.034556 0.213411 -0.416394 138 138 138
0.031688 0.212291 -0.416169 138 138 138
0.028823 0.210699 -0.415849 138 138 138
0.025960 0.208556 -0.415418 138 138 138
0.023092 0.206345 -0.414973 138 138 138
0.020221 0.204070 -0.414515 138 138 138
0.017344 0.201917 -0.414082 138 138 138
0.014463 0.199761 -0.413649 138 138 138
0.011575 0.198148 -0.413324 138 138 138
0.008683 0.196896 -0.413072 138 138 138
0.005788 0.195643 -0.412820 138 138 138
0.002890 0.194415 -0.412573 138 138 138
-0.000010 0.193917 -0.412473 138 138 138
-0.002912 0.193439 -0.412377 138 138 138
-0.005814 0.192961 -0.412281 138 138 138
-0.008717 0.192482 -0.412184 138 138 138
-0.011620 0.192352 -0.412158 138 138 138
-0.014523 0.192242 -0.412136 138 138 138
-0.017426 0.192132 -0.412114 138 138 138
-0.020329 0.192022 -0.412092 138 138 138
-0.023232 0.191938 -0.412075 138 138 138
-0.026136 0.191796 -0.412046 138 138 138
-0.029044 0.191368 -0.411960 138 138 138
-0.031952 0.190954 -0.411877 138 138 138
-0.034862 0.190448 -0.411775 138 138 138
-0.037775 0.189767 -0.411638 138 138 138
-0.040689 0.189198 -0.411524 138 138 138
-0.043603 0.188628 -0.411409 138 138 138
-0.046524 0.187718 -0.411226 138 138 138
-0.049450 0.186682 -0.411018 138 138 138
-0.052377 0.185686 -0.410818 138 138 138
-0.055305 0.184690 -0.410617 138 138 138
-0.058249 0.183107 -0.410299 138 138 138
-0.061199 0.181344 -0.409944 138 138 138
-0.064155 0.179464 -0.409566 138 138 138
-0.067113 0.177690 -0.409209 138 138 138
-0.070080 0.175705 -0.408810 138 138 138
-0.073054 0.173629 -0.408392 138 138 138
-0.076028 0.171672 -0.407999 138 138 138
-0.078996 0.170103 -0.407683 138 138 138
-0.081967 0.168532 -0.407367 138 138 138
-0.084941 0.166959 -0.407051 138 138 138
-0.087916 0.165466 -0.406750 138 138 138
-0.090894 0.163982 -0.406452 138 138 138
-0.093875 0.162496 -0.406153 138 138 138
-0.096861 0.160945 -0.405841 138 138 138
-0.099855 0.159284 -0.405507 138 138 138
-0.102858 0.157449 -0.405138 138 138 138
-0.105867 0.155572 -0.404760 138 138 138
-0.108905 0.153028 -0.404248 138 138 138
-0.111948 0.150481 -0.403736 138 138 138
-0.115015 0.147486 -0.403134 138 138 138
-0.118114 0.143853 -0.402403 138 138 138
-0.121244 0.139692 -0.401566 138 138 138
-0.124404 0.135024 -0.400627 138 138 138
-0.127573 0.130366 -0.399690 138 138 138
-0.130736 0.126068 -0.398825 138 138 138
-0.133860 0.122787 -0.398166 138 138 138
-0.136996 0.119398 -0.397484 138 138 138
-0.140170 0.115372 -0.396674 138 138 138
-0.143316 0.112068 -0.396009 138 138 138
-0.146467 0.108826 -0.395357 138 138 138
-0.149672 0.104639 -0.394515 138 138 138
-0.152944 0.099375 -0.393456 138 138 138
-0.156258 0.093523 -0.392279 138 138 138
-0.159652 0.086433 -0.390853 138 138 138
-0.163155 0.077673 -0.389091 138 138 138
-0.166788 0.066928 -0.386930 138 138 138
-0.170721 0.051412 -0.383809 138 138 138
-0.174490 0.039224 -0.381357 138 138 138
-0.178033 0.031200 -0.379743 138 138 138
-0.181570 0.023558 -0.378206 138 138 138
-0.185060 0.016912 -0.376869 138 138 138
-0.188597 0.009760 -0.375431 138 138 138
-0.192322 -0.000104 -0.373447 138 138 138
-0.196840 -0.021797 -0.369083 138 138 138
0.239792 0.025353 -0.381680 152 152 152
0.232924 0.072912 -0.391196 138 138 138
0.228978 0.084613 -0.393537 138 138 138
0.225340 0.092656 -0.395147 138 138 138
0.221864 0.098796 -0.396375 138 138 138
0.218493 0.103724 -0.397361 138 138 138
0.215202 0.107714 -0.398160 140 140 140
0.211952 0.111268 -0.398871 139 139 139
0.208661 0.115479 -0.399713 139 139 139
0.205371 0.119807 -0.400580 139 139 139
0.202098 0.124006 -0.401420 140 140 140
0.198848 0.128019 -0.402223 139 139 139
0.195644 0.131458 -0.402911 139 139 139
0.192458 0.134753 -0.403570 138 138 138
0.189281 0.138009 -0.404222 138 138 138
0.186148 0.140699 -0.404760 138 138 138
0.183049 0.142941 -0.405209 138 138 138
0.179949 0.145272 -0.405675 138 138 138
0.176840 0.147826 -0.406186 138 138 138
0.173739 0.150333 -0.406688 138 138 138
0.170660 0.152575 -0.407136 138 138 138
0.167612 0.154349 -0.407491 138 138 138
0.164575 0.156023 -0.407826 138 138 138
0.161539 0.157713 -0.408164 138 138 138
0.158489 0.159728 -0.408568 138 138 138
0.155472 0.161219 -0.408866 138 138 138
0.152456 0.162760 -0.409174 138 138 138
0.149445 0.164240 -0.409470 139 139 139
0.146438 0.165718 -0.409766 140 140 140
0.143414 0.167597 -0.410142 141 141 141
0.140383 0.169676 -0.410558 141 141 141
0.137339 0.172138 -0.411051 141 141 141
0.134282 0.174957 -0.411615 142 142 142
0.131218 0.178070 -0.412238 141 141 141
0.128156 0.181251 -0.412874 140 140 140
0.125094 0.184605 -0.413545 140 140 140
0.122039 0.187951 -0.414215 140 140 140
0.118986 0.191418 -0.414909 140 140 140
0.115917 0.195447 -0.415715 140 140 140
0.112874 0.199019 -0.416429 139 139 139
0.109849 0.202335 -0.417093 139 139 139
0.106862 0.204834 -0.417593 139 139 139
0.103881 0.207317 -0.418090 138 138 138
0.100910 0.209660 -0.418559 138 138 138
0.097945 0.211999 -0.419027 138 138 138
0.095007 0.213649 -0.419357 138 138 138
0.092082 0.215022 -0.419632 138 138 138
0.089176 0.215922 -0.419812 138 138 138
0.086271 0.216820 -0.419991 138 138 138
0.083367 0.217740 -0.420175 138 138 138
0.080463 0.218753 -0.420378 138 138 138
0.077571 0.219393 -0.420506 138 138 138
0.074691 0.219638 -0.420555 138 138 138
0.071810 0.219930 -0.420614 138 138 138
0.068933 0.220095 -0.420647 138 138 138
0.066058 0.220179 -0.420663 138 138 138
0.063192 0.219920 -0.420612 138 138 138
0.060327 0.219548 -0.420537 138 138 138
0.057462 0.219150 -0.420458 138 138 138
0.054596 0.218750 -0.420378 138 138 138
0.051729 0.218413 -0.420310 138 138 138
0.048863 0.217890 -0.420205 138 138 138
0.046002 0.217082 -0.420044 138 138 138
0.043139 0.216274 -0.419882 138 138 138
0.040277 0.215279 -0.419683 138 138 138
0.037414 0.214125 -0.419452 138 138 138
0.034552 0.212779 -0.419183 138 138 138
0.031689 0.211310 -0.418889 138 138 138
0.028832 0.208895 -0.418406 138 138 138
0.025969 0.206669 -0.417960 138 138 138
0.023101 0.204439 -0.417514 138 138 138
0.020228 0.202159 -0.417058 138 138 138
0.017351 0.199855 -0.416597 138 138 138
0.014470 0.197562 -0.416138 138 138 138
0.011581 0.195774 -0.415780 138 138 138
0.008687 0.194607 -0.415547 138 138 138
0.005790 0.193439 -0.415313 138 138 138
0.002891 0.192348 -0.415095 138 138 138
-0.000010 0.191796 -0.414984 138 138 138
-0.002913 0.191318 -0.414888 138 138 138
-0.005816 0.190909 -0.414807 138 138 138
-0.008719 0.190852 -0.414795 138 138 138
-0.011622 0.190767 -0.414778 138 138 138
-0.014526 0.190666 -0.414758 138 138 138
-0.017430 0.190566 -0.414738 138 138 138
-0.020334 0.190466 -0.414718 138 138 138
-0.023237 0.190447 -0.414714 138 138 138
-0.026141 0.190355 -0.414696 138 138 138
-0.029047 0.190185 -0.414662 138 138 138
-0.031954 0.189886 -0.414602 138 138 138
-0.034862 0.189521 -0.414529 138 138 138
-0.037774 0.188952 -0.414415 138 138 138
-0.040687 0.188382 -0.414301 138 138 138
-0.043602 0.187809 -0.414186 138 138 138
-0.046519 0.187149 -0.414054 138 138 138
-0.049444 0.186113 -0.413847 138 138 138
-0.052370 0.185128 -0.413650 138 138 138
-0.055300 0.184040 -0.413432 138 138 138
-0.058241 0.182541 -0.413132 138 138 138
-0.061194 0.180664 -0.412757 138 138 138
-0.064149 0.178808 -0.412385 138 138 138
-0.067106 0.177088 -0.412041 138 138 138
-0.070068 0.175298 -0.411683 138 138 138
-0.073033 0.173505 -0.411324 138 138 138
-0.076010 0.171441 -0.410911 138 138 138
-0.078978 0.169805 -0.410584 138 138 138
-0.081949 0.168234 -0.410269 138 138 138
-0.084922 0.166662 -0.409955 138 138 138
-0.087898 0.165132 -0.409649 138 138 138
-0.090875 0.163658 -0.409354 138 138 138
-0.093859 0.162071 -0.409036 138 138 138
-0.096845 0.160486 -0.408719 138 138 138
-0.099847 0.158591 -0.408340 138 138 138
-0.102850 0.156747 -0.407971 138 138 138
-0.105857 0.154908 -0.407603 138 138 138
-0.108888 0.152543 -0.407130 138 138 138
-0.111938 0.149803 -0.406581 138 138 138
-0.115018 0.146465 -0.405913 138 138 138
-0.118118 0.142836 -0.405187 138 138 138
-0.121247 0.138674 -0.404354 138 138 138
-0.124393 0.134327 -0.403485 138 138 138
-0.127558 0.129761 -0.402571 138 138 138
-0.130735 0.125142 -0.401647 138 138 138
-0.133866 0.121722 -0.400962 138 138 138
-0.137044 0.117450 -0.400108 138 138 138
-0.140221 0.113390 -0.399295 138 138 138
-0.143368 0.110083 -0.398633 138 138 138
-0.146537 0.106502 -0.397917 138 138 138
-0.149786 0.101500 -0.396916 138 138 138
-0.153056 0.096305 -0.395877 138 138 138
-0.156389 0.090136 -0.394642 138 138 138
-0.159805 0.082692 -0.393153 138 138 138
-0.163338 0.073435 -0.391300 138 138 138
-0.167053 0.061322 -0.388876 138 138 138
-0.171112 0.043709 -0.385352 138 138 138
-0.174765 0.033593 -0.383328 138 138 138
-0.178305 0.025712 -0.381751 138 138 138
-0.181732 0.019927 -0.380594 138 138 138
-0.185241 0.013025 -0.379212 138 138 138
-0.188781 0.005870 -0.377781 138 138 138
-0.192697 -0.006918 -0.375222 138 138 138
-0.197825 -0.037863 -0.369030 100 100 100
0.235085 0.044857 -0.388672 147 147 147
0.229400 0.078292 -0.395327 138 138 138
0.225608 0.088249 -0.397309 138 138 138
0.222005 0.096010 -0.398854 138 138 138
0.218605 0.101303 -0.399907 138 138 138
0.215270 0.105859 -0.400814 139 139 139
0.211991 0.109794 -0.401598 139 139 139
0.208684 0.114223 -0.402479 139 139 139
0.205386 0.118648 -0.403360 139 139 139
0.202113 0.122861 -0.404199 139 139 139
0.198895 0.126396 -0.404902 139 139 139
0.195673 0.130103 -0.405640 138 138 138
0.192483 0.133452 -0.406307 138 138 138
0.189314 0.136574 -0.406928 138 138 138
0.186196 0.139030 -0.407417 138 138 138
0.183088 0.141393 -0.407887 138 138 138
0.179990 0.143690 -0.408345 138 138 138
0.176881 0.146240 -0.408852 138 138 138
0.173783 0.148683 -0.409338 138 138 138
0.170691 0.151116 -0.409823 138 138 138
0.167643 0.152901 -0.410178 138 138 138
0.164593 0.154773 -0.410550 138 138 138
0.161542 0.156744 -0.410943 138 138 138
0.158488 0.158818 -0.411356 138 138 138
0.155442 0.160843 -0.411759 138 138 138
0.152424 0.162427 -0.412074 140 140 140
0.149414 0.163907 -0.412369 141 141 141
0.146383 0.165853 -0.412756 141 141 141
0.143351 0.167904 -0.413164 141 141 141
0.140324 0.169953 -0.413572 141 141 141
0.137285 0.172319 -0.414043 141 141 141
0.134238 0.174960 -0.414569 141 141 141
0.131176 0.178043 -0.415182 140 140 140
0.128121 0.181116 -0.415794 140 140 140
0.125059 0.184468 -0.416461 139 139 139
0.122005 0.187805 -0.417126 139 139 139
0.118959 0.191128 -0.417787 140 140 140
0.115897 0.194997 -0.418557 139 139 139
0.112855 0.198568 -0.419268 139 139 139
0.109845 0.201518 -0.419855 138 138 138
0.106854 0.204149 -0.420379 139 139 139
0.103873 0.206616 -0.420870 138 138 138
0.100903 0.208960 -0.421336 138 138 138
0.097957 0.210732 -0.421689 138 138 138
0.095013 0.212559 -0.422053 138 138 138
0.092081 0.214151 -0.422370 138 138 138
0.089170 0.215169 -0.422572 138 138 138
0.086266 0.216068 -0.422751 138 138 138
0.083362 0.217002 -0.422937 138 138 138
0.080467 0.217694 -0.423075 138 138 138
0.077570 0.218512 -0.423238 138 138 138
0.074687 0.218877 -0.423310 138 138 138
0.071806 0.219169 -0.423368 138 138 138
0.068926 0.219460 -0.423426 138 138 138
0.066047 0.219752 -0.423485 138 138 138
0.063176 0.219704 -0.423475 138 138 138
0.060312 0.219343 -0.423403 138 138 138
0.054582 0.218561 -0.423247 138 138 138
0.051716 0.218173 -0.423170 138 138 138
0.048857 0.217372 -0.423011 138 138 138
0.045995 0.216566 -0.422850 138 138 138
0.043133 0.215739 -0.422686 138 138 138
0.040271 0.214733 -0.422485 138 138 138
0.037413 0.213292 -0.422199 138 138 138
0.034553 0.211854 -0.421912 138 138 138
0.031689 0.210415 -0.421626 138 138 138
0.028834 0.207784 -0.421102 138 138 138
0.025975 0.205095 -0.420567 138 138 138
0.023109 0.202531 -0.420057 138 138 138
0.020235 0.200260 -0.419605 138 138 138
0.017357 0.198036 -0.419162 138 138 138
0.014474 0.195820 -0.418721 138 138 138
0.011585 0.193791 -0.418317 138 138 138
0.008691 0.192463 -0.418053 138 138 138
0.005793 0.191293 -0.417820 138 138 138
0.002892 0.190285 -0.417619 138 138 138
-0.000010 0.189674 -0.417497 138 138 138
-0.002914 0.189372 -0.417437 138 138 138
-0.005817 0.189315 -0.417426 138 138 138
-0.008721 0.189258 -0.417415 138 138 138
-0.011625 0.189184 -0.417400 138 138 138
-0.014529 0.189084 -0.417380 138 138 138
-0.017434 0.188983 -0.417360 138 138 138
-0.020338 0.188991 -0.417362 138 138 138
-0.023241 0.189052 -0.417374 138 138 138
-0.026146 0.188972 -0.417358 138 138 138
-0.029050 0.188892 -0.417342 138 138 138
-0.031956 0.188735 -0.417310 138 138 138
-0.034864 0.188437 -0.417251 138 138 138
-0.037776 0.187899 -0.417144 138 138 138
-0.040689 0.187321 -0.417029 138 138 138
-0.043603 0.186783 -0.416922 138 138 138
-0.046516 0.186396 -0.416845 138 138 138
-0.049440 0.185376 -0.416642 138 138 138
-0.052369 0.184252 -0.416418 138 138 138
-0.055300 0.183128 -0.416194 138 138 138
-0.058236 0.181861 -0.415942 138 138 138
-0.061188 0.179984 -0.415569 138 138 138
-0.064143 0.178179 -0.415209 138 138 138
-0.067099 0.176473 -0.414870 138 138 138
-0.070060 0.174696 -0.414516 138 138 138
-0.073025 0.172903 -0.414159 138 138 138
-0.075994 0.171109 -0.413802 138 138 138
-0.078962 0.169483 -0.413478 138 138 138
-0.081931 0.167906 -0.413165 138 138 138
-0.084907 0.166255 -0.412836 138 138 138
-0.087886 0.164595 -0.412505 138 138 138
-0.090867 0.162962 -0.412180 138 138 138
-0.093852 0.161328 -0.411855 138 138 138
-0.096837 0.159801 -0.411551 138 138 138
-0.099834 0.158028 -0.411198 138 138 138
-0.102839 0.156130 -0.410820 138 138 138
-0.105847 0.154230 -0.410442 138 138 138
-0.108876 0.151924 -0.409983 138 138 138
-0.111937 0.148899 -0.409381 138 138 138
-0.115022 0.145453 -0.408695 138 138 138
-0.118121 0.141819 -0.407972 138 138 138
-0.121255 0.137545 -0.407121 138 138 138
-0.124429 0.132583 -0.406133 138 138 138
-0.127580 0.128343 -0.405289 138 138 138
-0.130740 0.124089 -0.404443 138 138 138
-0.133912 0.119778 -0.403585 138 138 138
-0.137092 0.115501 -0.402733 138 138 138
-0.140271 0.111407 -0.401918 138 138 138
-0.143443 0.107634 -0.401167 138 138 138
-0.146660 0.103122 -0.400269 138 138 138
-0.149913 0.098093 -0.399268 138 138 138
-0.153189 0.092843 -0.398223 138 138 138
-0.156532 0.086528 -0.396966 138 138 138
-0.159979 0.078568 -0.395382 138 138 138
-0.163527 0.069110 -0.393499 138 138 138
-0.167370 0.054796 -0.390650 138 138 138
-0.171369 0.038316 -0.387370 138 138 138
-0.175019 0.028329 -0.385382 138 138 138
-0.178471 0.021964 -0.384115 138 138 138
-0.181904 0.016150 -0.382958 138 138 138
-0.185386 0.009727 -0.381679 138 138 138
-0.188982 0.001712 -0.380084 138 138 138
-0.192971 -0.012170 -0.377321 138 138 138
0.236522 0.025869 -0.388000 152 152 152
0.229874 0.071318 -0.396999 138 138 138
0.225909 0.083427 -0.399397 138 138 138
0.222243 0.091950 -0.401084 138 138 138
0.218727 0.098737 -0.402428 138 138 138
0.215360 0.103704 -0.403411 138 138 138
0.212049 0.108058 -0.404274 139 139 139
0.208729 0.112662 -0.405185 139 139 139
0.205416 0.117285 -0.406100 138 138 138
0.202152 0.121370 -0.406909 139 139 139
0.198943 0.124773 -0.407583 138 138 138
0.195720 0.128474 -0.408316 138 138 138
0.192511 0.132089 -0.409032 138 138 138
0.189379 0.134657 -0.409540 138 138 138
0.186255 0.137185 -0.410041 138 138 138
0.183136 0.139715 -0.410542 138 138 138
0.180031 0.142108 -0.411015 138 138 138
0.176926 0.144584 -0.411506 138 138 138
0.173831 0.146967 -0.411978 138 138 138
0.170744 0.149318 -0.412443 138 138 138
0.167651 0.151828 -0.412940 138 138 138
0.164596 0.153786 -0.413328 138 138 138
0.161541 0.155829 -0.413732 138 138 138
0.158487 0.157908 -0.414144 138 138 138
0.155435 0.160033 -0.414565 138 138 138
0.152397 0.161995 -0.414953 140 140 140
0.149356 0.164086 -0.415367 141 141 141
0.146320 0.166147 -0.415775 142 142 142
0.143289 0.168206 -0.416183 141 141 141
0.140263 0.170259 -0.416589 141 141 141
0.137230 0.172516 -0.417036 141 141 141
0.134186 0.175130 -0.417554 140 140 140
0.131134 0.178016 -0.418125 140 140 140
0.128080 0.181076 -0.418731 139 139 139
0.125025 0.184326 -0.419375 139 139 139
0.121972 0.187656 -0.420034 138 138 138
0.118927 0.190978 -0.420692 139 139 139
0.115878 0.194546 -0.421398 139 139 139
0.112859 0.197552 -0.421993 138 138 138
0.109851 0.200461 -0.422569 138 138 138
0.106845 0.203451 -0.423161 138 138 138
0.103865 0.205916 -0.423650 138 138 138
0.100912 0.207787 -0.424020 138 138 138
0.097974 0.209331 -0.424326 138 138 138
0.095031 0.211124 -0.424681 138 138 138
0.092088 0.213022 -0.425056 138 138 138
0.089165 0.214417 -0.425333 138 138 138
0.086263 0.215250 -0.425498 138 138 138
0.083366 0.215943 -0.425635 138 138 138
0.080471 0.216636 -0.425772 138 138 138
0.077574 0.217444 -0.425932 138 138 138
0.074683 0.218115 -0.426065 138 138 138
0.071802 0.218407 -0.426123 138 138 138
0.068924 0.218658 -0.426172 138 138 138
0.066050 0.218707 -0.426182 138 138 138
0.063177 0.218743 -0.426189 138 138 138
0.060312 0.218404 -0.426122 138 138 138
0.057447 0.218042 -0.426050 138 138 138
0.054582 0.217681 -0.425979 138 138 138
0.051712 0.217481 -0.425939 138 138 138
0.048850 0.216860 -0.425816 138 138 138
0.045990 0.215987 -0.425643 138 138 138
0.043130 0.215000 -0.425448 138 138 138
0.040269 0.214010 -0.425252 138 138 138
0.037413 0.212399 -0.424933 138 138 138
0.034552 0.210960 -0.424648 138 138 138
0.031688 0.209520 -0.424363 138 138 138
0.028834 0.206917 -0.423848 138 138 138
0.025974 0.204227 -0.423315 138 138 138
0.023109 0.201556 -0.422786 138 138 138
0.020241 0.198540 -0.422189 138 138 138
0.017362 0.196294 -0.421744 138 138 138
0.014478 0.194075 -0.421305 138 138 138
0.011590 0.191878 -0.420870 138 138 138
0.008694 0.190422 -0.420582 138 138 138
0.005795 0.189146 -0.420329 138 138 138
0.002893 0.188220 -0.420146 138 138 138
-0.000010 0.187835 -0.420069 138 138 138
-0.002915 0.187778 -0.420058 138 138 138
-0.005819 0.187721 -0.420047 138 138 138
-0.008723 0.187664 -0.420035 138 138 138
-0.011628 0.187600 -0.420023 138 138 138
-0.014533 0.187500 -0.420003 138 138 138
-0.017438 0.187470 -0.419997 138 138 138
-0.020341 0.187567 -0.420016 138 138 138
-0.023244 0.187731 -0.420049 138 138 138
-0.026149 0.187699 -0.420042 138 138 138
-0.029055 0.187529 -0.420009 138 138 138
-0.031961 0.187433 -0.419990 138 138 138
-0.034867 0.187283 -0.419960 138 138 138
-0.037778 0.186833 -0.419871 138 138 138
-0.040691 0.186287 -0.419763 138 138 138
-0.043604 0.185845 -0.419675 138 138 138
-0.046519 0.185305 -0.419568 138 138 138
-0.049441 0.184453 -0.419400 138 138 138
-0.052369 0.183341 -0.419179 138 138 138
-0.055300 0.182216 -0.418957 138 138 138
-0.058233 0.181090 -0.418734 138 138 138
-0.061183 0.179303 -0.418380 138 138 138
-0.064136 0.177551 -0.418033 138 138 138
-0.067092 0.175844 -0.417695 138 138 138
-0.070052 0.174094 -0.417349 138 138 138
-0.073015 0.172349 -0.417003 138 138 138
-0.075980 0.170684 -0.416673 138 138 138
-0.078953 0.168861 -0.416312 138 138 138
-0.081929 0.167062 -0.415956 138 138 138
-0.084909 0.165261 -0.415600 138 138 138
-0.087882 0.163792 -0.415309 138 138 138
-0.090861 0.162220 -0.414998 138 138 138
-0.093846 0.160599 -0.414677 138 138 138
-0.096829 0.159108 -0.414381 138 138 138
-0.099821 0.157465 -0.414056 138 138 138
-0.102825 0.155567 -0.413680 138 138 138
-0.105840 0.153496 -0.413270 138 138 138
-0.108871 0.151106 -0.412797 138 138 138
-0.111940 0.147888 -0.412160 138 138 138
-0.115025 0.144440 -0.411477 138 138 138
-0.118125 0.140802 -0.410757 138 138 138
-0.121284 0.135929 -0.409792 138 138 138
-0.124464 0.130839 -0.408784 138 138 138
-0.127616 0.126594 -0.407944 138 138 138
-0.130849 0.120756 -0.406788 138 138 138
-0.134006 0.116823 -0.406009 138 138 138
-0.137170 0.112911 -0.405234 138 138 138
-0.140366 0.108515 -0.404364 138 138 138
-0.143564 0.104257 -0.403521 138 138 138
-0.146784 0.099736 -0.402625 138 138 138
-0.150043 0.094636 -0.401616 138 138 138
-0.153325 0.089320 -0.400563 138 138 138
-0.156687 0.082711 -0.399255 138 138 138
-0.160150 0.074501 -0.397629 138 138 138
-0.163751 0.064138 -0.395577 138 138 138
-0.167727 0.047576 -0.392298 138 138 138
-0.171586 0.033601 -0.389531 138 138 138
-0.175151 0.025114 -0.387850 138 138 138
-0.178607 0.018731 -0.386586 138 138 138
-0.182047 0.012825 -0.385417 138 138 138
-0.185547 0.006158 -0.384097 138 138 138
-0.189171 -0.002271 -0.382428 138 138 138
-0.193544 -0.022082 -0.378505 100 100 100
0.230881 0.057557 -0.397347 149 149 149
0.226307 0.077342 -0.401243 138 138 138
0.222482 0.087880 -0.403319 138 138 138
0.218906 0.095415 -0.404803 138 138 138
0.215471 0.101272 -0.405957 138 138 138
0.212133 0.105973 -0.406882 138 138 138
0.208822 0.110432 -0.407761 138 138 138
0.205508 0.115060 -0.408672 138 138 138
0.202223 0.119411 -0.409529 138 138 138
0.198990 0.123149 -0.410265 138 138 138
0.195770 0.126812 -0.410987 138 138 138
0.192584 0.130071 -0.411629 138 138 138
0.189444 0.132742 -0.412155 138 138 138
0.186320 0.135258 -0.412650 138 138 138
0.183200 0.137790 -0.413149 138 138 138
0.180091 0.140221 -0.413628 138 138 138
0.176988 0.142650 -0.414106 138 138 138
0.173894 0.145007 -0.414570 138 138 138
0.170804 0.147376 -0.415037 138 138 138
0.167685 0.150328 -0.415618 138 138 138
0.164596 0.152869 -0.416119 138 138 138
0.161540 0.154913 -0.416521 138 138 138
0.158486 0.156998 -0.416932 138 138 138
0.155434 0.159124 -0.417351 138 138 138
0.152359 0.161775 -0.417873 139 139 139
0.149301 0.164186 -0.418348 141 141 141
0.146264 0.166303 -0.418765 141 141 141
0.143234 0.168360 -0.419170 141 141 141
0.140205 0.170488 -0.419589 140 140 140
0.137175 0.172739 -0.420032 140 140 140
0.134131 0.175360 -0.420548 140 140 140
0.131085 0.178142 -0.421096 139 139 139
0.128044 0.180948 -0.421649 139 139 139
0.125003 0.183890 -0.422228 139 139 139
0.121949 0.187270 -0.422894 138 138 138
0.118902 0.190643 -0.423558 138 138 138
0.115875 0.193699 -0.424160 139 139 139
0.112866 0.196484 -0.424709 138 138 138
0.109857 0.199380 -0.425279 138 138 138
0.106846 0.202517 -0.425897 138 138 138
0.103872 0.204838 -0.426354 138 138 138
0.100930 0.206385 -0.426659 138 138 138
0.097992 0.207930 -0.426963 138 138 138
0.095049 0.209689 -0.427310 138 138 138
0.092106 0.211588 -0.427684 138 138 138
0.089177 0.213153 -0.427992 138 138 138
0.086268 0.214190 -0.428196 138 138 138
0.083371 0.214884 -0.428333 138 138 138
0.080476 0.215577 -0.428469 138 138 138
0.077579 0.216376 -0.428627 138 138 138
0.074679 0.217360 -0.428820 138 138 138
0.071802 0.217519 -0.428852 138 138 138
0.068928 0.217569 -0.428862 138 138 138
0.066054 0.217619 -0.428871 138 138 138
0.063181 0.217669 -0.428881 138 138 138
0.060313 0.217465 -0.428841 138 138 138
0.057448 0.217103 -0.428770 138 138 138
0.054580 0.216841 -0.428718 138 138 138
0.051709 0.216712 -0.428693 138 138 138
0.048845 0.216195 -0.428591 138 138 138
0.045988 0.215206 -0.428396 138 138 138
0.043128 0.214217 -0.428201 138 138 138
0.040267 0.213227 -0.428007 138 138 138
0.037410 0.211729 -0.427711 138 138 138
0.034552 0.210067 -0.427384 138 138 138
0.031688 0.208626 -0.427100 138 138 138
0.028833 0.206050 -0.426593 138 138 138
0.025974 0.203369 -0.426065 138 138 138
0.023110 0.200508 -0.425501 138 138 138
0.020243 0.197350 -0.424879 138 138 138
0.017367 0.194551 -0.424328 138 138 138
0.014482 0.192331 -0.423891 138 138 138
0.011594 0.189999 -0.423432 138 138 138
0.008697 0.188507 -0.423138 138 138 138
0.005797 0.187173 -0.422875 138 138 138
0.002894 0.186516 -0.422746 138 138 138
-0.000010 0.186037 -0.422651 138 138 138
-0.002915 0.185991 -0.422642 138 138 138
-0.005820 0.186051 -0.422654 138 138 138
-0.008725 0.186069 -0.422657 138 138 138
-0.011631 0.186011 -0.422646 138 138 138
-0.014536 0.185953 -0.422635 138 138 138
-0.017441 0.186068 -0.422657 138 138 138
-0.020344 0.186233 -0.422690 138 138 138
-0.023248 0.186397 -0.422722 138 138 138
-0.026151 0.186539 -0.422750 138 138 138
-0.029058 0.186369 -0.422717 138 138 138
-0.031964 0.186199 -0.422683 138 138 138
-0.034871 0.186028 -0.422649 138 138 138
-0.037780 0.185782 -0.422601 138 138 138
-0.040692 0.185280 -0.422502 138 138 138
-0.043606 0.184778 -0.422403 138 138 138
-0.046522 0.184189 -0.422287 138 138 138
-0.049441 0.183514 -0.422154 138 138 138
-0.052369 0.182407 -0.421936 138 138 138
-0.055300 0.181299 -0.421718 138 138 138
-0.058233 0.180178 -0.421497 138 138 138
-0.061178 0.178627 -0.421192 138 138 138
-0.064129 0.176922 -0.420856 138 138 138
-0.067085 0.175215 -0.420520 138 138 138
-0.070050 0.173247 -0.420132 138 138 138
-0.073020 0.171250 -0.419739 138 138 138
-0.075994 0.169252 -0.419345 138 138 138
-0.078957 0.167810 -0.419061 138 138 138
-0.081931 0.166068 -0.418718 138 138 138
-0.084910 0.164305 -0.418371 138 138 138
-0.087879 0.162961 -0.418106 138 138 138
-0.090855 0.161479 -0.417814 138 138 138
-0.093838 0.159906 -0.417505 138 138 138
-0.096821 0.158415 -0.417211 138 138 138
-0.099808 0.156902 -0.416913 138 138 138
-0.102820 0.154781 -0.416495 138 138 138
-0.105842 0.152508 -0.416047 138 138 138
-0.108869 0.150226 -0.415598 138 138 138
-0.111945 0.146843 -0.414932 138 138 138
-0.115030 0.143372 -0.414248 138 138 138
-0.118146 0.139356 -0.413457 138 138 138
-0.121313 0.134311 -0.412464 138 138 138
-0.124496 0.129163 -0.411450 138 138 138
-0.127707 0.123604 -0.410355 138 138 138
-0.130942 0.117786 -0.409209 138 138 138
-0.134101 0.113844 -0.408432 138 138 138
-0.137331 0.108593 -0.407398 138 138 138
-0.140529 0.104229 -0.406539 138 138 138
-0.143730 0.099966 -0.405699 138 138 138
-0.146941 0.095686 -0.404856 138 138 138
-0.150197 0.090724 -0.403879 138 138 138
-0.153473 0.085552 -0.402860 138 138 138
-0.156852 0.078687 -0.401508 138 138 138
-0.160317 0.070498 -0.399895 138 138 138
-0.164016 0.058435 -0.397519 138 138 138
-0.168014 0.041562 -0.394196 138 138 138
-0.171770 0.029461 -0.391813 138 138 138
-0.175270 0.022120 -0.390367 138 138 138
-0.178730 0.015718 -0.389106 138 138 138
-0.182183 0.009630 -0.387907 138 138 138
-0.185691 0.002855 -0.386573 138 138 138
-0.189371 -0.006411 -0.384747 138 138 138
0.233592 0.022122 -0.393475 153 153 153
0.226827 0.069688 -0.402794 138 138 138
0.222829 0.082396 -0.405283 138 138 138
0.219109 0.091779 -0.407121 138 138 138
0.215617 0.098363 -0.408411 138 138 138
0.212241 0.103553 -0.409428 138 138 138
0.208913 0.108230 -0.410344 138 138 138
0.205609 0.112709 -0.411222 138 138 138
0.202330 0.116949 -0.412052 138 138 138
0.199039 0.121503 -0.412945 138 138 138
0.195826 0.125054 -0.413640 138 138 138
0.192673 0.127818 -0.414182 138 138 138
0.189524 0.130604 -0.414728 138 138 138
0.186385 0.133329 -0.415261 138 138 138
0.183271 0.135748 -0.415735 138 138 138
0.180164 0.138142 -0.416204 138 138 138
0.177058 0.140593 -0.416684 138 138 138
0.173957 0.143046 -0.417165 138 138 138
0.170860 0.145523 -0.417650 138 138 138
0.167731 0.148624 -0.418258 138 138 138
0.164617 0.151568 -0.418834 138 138 138
0.161539 0.153997 -0.419310 138 138 138
0.158485 0.156088 -0.419720 138 138 138
0.155409 0.158667 -0.420225 139 139 139
0.152328 0.161429 -0.420766 139 139 139
0.149261 0.164028 -0.421275 141 141 141
0.146208 0.166458 -0.421752 141 141 141
0.143175 0.168602 -0.422172 140 140 140
0.140143 0.170819 -0.422606 140 140 140
0.137116 0.173032 -0.423039 140 140 140
0.134076 0.175590 -0.423541 139 139 139
0.131041 0.178177 -0.424047 139 139 139
0.128023 0.180499 -0.424502 139 139 139
0.124989 0.183291 -0.425049 138 138 138
0.121934 0.186690 -0.425715 138 138 138
0.118899 0.189787 -0.426322 138 138 138
0.115905 0.192059 -0.426767 138 138 138
0.112872 0.195417 -0.427425 138 138 138
0.109864 0.198299 -0.427989 138 138 138
0.106863 0.201171 -0.428552 138 138 138
0.103903 0.203081 -0.428926 138 138 138
0.100948 0.204981 -0.429299 138 138 138
0.098009 0.206528 -0.429602 138 138 138
0.095067 0.208253 -0.429939 138 138 138
0.092130 0.209935 -0.430269 138 138 138
0.089213 0.211119 -0.430501 138 138 138
0.086297 0.212323 -0.430737 138 138 138
0.083384 0.213532 -0.430974 138 138 138
0.080480 0.214518 -0.431167 138 138 138
0.077583 0.215308 -0.431322 138 138 138
0.074691 0.215977 -0.431453 138 138 138
0.071810 0.216291 -0.431514 138 138 138
0.068933 0.216457 -0.431547 138 138 138
0.066059 0.216530 -0.431561 138 138 138
0.063185 0.216580 -0.431571 138 138 138
0.060314 0.216526 -0.431560 138 138 138
0.057448 0.216201 -0.431497 138 138 138
0.054581 0.215917 -0.431441 138 138 138
0.051713 0.215614 -0.431382 138 138 138
0.048841 0.215508 -0.431361 138 138 138
0.045985 0.214464 -0.431156 138 138 138
0.043126 0.213435 -0.430955 138 138 138
0.040265 0.212445 -0.430761 138 138 138
0.037404 0.211257 -0.430528 138 138 138
0.034550 0.209334 -0.430151 138 138 138
0.031688 0.207732 -0.429837 138 138 138
0.028833 0.205185 -0.429338 138 138 138
0.025973 0.202580 -0.428828 138 138 138
0.023112 0.199391 -0.428203 138 138 138
0.020245 0.196194 -0.427577 138 138 138
0.017369 0.193274 -0.427005 138 138 138
0.014487 0.190575 -0.426476 138 138 138
0.011596 0.188498 -0.426069 138 138 138
0.008698 0.187301 -0.425835 138 138 138
0.005797 0.186334 -0.425645 138 138 138
0.002894 0.185419 -0.425466 138 138 138
-0.000010 0.184821 -0.425349 138 138 138
-0.002916 0.184717 -0.425329 138 138 138
-0.005821 0.184661 -0.425318 138 138 138
-0.008727 0.184605 -0.425307 138 138 138
-0.011633 0.184550 -0.425296 138 138 138
-0.014538 0.184634 -0.425312 138 138 138
-0.017443 0.184733 -0.425332 138 138 138
-0.020347 0.184898 -0.425364 138 138 138
-0.023251 0.185063 -0.425396 138 138 138
-0.026155 0.185231 -0.425429 138 138 138
-0.029060 0.185210 -0.425425 138 138 138
-0.031967 0.185039 -0.425392 138 138 138
-0.034874 0.184865 -0.425357 138 138 138
-0.037782 0.184688 -0.425323 138 138 138
-0.040694 0.184212 -0.425230 138 138 138
-0.043609 0.183662 -0.425122 138 138 138
-0.046525 0.183073 -0.425006 138 138 138
-0.049443 0.182483 -0.424891 138 138 138
-0.052370 0.181469 -0.424692 138 138 138
-0.055300 0.180360 -0.424475 138 138 138
-0.058233 0.179250 -0.424258 138 138 138
-0.061175 0.177858 -0.423985 138 138 138
-0.064135 0.175747 -0.423571 138 138 138
-0.067102 0.173546 -0.423140 138 138 138
-0.070062 0.171816 -0.422801 138 138 138
-0.073033 0.169818 -0.422410 138 138 138
-0.076004 0.167948 -0.422043 138 138 138
-0.078963 0.166674 -0.421794 138 138 138
-0.081933 0.165074 -0.421480 138 138 138
-0.084907 0.163474 -0.421167 138 138 138
-0.087876 0.162130 -0.420903 138 138 138
-0.090850 0.160737 -0.420631 138 138 138
-0.093830 0.159214 -0.420332 138 138 138
-0.096817 0.157598 -0.420016 138 138 138
-0.099811 0.155885 -0.419680 138 138 138
-0.102828 0.153646 -0.419241 138 138 138
-0.105854 0.151274 -0.418777 138 138 138
-0.108889 0.148779 -0.418288 138 138 138
-0.111959 0.145533 -0.417652 138 138 138
-0.115057 0.141781 -0.416917 138 138 138
-0.118193 0.137282 -0.416036 138 138 138
-0.121361 0.132264 -0.415053 138 138 138
-0.124582 0.126239 -0.413872 138 138 138
-0.127822 0.120087 -0.412667 138 138 138
-0.131041 0.114677 -0.411607 138 138 138
-0.134292 0.108799 -0.410455 138 138 138
-0.137491 0.104289 -0.409572 138 138 138
-0.140695 0.099871 -0.408706 138 138 138
-0.143912 0.095351 -0.407821 138 138 138
-0.147104 0.091525 -0.407071 138 138 138
-0.150372 0.086396 -0.406066 138 138 138
-0.153621 0.081799 -0.405166 138 138 138
-0.157013 0.074737 -0.403782 138 138 138
-0.160478 0.066612 -0.402191 138 138 138
-0.164317 0.052104 -0.399348 138 138 138
-0.168236 0.036706 -0.396332 138 138 138
-0.171864 0.026865 -0.394404 138 138 138
-0.175365 0.019543 -0.392969 138 138 138
-0.178824 0.013175 -0.391722 138 138 138
-0.182291 0.006887 -0.390490 138 138 138
-0.185836 -0.000464 -0.389050 138 138 138
-0.189622 -0.011365 -0.386914 100 100 100
0.227400 0.061343 -0.404223 146 146 146
0.223218 0.076365 -0.407150 138 138 138
0.219364 0.087459 -0.409312 138 138 138
0.215819 0.094713 -0.410726 138 138 138
0.212360 0.100996 -0.411950 138 138 138
0.209027 0.105706 -0.412868 138 138 138
0.205714 0.110288 -0.413761 138 138 138
0.202432 0.114556 -0.414592 138 138 138
0.199144 0.119044 -0.415467 138 138 138
0.195916 0.122796 -0.416198 138 138 138
0.192761 0.125563 -0.416737 138 138 138
0.189611 0.128343 -0.417279 138 138 138
0.186466 0.131137 -0.417823 138 138 138
0.183344 0.133664 -0.418316 138 138 138
0.180236 0.136061 -0.418783 138 138 138
0.177130 0.138491 -0.419256 138 138 138
0.174026 0.140976 -0.419741 138 138 138
0.170910 0.143751 -0.420281 138 138 138
0.167778 0.146884 -0.420892 138 138 138
0.164657 0.149947 -0.421489 138 138 138
0.161554 0.152803 -0.422045 138 138 138
0.158463 0.155555 -0.422582 138 138 138
0.155377 0.158323 -0.423121 139 139 139
0.152296 0.161085 -0.423659 140 140 140
0.149222 0.163841 -0.424196 140 140 140
0.146169 0.166301 -0.424675 140 140 140
0.143119 0.168786 -0.425160 140 140 140
0.140084 0.171085 -0.425608 139 139 139
0.137055 0.173361 -0.426051 139 139 139
0.134029 0.175650 -0.426497 139 139 139
0.131026 0.177575 -0.426872 139 139 139
0.128009 0.179891 -0.427324 138 138 138
0.124967 0.182853 -0.427901 138 138 138
0.121919 0.186109 -0.428535 138 138 138
0.118924 0.188293 -0.428961 138 138 138
0.115933 0.190473 -0.429386 138 138 138
0.112892 0.194008 -0.430075 138 138 138
0.109871 0.197217 -0.430700 138 138 138
0.106905 0.199148 -0.431076 138 138 138
0.103946 0.201009 -0.431439 138 138 138
0.100986 0.203017 -0.431830 138 138 138
0.098030 0.205022 -0.432221 138 138 138
0.095088 0.206712 -0.432550 138 138 138
0.092167 0.207898 -0.432781 138 138 138
0.089249 0.209083 -0.433012 138 138 138
0.086332 0.210282 -0.433246 138 138 138
0.083418 0.211493 -0.433482 138 138 138
0.080506 0.212702 -0.433717 138 138 138
