ply
format ascii 1.0
element vertex 1202
property float x
property float y
property float z
property uchar red
property uchar green
property uchar blue
end_header
-0.353153 0.134976 0.245521 138 138 138
-0.352426 0.126269 0.249096 138 138 138
-0.352414 0.119066 0.251920 138 138 138
-0.351102 0.109010 0.256157 138 138 138
-0.350489 0.100425 0.259658 138 138 138
-0.350683 0.093559 0.262304 138 138 138
-0.351044 0.087027 0.264781 138 138 138
-0.351184 0.079981 0.267510 138 138 138
-0.351224 0.072681 0.270360 138 138 138
-0.351445 0.065747 0.273026 138 138 138
-0.350530 0.056269 0.276946 138 138 138
-0.346865 0.040639 0.283898 169 169 169
-0.329259 -0.006106 0.306191 180 180 180
0.153083 0.383257 0.259415 186 186 186
0.143230 0.391396 0.254013 168 168 168
0.137729 0.393725 0.251863 159 159 159
0.133388 0.394509 0.250577 156 156 156
0.129055 0.395291 0.249294 151 151 151
0.124772 0.396018 0.248044 147 147 147
0.121580 0.395273 0.247615 145 145 145
0.118403 0.394512 0.247196 144 144 144
0.115226 0.393753 0.246776 144 144 144
0.112154 0.392856 0.246433 144 144 144
0.109630 0.391210 0.246507 147 147 147
0.107198 0.389437 0.246651 150 150 150
0.105185 0.387086 0.247116 149 149 149
0.103352 0.384482 0.247719 148 148 148
0.090895 0.396568 0.240188 158 158 158
0.080125 0.406376 0.233927 171 171 171
0.073677 0.410234 0.230966 168 168 168
0.069470 0.410996 0.229719 162 162 162
0.065638 0.411243 0.228758 156 156 156
0.062031 0.411185 0.227968 153 153 153
0.058690 0.410760 0.227380 142 142 142
0.055357 0.410329 0.226797 140 140 140
0.052188 0.409671 0.226339 138 138 138
0.049054 0.408970 0.225906 138 138 138
0.045854 0.408364 0.225420 138 138 138
0.042650 0.407768 0.224931 138 138 138
0.039369 0.407286 0.224379 138 138 138
0.035967 0.406981 0.223731 138 138 138
0.032578 0.406663 0.223091 138 138 138
0.029245 0.406271 0.222492 138 138 138
0.026350 0.405254 0.222236 138 138 138
0.023491 0.404189 0.222008 138 138 138
0.020836 0.402831 0.221939 138 138 138
0.018798 0.400580 0.222359 138 138 138
0.016759 0.398328 0.222779 138 138 138
0.014716 0.396079 0.223197 138 138 138
0.012635 0.393880 0.223586 138 138 138
0.010746 0.391398 0.224130 138 138 138
0.008577 0.389321 0.224452 138 138 138
0.006368 0.387299 0.224744 138 138 138
0.004154 0.385283 0.225032 138 138 138
0.001605 0.383758 0.225053 138 138 138
-0.000993 0.382306 0.225034 138 138 138
-0.003592 0.380854 0.225015 138 138 138
-0.006169 0.379371 0.225013 138 138 138
-0.008861 0.378059 0.224919 138 138 138
-0.011678 0.376933 0.224723 138 138 138
-0.014486 0.375796 0.224534 138 138 138
-0.017316 0.374694 0.224326 138 138 138
-0.020329 0.373868 0.223969 138 138 138
-0.023321 0.373014 0.223628 138 138 138
-0.026311 0.372160 0.223288 138 138 138
-0.029297 0.371304 0.222948 138 138 138
-0.032220 0.370355 0.222660 138 138 138
-0.035289 0.369630 0.222251 138 138 138
-0.038620 0.369308 0.221625 138 138 138
-0.042132 0.369268 0.220849 143 143 143
-0.045409 0.368877 0.220262 149 149 149
-0.048579 0.368325 0.219763 152 152 152
-0.073793 0.401716 0.201031 160 160 160
-0.077568 0.402190 0.199994 170 170 170
-0.081319 0.402636 0.198974 168 168 168
-0.084643 0.402430 0.198305 165 165 165
-0.087822 0.402005 0.197754 160 160 160
-0.090644 0.401028 0.197499 154 154 154
-0.093326 0.399835 0.197360 153 153 153
-0.096014 0.398652 0.197216 152 152 152
-0.098692 0.397455 0.197079 150 150 150
-0.101358 0.396241 0.196952 147 147 147
-0.104140 0.395209 0.196728 144 144 144
-0.106860 0.394084 0.196554 139 139 139
-0.109498 0.392828 0.196450 138 138 138
-0.112135 0.391573 0.196345 138 138 138
-0.114641 0.390110 0.196352 138 138 138
-0.117223 0.388769 0.196293 138 138 138
-0.119805 0.387427 0.196235 138 138 138
-0.122386 0.386086 0.196177 138 138 138
-0.125009 0.384812 0.196083 138 138 138
-0.127734 0.383702 0.195902 138 138 138
-0.130630 0.382872 0.195573 138 138 138
-0.133526 0.382044 0.195243 138 138 138
-0.136511 0.381366 0.194835 138 138 138
-0.139372 0.380488 0.194532 138 138 138
-0.142196 0.379552 0.194261 138 138 138
-0.145019 0.378617 0.193990 138 138 138
-0.148052 0.378030 0.193535 138 138 138
-0.150819 0.377010 0.193309 138 138 138
-0.153676 0.376140 0.193005 138 138 138
-0.156675 0.375509 0.192575 138 138 138
-0.159703 0.374928 0.192119 138 138 138
-0.162517 0.373998 0.191847 138 138 138
-0.165276 0.372977 0.191624 138 138 138
-0.168172 0.372189 0.191279 138 138 138
-0.171148 0.371537 0.190862 138 138 138
-0.173880 0.370478 0.190660 138 138 138
-0.176685 0.369546 0.190391 138 138 138
-0.179418 0.368493 0.190186 138 138 138
-0.182174 0.367482 0.189959 138 138 138
-0.184960 0.366525 0.189705 138 138 138
-0.187650 0.365407 0.189535 138 138 138
-0.190427 0.364438 0.189287 138 138 138
-0.193304 0.363643 0.188949 138 138 138
-0.196164 0.362822 0.188624 138 138 138
-0.198926 0.361836 0.188387 138 138 138
-0.201472 0.360480 0.188342 138 138 138
-0.204018 0.359125 0.188297 138 138 138
-0.206563 0.357769 0.188253 138 138 138
-0.209041 0.356296 0.188270 138 138 138
-0.211516 0.354819 0.188288 138 138 138
-0.213964 0.353293 0.188332 138 138 138
-0.216403 0.351752 0.188384 138 138 138
-0.218914 0.350336 0.188371 138 138 138
-0.221496 0.349044 0.188294 138 138 138
-0.224104 0.347800 0.188191 138 138 138
-0.226711 0.346556 0.188089 138 138 138
-0.229190 0.345085 0.188105 138 138 138
-0.231697 0.343663 0.188095 138 138 138
-0.234203 0.342241 0.188085 138 138 138
-0.236674 0.340757 0.188107 138 138 138
-0.239101 0.339192 0.188172 138 138 138
-0.241494 0.337565 0.188267 138 138 138
-0.243877 0.335920 0.188372 138 138 138
-0.246242 0.334241 0.188495 138 138 138
-0.248608 0.332564 0.188617 138 138 138
-0.250934 0.330812 0.188776 138 138 138
-0.253404 0.329322 0.188801 138 138 138
-0.255959 0.327984 0.188748 138 138 138
-0.258512 0.326645 0.188695 138 138 138
-0.260953 0.325100 0.188748 138 138 138
-0.263394 0.323555 0.188801 138 138 138
-0.265835 0.322010 0.188854 138 138 138
-0.268728 0.321299 0.188479 138 138 138
-0.271349 0.320087 0.188361 139 139 139
-0.273880 0.318712 0.188328 142 142 142
-0.276810 0.318079 0.187914 143 143 143
-0.279741 0.317451 0.187499 143 143 143
-0.282464 0.316440 0.187279 144 144 144
-0.284898 0.314888 0.187337 144 144 144
-0.287302 0.313277 0.187424 145 145 145
-0.289363 0.311019 0.187841 145 145 145
-0.291182 0.308296 0.188495 144 144 144
-0.292763 0.305115 0.189381 144 144 144
-0.294346 0.301928 0.190269 144 144 144
-0.295622 0.298146 0.191458 143 143 143
-0.296575 0.293732 0.192968 143 143 143
-0.297513 0.289272 0.194499 142 142 142
-0.299083 0.286014 0.195418 141 141 141
-0.300774 0.282981 0.196221 138 138 138
-0.302127 0.279283 0.197360 138 138 138
-0.303948 0.276481 0.198044 138 138 138
-0.305849 0.273829 0.198652 138 138 138
-0.307753 0.271174 0.199259 138 138 138
-0.309670 0.268540 0.199856 138 138 138
-0.311813 0.266342 0.200232 138 138 138
-0.313957 0.264143 0.200607 138 138 138
-0.316054 0.261845 0.201032 138 138 138
-0.318237 0.259714 0.201372 138 138 138
-0.320547 0.257832 0.201586 138 138 138
-0.322859 0.255951 0.201800 138 138 138
-0.325270 0.254265 0.201914 138 138 138
-0.327680 0.252576 0.202031 138 138 138
-0.330048 0.250801 0.202190 138 138 138
-0.332455 0.249102 0.202311 138 138 138
-0.334870 0.247421 0.202423 138 138 138
-0.337262 0.245690 0.202560 138 138 138
-0.339590 0.243826 0.202763 138 138 138
-0.341918 0.241962 0.202966 138 138 138
-0.344233 0.240069 0.203183 138 138 138
-0.346374 0.237815 0.203581 138 138 138
-0.348217 0.234948 0.204285 138 138 138
-0.350063 0.232077 0.204991 138 138 138
-0.351952 0.229288 0.205654 138 138 138
-0.353717 0.226235 0.206449 138 138 138
-0.354855 0.221870 0.207897 138 138 138
-0.355960 0.217420 0.209387 138 138 138
-0.356955 0.212724 0.210997 138 138 138
-0.357988 0.208090 0.212574 138 138 138
-0.359002 0.203396 0.214179 138 138 138
-0.359818 0.198267 0.215999 138 138 138
-0.360264 0.192336 0.218216 138 138 138
-0.360972 0.186935 0.220166 138 138 138
-0.361236 0.180566 0.222594 138 138 138
-0.360207 0.171417 0.226400 138 138 138
-0.355120 0.153551 0.234528 138 138 138
-0.354962 0.146155 0.237453 138 138 138
-0.354390 0.137833 0.240833 138 138 138
-0.353479 0.128740 0.244591 138 138 138
-0.353238 0.121052 0.247649 138 138 138
-0.352164 0.111523 0.251614 138 138 138
-0.350616 0.100916 0.256107 138 138 138
-0.350706 0.093826 0.258857 138 138 138
-0.351151 0.087481 0.261235 138 138 138
-0.351622 0.081164 0.263597 138 138 138
-0.351803 0.074183 0.266283 138 138 138
-0.352342 0.067958 0.268593 138 138 138
-0.352714 0.061336 0.271097 138 138 138
-0.352679 0.053780 0.274057 138 138 138
-0.350053 0.040423 0.279867 165 165 165
-0.334312 -0.002281 0.300101 176 176 176
-0.330343 -0.018874 0.307478 179 179 179
0.149489 0.387879 0.253469 180 180 180
0.141504 0.393524 0.249473 160 160 160
0.136990 0.394533 0.248065 156 156 156
0.132602 0.395385 0.246746 153 153 153
0.128302 0.396127 0.245490 149 149 149
0.124579 0.396099 0.244663 147 147 147
0.121216 0.395589 0.244105 146 146 146
0.118103 0.394742 0.243735 145 145 145
0.114993 0.393895 0.243365 146 146 146
0.111885 0.393050 0.242996 146 146 146
0.109010 0.391886 0.242803 149 149 149
0.106075 0.390807 0.242563 151 151 151
0.102712 0.390320 0.241996 162 162 162
0.094151 0.397010 0.237463 179 179 179
0.083962 0.405991 0.231673 182 182 182
0.077092 0.410418 0.228402 171 171 171
0.072580 0.411597 0.226928 165 165 165
0.068484 0.412209 0.225768 157 157 157
0.064845 0.412193 0.224956 152 152 152
0.061511 0.411756 0.224376 144 144 144
0.058157 0.411353 0.223779 143 143 143
0.054819 0.410932 0.223192 141 141 141
0.051668 0.410253 0.222748 138 138 138
0.048551 0.409530 0.222328 138 138 138
0.045396 0.408863 0.221878 138 138 138
0.042052 0.408470 0.221279 138 138 138
0.038662 0.408147 0.220643 138 138 138
0.035264 0.407839 0.219998 138 138 138
0.031869 0.407534 0.219353 138 138 138
0.028726 0.406873 0.218904 138 138 138
0.025724 0.406015 0.218563 138 138 138
0.022716 0.405167 0.218216 138 138 138
0.020555 0.403100 0.218536 138 138 138
0.018618 0.400707 0.219032 138 138 138
0.016579 0.398456 0.219451 138 138 138
0.014540 0.396204 0.219870 138 138 138
0.013008 0.393208 0.220692 138 138 138
0.011533 0.390122 0.221563 138 138 138
0.009434 0.387941 0.221940 138 138 138
0.007256 0.385872 0.222257 138 138 138
0.005078 0.383802 0.222573 138 138 138
0.002735 0.381972 0.222759 138 138 138
0.000135 0.380519 0.222741 138 138 138
-0.002602 0.379270 0.222611 138 138 138
-0.005347 0.378034 0.222475 138 138 138
-0.008110 0.376826 0.222325 138 138 138
-0.010918 0.375686 0.222137 138 138 138
-0.013801 0.374661 0.221888 138 138 138
-0.016983 0.374085 0.221396 138 138 138
-0.020103 0.373421 0.220953 138 138 138
-0.023043 0.372490 0.220655 138 138 138
-0.025982 0.371559 0.220356 138 138 138
-0.028923 0.370635 0.220055 138 138 138
-0.031891 0.369755 0.219730 138 138 138
-0.035271 0.369503 0.219068 138 138 138
-0.038786 0.369464 0.218293 139 139 139
-0.042296 0.369424 0.217519 156 156 156
-0.068893 0.404762 0.197767 158 158 158
-0.072706 0.405288 0.196704 165 165 165
-0.076513 0.405815 0.195643 164 164 164
-0.080314 0.406340 0.194584 163 163 163
-0.083239 0.405522 0.194244 160 160 160
-0.086064 0.404550 0.193987 157 157 157
-0.088887 0.403578 0.193731 152 152 152
-0.091550 0.402360 0.193606 150 150 150
-0.094213 0.401142 0.193482 148 148 148
-0.096898 0.399960 0.193339 146 146 146
-0.099572 0.398762 0.193204 144 144 144
-0.102229 0.397539 0.193083 141 141 141
-0.104840 0.396243 0.193000 138 138 138
-0.107330 0.394759 0.193019 138 138 138
-0.109821 0.393273 0.193037 138 138 138
-0.112280 0.391738 0.193082 138 138 138
-0.114432 0.389714 0.193387 138 138 138
-0.117037 0.388410 0.193309 138 138 138
-0.119646 0.387113 0.193227 138 138 138
-0.122255 0.385817 0.193145 138 138 138
-0.124838 0.384480 0.193085 138 138 138
-0.127607 0.383444 0.192866 138 138 138
-0.130432 0.382499 0.192599 138 138 138
-0.133184 0.381440 0.192392 138 138 138
-0.136068 0.380597 0.192072 138 138 138
-0.138906 0.379681 0.191790 138 138 138
-0.141730 0.378746 0.191519 138 138 138
-0.144565 0.377830 0.191239 138 138 138
-0.147683 0.377383 0.190711 138 138 138
-0.150633 0.376665 0.190327 138 138 138
-0.153647 0.376055 0.189887 138 138 138
-0.156676 0.375474 0.189432 138 138 138
-0.159702 0.374894 0.188977 138 138 138
-0.162655 0.374194 0.188586 138 138 138
-0.165415 0.373179 0.188360 138 138 138
-0.168392 0.372527 0.187945 138 138 138
-0.171367 0.371878 0.187529 138 138 138
-0.174335 0.371218 0.187118 138 138 138
-0.177061 0.370157 0.186918 138 138 138
-0.179787 0.369096 0.186718 138 138 138
-0.182600 0.368187 0.186440 138 138 138
-0.185445 0.367333 0.186133 138 138 138
-0.188158 0.366257 0.185942 138 138 138
-0.191034 0.365462 0.185604 138 138 138
-0.193881 0.364619 0.185292 138 138 138
-0.196707 0.363746 0.184997 138 138 138
-0.199381 0.362613 0.184837 138 138 138
-0.201981 0.361354 0.184743 138 138 138
-0.204580 0.360094 0.184649 138 138 138
-0.207133 0.358756 0.184596 138 138 138
-0.209646 0.357348 0.184579 138 138 138
-0.212103 0.355845 0.184612 138 138 138
-0.214541 0.354305 0.184663 138 138 138
-0.216978 0.352766 0.184715 138 138 138
-0.219431 0.351252 0.184753 138 138 138
-0.221935 0.349829 0.184744 138 138 138
-0.224438 0.348405 0.184736 138 138 138
-0.226903 0.346912 0.184763 138 138 138
-0.229271 0.345247 0.184879 138 138 138
-0.231719 0.343724 0.184922 138 138 138
-0.234224 0.342302 0.184912 138 138 138
-0.236673 0.340779 0.184955 138 138 138
-0.239120 0.339253 0.184999 138 138 138
-0.241520 0.337642 0.185087 138 138 138
-0.243890 0.335976 0.185203 138 138 138
-0.246254 0.334298 0.185325 138 138 138
-0.248619 0.332620 0.185447 138 138 138
-0.251064 0.331086 0.185494 138 138 138
-0.253504 0.329543 0.185547 138 138 138
-0.255943 0.327998 0.185600 138 138 138
-0.258507 0.326680 0.185537 138 138 138
-0.261150 0.325509 0.185398 138 138 138
-0.263590 0.323964 0.185452 138 138 138
-0.266192 0.322719 0.185351 138 138 138
-0.269180 0.322189 0.184886 138 138 138
-0.272057 0.321458 0.184523 139 139 139
-0.274861 0.320593 0.184230 140 140 140
-0.277645 0.319696 0.183953 140 140 140
-0.280400 0.318746 0.183703 141 141 141
-0.283054 0.317610 0.183549 141 141 141
-0.285488 0.316063 0.183604 141 141 141
-0.287856 0.314390 0.183723 142 142 142
-0.290042 0.312374 0.184017 141 141 141
-0.292125 0.310157 0.184412 140 140 140
-0.293769 0.307103 0.185232 140 140 140
-0.295351 0.303922 0.186116 140 140 140
-0.297090 0.301032 0.186851 140 140 140
-0.298444 0.297395 0.187963 140 140 140
-0.299601 0.293369 0.189271 142 142 142
-0.300855 0.289515 0.190491 141 141 141
-0.302096 0.285623 0.191728 139 139 139
-0.303402 0.281844 0.192907 138 138 138
-0.304794 0.278221 0.194005 138 138 138
-0.306449 0.275095 0.194851 138 138 138
-0.308351 0.272444 0.195456 138 138 138
-0.309961 0.269213 0.196353 138 138 138
-0.312091 0.266994 0.196738 138 138 138
-0.314216 0.264761 0.197130 138 138 138
-0.316280 0.262404 0.197584 138 138 138
-0.318346 0.260045 0.198038 138 138 138
-0.320640 0.258132 0.198268 138 138 138
-0.323017 0.256383 0.198415 138 138 138
-0.325426 0.254698 0.198529 138 138 138
-0.327836 0.253013 0.198644 138 138 138
-0.330230 0.251292 0.198776 138 138 138
-0.332644 0.249612 0.198887 138 138 138
-0.335048 0.247912 0.199009 138 138 138
-0.337437 0.246178 0.199147 138 138 138
-0.339767 0.244323 0.199346 138 138 138
-0.342073 0.242418 0.199569 138 138 138
-0.344226 0.240197 0.199950 138 138 138
-0.346394 0.238002 0.200318 138 138 138
-0.348366 0.235402 0.200887 138 138 138
-0.350230 0.232572 0.201570 138 138 138
-0.352096 0.229739 0.202254 138 138 138
-0.353891 0.226752 0.203014 138 138 138
-0.355208 0.222762 0.204273 138 138 138
-0.356342 0.218379 0.205726 138 138 138
-0.357392 0.213802 0.207272 138 138 138
-0.358363 0.209042 0.208909 138 138 138
-0.359443 0.204493 0.210438 138 138 138
-0.360525 0.199931 0.211972 138 138 138
-0.361222 0.194537 0.213917 138 138 138
-0.361774 0.188813 0.216023 138 138 138
-0.362110 0.182607 0.218365 138 138 138
-0.362413 0.176303 0.220753 138 138 138
-0.359175 0.162406 0.226896 138 138 138
-0.356255 0.149119 0.232730 138 138 138
-0.355793 0.141046 0.235979 138 138 138
-0.354660 0.131488 0.239958 138 138 138
-0.353939 0.122772 0.243516 138 138 138
-0.353529 0.114689 0.246758 138 138 138
-0.351449 0.102939 0.251803 138 138 138
-0.350729 0.094092 0.255413 138 138 138
-0.351234 0.087882 0.257718 138 138 138
-0.351837 0.081859 0.259929 138 138 138
-0.352438 0.075806 0.262153 138 138 138
-0.353052 0.069754 0.264373 138 138 138
-0.353692 0.063734 0.266574 138 138 138
-0.354323 0.057667 0.268796 138 138 138
-0.354827 0.051291 0.271167 138 138 138
-0.353426 0.040633 0.275634 160 160 160
-0.338296 -0.000813 0.295186 173 173 173
-0.334266 -0.017574 0.302623 164 164 164
0.156653 0.383172 0.253578 132 132 132
0.145877 0.392527 0.247526 167 167 167
0.140603 0.394546 0.245558 158 158 158
0.136101 0.395544 0.244160 153 153 153
0.131865 0.396194 0.242957 150 150 150
0.128138 0.396166 0.242132 149 149 149
0.124416 0.396138 0.241308 147 147 147
0.120774 0.396010 0.240541 145 145 145
0.117664 0.395163 0.240172 145 145 145
0.114446 0.394466 0.239721 145 145 145
0.110905 0.394214 0.239025 148 148 148
0.106835 0.394694 0.237925 157 157 157
0.103643 0.393977 0.237488 165 165 165
0.096945 0.398091 0.234386 175 175 175
0.087926 0.405434 0.229510 179 179 179
0.080553 0.410541 0.225871 175 175 175
0.075450 0.412531 0.223953 168 168 168
0.071484 0.412958 0.222898 161 161 161
0.067649 0.413212 0.221938 153 153 153
0.064334 0.412748 0.221376 151 151 151
0.060979 0.412345 0.220779 148 148 148
0.057627 0.411942 0.220184 145 145 145
0.054282 0.411534 0.219592 141 141 141
0.051125 0.410866 0.219143 139 139 139
0.047723 0.410549 0.218503 138 138 138
0.044437 0.410073 0.217951 138 138 138
0.041230 0.409489 0.217459 138 138 138
0.037844 0.409165 0.216825 138 138 138
0.034460 0.408842 0.216191 138 138 138
0.031132 0.408446 0.215599 138 138 138
0.027882 0.407943 0.215065 138 138 138
0.024875 0.407095 0.214720 138 138 138
0.022357 0.405546 0.214757 138 138 138
0.020292 0.403344 0.215149 138 138 138
0.018414 0.400868 0.215690 138 138 138
0.016400 0.398584 0.216126 138 138 138
0.014540 0.396072 0.216684 138 138 138
0.013397 0.392511 0.217812 138 138 138
0.012257 0.388936 0.218945 138 138 138
0.010291 0.386560 0.219427 138 138 138
0.008113 0.384490 0.219743 138 138 138
0.005935 0.382419 0.220059 138 138 138
0.003579 0.380606 0.220235 138 138 138
0.000887 0.379288 0.220143 138 138 138
-0.001865 0.378061 0.220003 138 138 138
-0.004618 0.376835 0.219862 138 138 138
-0.007363 0.375599 0.219726 138 138 138
-0.010285 0.374628 0.219448 138 138 138
-0.013469 0.374053 0.218957 138 138 138
-0.016651 0.373477 0.218467 138 138 138
-0.019829 0.372902 0.217977 138 138 138
-0.022830 0.372063 0.217630 138 138 138
-0.025768 0.371132 0.217333 138 138 138
-0.028746 0.370265 0.217001 138 138 138
-0.032246 0.370193 0.216244 138 138 138
-0.060676 0.408046 0.195158 152 152 152
-0.064706 0.408888 0.193927 166 166 166
-0.068728 0.409728 0.192698 166 166 166
-0.072717 0.410530 0.191492 163 163 163
-0.075760 0.409888 0.191059 161 161 161
-0.078642 0.409003 0.190756 158 158 158
-0.081488 0.408066 0.190481 157 157 157
-0.084278 0.407044 0.190253 153 153 153
-0.087098 0.406071 0.189998 149 149 149
-0.089805 0.404924 0.189837 146 146 146
-0.092455 0.403690 0.189721 145 145 145
-0.095104 0.402457 0.189606 143 143 143
-0.097748 0.401215 0.189496 140 140 140
-0.100158 0.399609 0.189579 138 138 138
-0.102568 0.398000 0.189663 138 138 138
-0.105028 0.396470 0.189707 138 138 138
-0.107507 0.394969 0.189734 138 138 138
-0.109996 0.393484 0.189752 138 138 138
-0.112253 0.391630 0.189966 138 138 138
-0.114330 0.389487 0.190333 138 138 138
-0.116820 0.388001 0.190352 138 138 138
-0.119428 0.386705 0.190270 138 138 138
-0.122037 0.385408 0.190189 138 138 138
-0.124547 0.383954 0.190191 138 138 138
-0.127078 0.382535 0.190175 138 138 138
-0.129849 0.381504 0.189953 138 138 138
-0.132632 0.380494 0.189721 138 138 138
-0.135522 0.379660 0.189397 138 138 138
-0.138440 0.378874 0.189048 138 138 138
-0.141264 0.377939 0.188778 138 138 138
-0.144195 0.377182 0.188414 138 138 138
-0.147313 0.376735 0.187888 138 138 138
-0.150488 0.376387 0.187312 138 138 138
-0.153573 0.375895 0.186811 138 138 138
-0.156650 0.375396 0.186314 138 138 138
-0.159702 0.374860 0.185838 138 138 138
-0.162725 0.374280 0.185385 138 138 138
-0.165636 0.373517 0.185029 138 138 138
-0.168621 0.372883 0.184605 138 138 138
-0.171606 0.372252 0.184181 138 138 138
-0.174589 0.371621 0.183757 138 138 138
-0.177432 0.370759 0.183454 138 138 138
-0.180182 0.369744 0.183232 138 138 138
-0.183026 0.368890 0.182925 138 138 138
-0.185869 0.368036 0.182619 138 138 138
-0.188654 0.367087 0.182363 138 138 138
-0.191435 0.366134 0.182110 138 138 138
-0.194215 0.365181 0.181857 138 138 138
-0.196993 0.364228 0.181604 138 138 138
-0.199752 0.363245 0.181366 138 138 138
-0.202367 0.362015 0.181258 138 138 138
-0.204982 0.360786 0.181149 138 138 138
-0.207595 0.359557 0.181040 138 138 138
-0.210171 0.358262 0.180965 138 138 138
-0.212532 0.356596 0.181083 138 138 138
-0.214879 0.354902 0.181215 138 138 138
-0.217227 0.353209 0.181346 138 138 138
-0.219618 0.351591 0.181438 138 138 138
-0.222115 0.350158 0.181435 138 138 138
-0.224594 0.348694 0.181447 138 138 138
-0.226967 0.347041 0.181558 138 138 138
-0.229339 0.345387 0.181668 138 138 138
-0.231741 0.343784 0.181752 138 138 138
-0.234225 0.342327 0.181761 138 138 138
-0.236672 0.340802 0.181805 138 138 138
-0.239118 0.339276 0.181849 138 138 138
-0.241541 0.337709 0.181914 138 138 138
-0.243875 0.335981 0.182062 138 138 138
-0.246192 0.334219 0.182227 138 138 138
-0.248543 0.332517 0.182361 138 138 138
-0.250933 0.330887 0.182458 138 138 138
-0.253372 0.329342 0.182511 138 138 138
-0.255811 0.327798 0.182564 138 138 138
-0.258495 0.326703 0.182387 138 138 138
-0.261321 0.325869 0.182077 138 138 138
-0.263785 0.324373 0.182106 138 138 138
-0.266646 0.323608 0.181761 138 138 138
-0.269631 0.323076 0.181299 138 138 138
-0.272596 0.322511 0.180853 138 138 138
-0.275418 0.321687 0.180540 138 138 138
-0.278172 0.320737 0.180291 139 139 139
-0.280870 0.319687 0.180094 139 139 139
-0.283520 0.318549 0.179941 139 139 139
-0.286077 0.317237 0.179877 139 139 139
-0.288409 0.315502 0.180029 138 138 138
-0.290594 0.313488 0.180321 138 138 138
-0.292780 0.311472 0.180614 138 138 138
-0.294774 0.309088 0.181093 138 138 138
-0.296504 0.306197 0.181828 138 138 138
-0.298252 0.303332 0.182549 138 138 138
-0.299793 0.300063 0.183474 138 138 138
-0.300998 0.296139 0.184728 139 139 139
-0.302065 0.291935 0.186122 140 140 140
-0.303321 0.288081 0.187338 140 140 140
-0.304651 0.284357 0.188487 138 138 138
-0.305999 0.280656 0.189623 138 138 138
-0.307444 0.277131 0.190668 138 138 138
-0.308948 0.273711 0.191660 138 138 138
-0.310544 0.270458 0.192566 138 138 138
-0.312368 0.267645 0.193249 138 138 138
-0.314444 0.265318 0.193688 138 138 138
-0.316507 0.262962 0.194140 138 138 138
-0.318572 0.260605 0.194593 138 138 138
-0.320767 0.258502 0.194918 138 138 138
-0.323194 0.256855 0.195013 138 138 138
-0.325644 0.255254 0.195086 138 138 138
-0.328105 0.253675 0.195147 138 138 138
-0.330389 0.251739 0.195387 138 138 138
-0.332749 0.249953 0.195552 138 138 138
-0.335124 0.248196 0.195702 138 138 138
-0.337511 0.246462 0.195840 138 138 138
-0.339886 0.244702 0.195991 138 138 138
-0.342110 0.242631 0.196297 138 138 138
-0.344230 0.240346 0.196709 138 138 138
-0.346351 0.238059 0.197122 138 138 138
-0.348484 0.235792 0.197524 138 138 138
-0.350343 0.232956 0.198209 138 138 138
-0.352208 0.230124 0.198891 138 138 138
-0.353875 0.226875 0.199780 138 138 138
-0.355347 0.223209 0.200874 138 138 138
-0.356587 0.219050 0.202211 138 138 138
-0.357828 0.214877 0.203555 138 138 138
-0.358790 0.210105 0.205193 138 138 138
-0.359817 0.205449 0.206772 138 138 138
-0.360883 0.200859 0.208316 138 138 138
-0.361708 0.195741 0.210120 138 138 138
-0.362536 0.190609 0.211928 138 138 138
-0.362790 0.184234 0.214348 138 138 138
-0.363124 0.178004 0.216694 138 138 138
-0.363144 0.171076 0.219381 138 138 138
-0.357293 0.151538 0.228286 138 138 138
-0.357103 0.144058 0.231235 138 138 138
-0.356160 0.134920 0.234997 138 138 138
-0.355069 0.125420 0.238934 138 138 138
-0.354346 0.116669 0.242496 138 138 138
-0.352150 0.104676 0.247649 138 138 138
-0.351215 0.095369 0.251475 138 138 138
-0.351393 0.088451 0.254123 138 138 138
-0.351991 0.082422 0.256331 138 138 138
-0.352754 0.076728 0.258373 138 138 138
-0.353517 0.071011 0.260423 138 138 138
-0.354149 0.064979 0.262625 138 138 138
-0.354901 0.059187 0.264707 138 138 138
-0.355690 0.053452 0.266758 138 138 138
-0.356964 0.048776 0.268289 138 138 138
-0.356599 0.040411 0.271621 158 158 158
-0.340079 -0.004264 0.292687 169 169 169
-0.335765 -0.021712 0.300434 161 161 161
0.152261 0.388849 0.247061 126 126 126
0.144940 0.393592 0.243585 164 164 164
0.139577 0.395736 0.241555 157 157 157
0.135304 0.396430 0.240330 152 152 152
0.131478 0.396532 0.239434 149 149 149
0.127780 0.396467 0.238632 147 147 147
0.124088 0.396402 0.237831 146 146 146
0.120391 0.396350 0.237025 144 144 144
0.116892 0.396035 0.236364 146 146 146
0.113558 0.395501 0.235825 147 147 147
0.109350 0.396167 0.234625 155 155 155
0.104521 0.397693 0.232953 163 163 163
0.099017 0.400161 0.230766 172 172 172
0.091350 0.405626 0.226933 175 175 175
0.083900 0.410823 0.223252 175 175 175
0.078795 0.412807 0.221341 171 171 171
0.074352 0.413891 0.219927 164 164 164
0.070306 0.414434 0.218811 158 158 158
0.066744 0.414312 0.218061 154 154 154
0.063404 0.413888 0.217479 151 151 151
0.060108 0.413406 0.216928 148 148 148
0.056811 0.412931 0.216374 145 145 145
0.053439 0.412566 0.215762 143 143 143
0.050047 0.412234 0.215131 142 142 142
0.046671 0.411885 0.214511 140 140 140
0.043509 0.411238 0.214055 138 138 138
0.040351 0.410591 0.213599 138 138 138
0.037066 0.410126 0.213044 138 138 138
0.033743 0.409722 0.212457 138 138 138
0.030423 0.409317 0.211871 138 138 138
0.027107 0.408913 0.211286 138 138 138
0.024157 0.407988 0.210984 138 138 138
0.022094 0.405789 0.211375 138 138 138
0.020029 0.403588 0.211766 138 138 138
0.017963 0.401386 0.212157 138 138 138
0.016221 0.398711 0.212804 138 138 138
0.014929 0.395377 0.213807 138 138 138
0.013787 0.391815 0.214932 138 138 138
0.012646 0.388240 0.216062 138 138 138
0.011148 0.385179 0.216913 138 138 138
0.008892 0.383223 0.217166 138 138 138
0.006569 0.381364 0.217366 138 138 138
0.004174 0.379608 0.217511 138 138 138
0.001654 0.378036 0.217556 138 138 138
-0.001100 0.376809 0.217416 138 138 138
-0.003853 0.375583 0.217275 138 138 138
-0.007004 0.374950 0.216815 138 138 138
-0.010370 0.374644 0.216181 138 138 138
-0.013393 0.373828 0.215821 138 138 138
-0.016414 0.373013 0.215461 138 138 138
-0.019496 0.372294 0.215050 138 138 138
-0.022616 0.371635 0.214607 138 138 138
-0.025902 0.371231 0.214028 151 151 151
-0.055598 0.410809 0.192048 152 152 152
-0.060072 0.412316 0.190463 166 166 166
-0.064252 0.413388 0.189112 165 165 165
-0.067902 0.413665 0.188188 164 164 164
-0.070893 0.412944 0.187799 163 163 163
-0.073939 0.412310 0.187363 158 158 158
-0.076889 0.411532 0.187004 155 155 155
-0.079755 0.410630 0.186713 152 152 152
-0.082543 0.409608 0.186485 149 149 149
-0.085329 0.408586 0.186258 145 145 145
-0.088052 0.407467 0.186082 141 141 141
-0.090655 0.406165 0.186004 140 140 140
-0.093258 0.404863 0.185926 139 139 139
-0.095861 0.403562 0.185848 138 138 138
-0.098473 0.402275 0.185762 138 138 138
-0.100753 0.400469 0.185952 138 138 138
-0.102944 0.398520 0.186217 138 138 138
-0.105220 0.396703 0.186412 138 138 138
-0.107683 0.395179 0.186452 138 138 138
-0.110171 0.393695 0.186470 138 138 138
-0.112226 0.391522 0.186853 138 138 138
-0.114268 0.389326 0.187246 138 138 138
-0.116613 0.387610 0.187387 138 138 138
-0.119154 0.386206 0.187363 138 138 138
-0.121586 0.384626 0.187431 138 138 138
-0.124030 0.383067 0.187488 138 138 138
-0.126501 0.381550 0.187523 138 138 138
-0.129296 0.380557 0.187282 138 138 138
-0.132080 0.379548 0.187051 138 138 138
-0.134908 0.378614 0.186780 138 138 138
-0.137938 0.378010 0.186336 138 138 138
-0.140798 0.377132 0.186036 138 138 138
-0.143827 0.376535 0.185590 138 138 138
-0.146878 0.375979 0.185123 138 138 138
-0.150194 0.375863 0.184426 138 138 138
-0.153331 0.375459 0.183880 138 138 138
-0.156408 0.374960 0.183385 138 138 138
-0.159482 0.374462 0.182891 138 138 138
-0.162611 0.374059 0.182347 138 138 138
-0.165853 0.373850 0.181702 138 138 138
-0.168848 0.373233 0.181272 138 138 138
-0.171840 0.372617 0.180841 138 138 138
-0.174826 0.371996 0.180414 138 138 138
-0.177802 0.371360 0.179994 138 138 138
-0.180599 0.370428 0.179730 138 138 138
-0.183380 0.369470 0.179479 138 138 138
-0.186160 0.368513 0.179228 138 138 138
-0.188938 0.367556 0.178977 138 138 138
-0.191717 0.366603 0.178725 138 138 138
-0.194495 0.365650 0.178472 138 138 138
-0.197272 0.364698 0.178220 138 138 138
-0.200047 0.363746 0.177968 138 138 138
-0.202702 0.362588 0.177823 138 138 138
-0.205233 0.361219 0.177787 138 138 138
-0.207765 0.359850 0.177751 138 138 138
-0.210273 0.358442 0.177735 138 138 138
-0.212711 0.356910 0.177784 138 138 138
-0.215063 0.355230 0.177909 138 138 138
-0.217409 0.353537 0.178040 138 138 138
-0.219809 0.351937 0.178123 138 138 138
-0.222287 0.350474 0.178135 138 138 138
-0.224658 0.348822 0.178245 138 138 138
-0.227030 0.347169 0.178355 138 138 138
-0.229402 0.345516 0.178465 138 138 138
-0.231774 0.343863 0.178575 138 138 138
-0.234225 0.342349 0.178613 138 138 138
-0.236613 0.340722 0.178709 138 138 138
-0.238996 0.339084 0.178811 138 138 138
-0.241379 0.337447 0.178912 138 138 138
-0.243708 0.335710 0.179064 138 138 138
-0.246063 0.334019 0.179192 138 138 138
-0.248443 0.332372 0.179298 138 138 138
-0.250823 0.330724 0.179404 138 138 138
-0.253239 0.329142 0.179477 138 138 138
-0.255678 0.327598 0.179530 138 138 138
-0.258484 0.326728 0.179239 138 138 138
-0.261309 0.325893 0.178930 138 138 138
-0.264114 0.325025 0.178639 138 138 138
-0.267081 0.324461 0.178194 138 138 138
-0.270046 0.323896 0.177750 138 138 138
-0.273009 0.323332 0.177305 138 138 138
-0.275946 0.322726 0.176883 138 138 138
-0.278688 0.321761 0.176643 138 138 138
-0.281338 0.320624 0.176491 138 138 138
-0.283986 0.319487 0.176339 138 138 138
-0.286598 0.318284 0.176221 138 138 138
-0.288884 0.316466 0.176414 138 138 138
-0.291068 0.314456 0.176704 138 138 138
-0.293262 0.312459 0.176988 138 138 138
-0.295433 0.310417 0.177293 138 138 138
-0.297332 0.307852 0.177862 138 138 138
-0.299122 0.305074 0.178538 138 138 138
-0.300898 0.302262 0.179230 138 138 138
-0.302355 0.298831 0.180234 138 138 138
-0.303502 0.294790 0.181543 138 138 138
-0.304528 0.290502 0.182976 139 139 139
-0.305821 0.286716 0.184153 138 138 138
-0.307089 0.282868 0.185361 138 138 138
-0.308497 0.279280 0.186436 138 138 138
-0.309958 0.275782 0.187465 138 138 138
-0.311474 0.272383 0.188443 138 138 138
-0.312953 0.268898 0.189462 138 138 138
-0.314880 0.266285 0.190044 138 138 138
-0.316945 0.263938 0.190491 138 138 138
-0.319012 0.261590 0.190938 138 138 138
-0.321167 0.259412 0.191301 138 138 138
-0.323621 0.257824 0.191367 138 138 138
-0.326080 0.256246 0.191428 138 138 138
-0.328433 0.254455 0.191596 138 138 138
-0.330642 0.252374 0.191908 138 138 138
-0.332936 0.250460 0.192136 138 138 138
-0.335283 0.248649 0.192313 138 138 138
-0.337647 0.246872 0.192473 138 138 138
-0.340009 0.245088 0.192636 138 138 138
-0.342152 0.242857 0.193021 138 138 138
-0.344232 0.240494 0.193471 138 138 138
-0.346353 0.238208 0.193882 138 138 138
-0.348475 0.235921 0.194294 138 138 138
-0.350456 0.233339 0.194851 138 138 138
-0.352321 0.230510 0.195530 138 138 138
-0.353859 0.226997 0.196547 138 138 138
-0.355398 0.223476 0.197568 138 138 138
-0.356725 0.219499 0.198812 138 138 138
-0.357932 0.215259 0.200185 138 138 138
-0.359076 0.210871 0.201629 138 138 138
-0.360190 0.206403 0.203112 138 138 138
-0.361227 0.201756 0.204680 138 138 138
-0.362052 0.196643 0.206477 138 138 138
-0.362880 0.191516 0.208279 138 138 138
-0.363444 0.185807 0.210365 138 138 138
-0.363823 0.179679 0.212654 138 138 138
-0.363898 0.172877 0.215274 138 138 138
-0.362332 0.162526 0.219635 138 138 138
-0.358274 0.146772 0.226648 138 138 138
-0.357597 0.138219 0.230114 138 138 138
-0.356584 0.128899 0.233952 138 138 138
-0.355173 0.118671 0.238231 138 138 138
-0.353430 0.107670 0.242884 138 138 138
-0.351647 0.096528 0.247600 138 138 138
-0.352002 0.090001 0.250050 138 138 138
-0.352441 0.083632 0.252420 138 138 138
-0.353042 0.077588 0.254628 138 138 138
-0.354000 0.072305 0.256460 138 138 138
-0.354629 0.066275 0.258656 138 138 138
-0.355463 0.060671 0.260641 138 138 138
-0.356552 0.055612 0.262358 138 138 138
-0.357812 0.050913 0.263897 138 138 138
-0.359115 0.046291 0.265397 138 138 138
-0.359324 0.039195 0.268100 158 158 158
-0.340365 -0.011094 0.291829 158 158 158
-0.337266 -0.025855 0.298242 166 166 166
0.150010 0.391666 0.242147 171 171 171
0.143759 0.394985 0.239470 163 163 163
0.138771 0.396631 0.237721 155 155 155
0.134796 0.396928 0.236719 150 150 150
0.130898 0.397130 0.235771 146 146 146
0.127204 0.397065 0.234972 144 144 144
0.123494 0.397027 0.234159 145 145 145
0.119761 0.397027 0.233326 147 147 147
0.116003 0.397068 0.232472 149 149 149
0.112300 0.397042 0.231656 152 152 152
0.107606 0.398377 0.230092 161 161 161
0.101479 0.401690 0.227445 168 168 168
0.094629 0.406019 0.224244 171 171 171
0.087643 0.410562 0.220929 174 174 174
0.082057 0.413200 0.218663 173 173 173
0.077197 0.414854 0.216940 168 168 168
0.073123 0.415432 0.215808 163 163 163
0.069273 0.415709 0.214842 158 158 158
0.065854 0.415394 0.214201 155 155 155
0.062459 0.415050 0.213576 151 151 151
0.059084 0.414684 0.212964 149 149 149
0.055713 0.414317 0.212354 148 148 148
0.052345 0.413951 0.211744 146 146 146
0.048971 0.413599 0.211127 145 145 145
0.045742 0.413047 0.210620 141 141 141
0.042527 0.412480 0.210122 138 138 138
0.039416 0.411770 0.209702 138 138 138
0.036388 0.410947 0.209345 138 138 138
0.033062 0.410549 0.208756 138 138 138
0.029740 0.410152 0.208168 138 138 138
0.026584 0.409522 0.207708 138 138 138
0.024119 0.407904 0.207783 138 138 138
0.022087 0.405661 0.208196 138 138 138
0.020054 0.403417 0.208610 138 138 138
0.018019 0.401171 0.209024 138 138 138
0.016419 0.398291 0.209780 138 138 138
0.015317 0.394681 0.210929 138 138 138
0.014176 0.391118 0.212052 138 138 138
0.013035 0.387545 0.213178 138 138 138
0.011720 0.384216 0.214171 138 138 138
0.009525 0.382170 0.214472 138 138 138
0.007193 0.380323 0.214666 138 138 138
0.004768 0.378610 0.214786 138 138 138
0.002343 0.376897 0.214907 138 138 138
-0.000334 0.375557 0.214828 138 138 138
-0.003650 0.375166 0.214239 138 138 138
-0.007141 0.375040 0.213509 138 138 138
-0.010628 0.374914 0.212779 138 138 138
-0.013755 0.374258 0.212335 138 138 138
-0.016773 0.373443 0.211977 138 138 138
-0.019955 0.372876 0.211486 139 139 139
-0.050079 0.412903 0.189296 154 154 154
-0.054218 0.413888 0.187992 163 163 163
-0.058653 0.415334 0.186444 163 163 163
-0.062675 0.416167 0.185224 161 161 161
-0.065902 0.415801 0.184646 160 160 160
-0.068891 0.415079 0.184258 158 158 158
-0.071909 0.414403 0.183846 158 158 158
-0.074977 0.413809 0.183391 153 153 153
-0.078016 0.413173 0.182959 148 148 148
-0.080761 0.412090 0.182764 145 145 145
-0.083419 0.410873 0.182642 142 142 142
-0.086081 0.409665 0.182515 139 139 139
-0.088909 0.408714 0.182251 138 138 138
-0.091497 0.407393 0.182184 138 138 138
-0.094081 0.406067 0.182120 138 138 138
-0.096665 0.404740 0.182057 138 138 138
-0.099160 0.403275 0.182066 138 138 138
-0.101368 0.401360 0.182313 138 138 138
-0.103547 0.399395 0.182587 138 138 138
-0.105728 0.397432 0.182859 138 138 138
-0.107919 0.395483 0.183123 138 138 138
-0.110158 0.393607 0.183349 138 138 138
-0.112199 0.391414 0.183741 138 138 138
-0.114241 0.389219 0.184133 138 138 138
-0.116338 0.387109 0.184481 138 138 138
-0.118603 0.385263 0.184689 138 138 138
-0.121054 0.383715 0.184740 138 138 138
-0.123506 0.382167 0.184792 138 138 138
-0.125992 0.380673 0.184814 138 138 138
-0.128621 0.379412 0.184715 138 138 138
-0.131527 0.378601 0.184380 138 138 138
-0.134310 0.377592 0.184149 138 138 138
-0.137325 0.376964 0.183719 138 138 138
-0.140337 0.376334 0.183290 138 138 138
-0.143380 0.375760 0.182833 138 138 138
-0.146565 0.375423 0.182253 138 138 138
-0.149880 0.375307 0.181558 138 138 138
-0.153081 0.375009 0.180959 138 138 138
-0.156167 0.374525 0.180457 138 138 138
-0.159340 0.374191 0.179878 138 138 138
-0.162670 0.374124 0.179161 138 138 138
-0.165971 0.374017 0.178466 138 138 138
-0.169043 0.373533 0.177968 138 138 138
-0.172034 0.372917 0.177539 138 138 138
-0.175022 0.372301 0.177110 138 138 138
-0.177991 0.371658 0.176696 138 138 138
-0.180854 0.370837 0.176374 138 138 138
-0.183633 0.369880 0.176124 138 138 138
-0.186411 0.368923 0.175874 138 138 138
-0.189171 0.367938 0.175639 138 138 138
-0.191927 0.366949 0.175406 138 138 138
-0.194699 0.365989 0.175159 138 138 138
-0.197446 0.364989 0.174933 138 138 138
-0.200170 0.363950 0.174726 138 138 138
-0.202828 0.362801 0.174577 138 138 138
-0.205358 0.361433 0.174541 138 138 138
-0.207889 0.360065 0.174506 138 138 138
-0.210375 0.358622 0.174508 138 138 138
-0.212857 0.357169 0.174516 138 138 138
-0.215237 0.355539 0.174615 138 138 138
-0.217592 0.353864 0.174737 138 138 138
-0.220001 0.352284 0.174810 138 138 138
-0.222319 0.350542 0.174966 138 138 138
-0.224668 0.348853 0.175095 138 138 138
-0.227018 0.347164 0.175223 138 138 138
-0.229339 0.345425 0.175377 138 138 138
-0.231662 0.343684 0.175532 138 138 138
-0.234013 0.341995 0.175660 138 138 138
-0.236398 0.340362 0.175759 138 138 138
-0.238783 0.338730 0.175857 138 138 138
-0.241168 0.337097 0.175956 138 138 138
-0.243555 0.335467 0.176053 138 138 138
-0.245963 0.333873 0.176132 138 138 138
-0.248342 0.332226 0.176238 138 138 138
-0.250722 0.330579 0.176343 138 138 138
-0.253108 0.328942 0.176444 138 138 138
-0.255648 0.327586 0.176401 138 138 138
-0.258473 0.326752 0.176093 138 138 138
-0.261285 0.325895 0.175797 138 138 138
-0.264341 0.325494 0.175270 138 138 138
-0.267370 0.325045 0.174768 138 138 138
-0.270366 0.324541 0.174294 138 138 138
-0.273359 0.324037 0.173821 138 138 138
-0.276350 0.323535 0.173348 138 138 138
-0.279131 0.322646 0.173071 138 138 138
-0.281744 0.321446 0.172951 138 138 138
-0.284356 0.320245 0.172833 138 138 138
-0.286952 0.319016 0.172729 138 138 138
-0.289349 0.317412 0.172813 138 138 138
-0.291540 0.315418 0.173095 138 138 138
-0.293720 0.313400 0.173389 138 138 138
-0.295878 0.311338 0.173704 138 138 138
-0.297978 0.309163 0.174076 138 138 138
-0.299777 0.306407 0.174740 138 138 138
-0.301552 0.303598 0.175429 138 138 138
-0.303284 0.300700 0.176163 138 138 138
-0.304695 0.297176 0.177210 138 138 138
-0.305799 0.293048 0.178559 138 138 138
-0.307221 0.289519 0.179605 139 139 139
-0.308239 0.285197 0.181048 138 138 138
-0.309548 0.281424 0.182214 138 138 138
-0.311025 0.277966 0.183221 138 138 138
-0.312530 0.274552 0.184205 138 138 138
-0.314060 0.271178 0.185167 138 138 138
-0.315669 0.267948 0.186057 138 138 138
-0.317595 0.265332 0.186638 138 138 138
-0.319660 0.262987 0.187083 138 138 138
-0.321779 0.260742 0.187478 138 138 138
-0.324058 0.258813 0.187715 138 138 138
-0.326512 0.257229 0.187780 138 138 138
-0.328719 0.255151 0.188090 138 138 138
-0.330927 0.253071 0.188402 138 138 138
-0.333154 0.251027 0.188695 138 138 138
-0.335481 0.249181 0.188889 138 138 138
-0.337815 0.247346 0.189077 138 138 138
-0.340130 0.245472 0.189285 138 138 138
-0.342400 0.243501 0.189540 138 138 138
-0.344444 0.241069 0.190024 138 138 138
-0.346490 0.238634 0.190508 138 138 138
-0.348538 0.236198 0.190993 138 138 138
-0.350576 0.233737 0.191489 138 138 138
-0.352307 0.230634 0.192302 138 138 138
-0.353843 0.227120 0.193318 138 138 138
-0.355381 0.223600 0.194335 138 138 138
-0.356862 0.219946 0.195417 138 138 138
-0.358036 0.215642 0.196818 138 138 138
-0.359167 0.211230 0.198270 138 138 138
-0.360325 0.206857 0.199702 138 138 138
-0.361503 0.202512 0.201118 138 138 138
-0.362395 0.197544 0.202839 138 138 138
-0.363223 0.192421 0.204634 138 138 138
-0.363865 0.186884 0.206631 138 138 138
-0.364408 0.181111 0.208741 138 138 138
-0.364656 0.174684 0.211169 138 138 138
-0.364165 0.166645 0.214386 138 138 138
-0.359633 0.149887 0.221873 138 138 138
-0.358674 0.140739 0.225622 138 138 138
-0.357968 0.132092 0.229121 138 138 138
-0.356752 0.122300 0.233177 138 138 138
-0.354724 0.110694 0.238115 138 138 138
-0.352142 0.097822 0.243665 138 138 138
-0.352514 0.091340 0.246087 138 138 138
-0.353054 0.085197 0.248340 138 138 138
-0.353599 0.079040 0.250599 138 138 138
-0.354332 0.073269 0.252665 138 138 138
-0.355118 0.067589 0.254685 138 138 138
-0.356092 0.062304 0.256510 138 138 138
-0.357225 0.057349 0.258172 138 138 138
-0.358670 0.053071 0.259503 138 138 138
-0.360046 0.048621 0.260916 138 138 138
-0.361267 0.043807 0.262504 139 139 139
-0.361214 0.036106 0.265491 156 156 156
-0.340418 -0.018474 0.291224 146 146 146
-0.327493 -0.055543 0.308433 177 177 177
0.149255 0.392485 0.238347 172 172 172
0.142600 0.396349 0.235377 161 161 161
0.138150 0.397278 0.234028 152 152 152
0.134232 0.397503 0.233070 149 149 149
0.130339 0.397701 0.232128 145 145 145
0.126595 0.397705 0.231293 147 147 147
0.122872 0.397689 0.230471 149 149 149
0.119109 0.397733 0.229616 150 150 150
0.115229 0.397944 0.228672 152 152 152
0.110454 0.399386 0.227054 158 158 158
0.104993 0.401777 0.224917 165 165 165
0.097939 0.406371 0.221577 168 168 168
0.091424 0.410252 0.218631 173 173 173
0.085218 0.413733 0.215909 175 175 175
0.079858 0.416069 0.213816 171 171 171
0.075803 0.416619 0.212701 167 167 167
0.071872 0.417004 0.211679 162 162 162
0.068381 0.416788 0.210985 158 158 158
0.064717 0.416817 0.210158 155 155 155
0.061234 0.416603 0.209466 153 153 153
0.057864 0.416235 0.208858 151 151 151
0.054514 0.415845 0.208263 150 150 150
0.051170 0.415451 0.207670 148 148 148
0.047909 0.414944 0.207140 146 146 146
0.044681 0.414397 0.206633 143 143 143
0.041463 0.413839 0.206132 140 140 140
0.038550 0.412854 0.205863 138 138 138
0.035637 0.411870 0.205595 138 138 138
0.032393 0.411361 0.205069 138 138 138
0.029752 0.409993 0.205008 138 138 138
0.027125 0.408608 0.204958 138 138 138
0.024497 0.407222 0.204907 138 138 138
0.022319 0.405191 0.205205 138 138 138
0.020286 0.402947 0.205618 138 138 138
0.018505 0.400334 0.206228 138 138 138
0.017007 0.397307 0.207062 138 138 138
0.015783 0.393874 0.208112 138 138 138
0.014588 0.390389 0.209189 138 138 138
0.013370 0.386928 0.210252 138 138 138
0.011905 0.383819 0.211125 138 138 138
0.010158 0.381116 0.211778 138 138 138
0.007788 0.379325 0.211941 138 138 138
0.005363 0.377612 0.212061 138 138 138
0.002745 0.376184 0.212029 138 138 138
-0.000408 0.375549 0.211572 138 138 138
-0.003875 0.375384 0.210864 138 138 138
-0.007338 0.375219 0.210157 138 138 138
-0.010797 0.375055 0.209451 143 143 143
-0.014290 0.374947 0.208715 147 147 147
-0.044164 0.414402 0.186862 158 158 158
-0.048399 0.415519 0.185489 165 165 165
-0.052808 0.416910 0.183972 162 162 162
-0.056876 0.417801 0.182723 159 159 159
-0.060197 0.417571 0.182073 158 158 158
-0.063513 0.417341 0.181424 156 156 156
-0.066826 0.417111 0.180776 155 155 155
-0.069881 0.416494 0.180333 153 153 153
-0.072949 0.415899 0.179880 150 150 150
-0.075813 0.414998 0.179590 146 146 146
-0.078679 0.414102 0.179298 143 143 143
-0.081417 0.413012 0.179108 140 140 140
-0.084073 0.411796 0.178986 138 138 138
-0.086839 0.410753 0.178773 138 138 138
-0.089664 0.409802 0.178511 138 138 138
-0.092370 0.408670 0.178345 138 138 138
-0.094901 0.407265 0.178323 138 138 138
-0.097352 0.405735 0.178367 138 138 138
-0.099682 0.404018 0.178511 138 138 138
-0.101922 0.402155 0.178730 138 138 138
-0.104065 0.400139 0.179030 138 138 138
-0.106209 0.398122 0.179331 138 138 138
-0.108346 0.396089 0.179639 138 138 138
-0.110126 0.393490 0.180244 138 138 138
-0.112166 0.391296 0.180636 138 138 138
-0.114121 0.388964 0.181100 138 138 138
-0.116001 0.386508 0.181628 138 138 138
-0.118106 0.384406 0.181969 138 138 138
-0.120529 0.382814 0.182044 138 138 138
-0.122981 0.381266 0.182095 138 138 138
-0.125482 0.379797 0.182105 138 138 138
-0.127992 0.378342 0.182107 138 138 138
-0.130840 0.377436 0.181823 138 138 138
-0.133758 0.376645 0.181478 138 138 138
-0.136712 0.375917 0.181101 138 138 138
-0.139842 0.375481 0.180573 138 138 138
-0.142932 0.374983 0.180077 138 138 138
-0.146251 0.374867 0.179383 138 138 138
-0.149566 0.374752 0.178690 138 138 138
-0.152790 0.374491 0.178073 138 138 138
-0.156066 0.374324 0.177409 138 138 138
-0.159354 0.374182 0.176732 138 138 138
-0.162737 0.374205 0.175970 138 138 138
-0.166029 0.374084 0.175284 138 138 138
-0.169239 0.373832 0.174667 138 138 138
-0.172226 0.373213 0.174241 138 138 138
-0.175209 0.372591 0.173817 138 138 138
-0.178149 0.371901 0.173429 138 138 138
-0.181087 0.371211 0.173041 138 138 138
-0.183869 0.370262 0.172788 138 138 138
-0.186620 0.369263 0.172561 138 138 138
-0.189364 0.368252 0.172340 138 138 138
-0.192082 0.367201 0.172140 138 138 138
-0.194809 0.366166 0.171932 138 138 138
-0.197532 0.365128 0.171726 138 138 138
-0.200238 0.364062 0.171535 138 138 138
-0.202894 0.362911 0.171388 138 138 138
-0.205483 0.361647 0.171299 138 138 138
-0.207997 0.360253 0.171276 138 138 138
-0.210478 0.358801 0.171284 138 138 138
-0.212958 0.357349 0.171292 138 138 138
-0.215400 0.355830 0.171334 138 138 138
-0.217746 0.354142 0.171462 138 138 138
-0.220022 0.352331 0.171654 138 138 138
-0.222303 0.350527 0.171842 138 138 138
-0.224503 0.348576 0.172104 138 138 138
-0.226824 0.346837 0.172258 138 138 138
-0.229145 0.345098 0.172411 138 138 138
-0.231467 0.343358 0.172566 138 138 138
-0.233789 0.341618 0.172719 138 138 138
-0.236170 0.339980 0.172821 138 138 138
-0.238554 0.338347 0.172920 138 138 138
-0.240919 0.336679 0.173037 138 138 138
-0.243284 0.335009 0.173154 138 138 138
-0.245696 0.333423 0.173228 138 138 138
-0.248123 0.331864 0.173289 138 138 138
-0.250550 0.330304 0.173350 138 138 138
-0.252977 0.328745 0.173411 138 138 138
-0.255629 0.327593 0.173265 138 138 138
-0.258438 0.326732 0.172972 138 138 138
-0.261273 0.325920 0.172654 138 138 138
-0.264455 0.325751 0.172011 138 138 138
-0.267586 0.325494 0.171414 138 138 138
-0.270580 0.324990 0.170941 138 138 138
-0.273566 0.324477 0.170475 138 138 138
-0.276541 0.323948 0.170017 138 138 138
-0.279514 0.323420 0.169559 138 138 138
-0.282128 0.322226 0.169437 138 138 138
-0.284739 0.321027 0.169318 138 138 138
-0.287260 0.319661 0.169284 138 138 138
-0.289750 0.318236 0.169279 138 138 138
-0.292010 0.316377 0.169493 138 138 138
-0.294165 0.314318 0.169807 138 138 138
-0.296322 0.312258 0.170121 138 138 138
-0.298480 0.310196 0.170435 138 138 138
-0.300423 0.307721 0.170957 138 138 138
-0.302205 0.304932 0.171635 138 138 138
-0.303936 0.302037 0.172366 138 138 138
-0.305669 0.299139 0.173097 138 138 138
-0.306951 0.295363 0.174267 138 138 138
-0.308651 0.292381 0.175038 138 138 138
-0.310258 0.289211 0.175902 139 139 139
-0.311500 0.285323 0.177124 140 140 140
-0.312644 0.281228 0.178448 140 140 140
-0.313950 0.277436 0.179619 141 141 141
-0.315271 0.273660 0.180780 139 139 139
-0.316643 0.269972 0.181896 138 138 138
-0.318439 0.267108 0.182600 138 138 138
-0.320343 0.264452 0.183200 138 138 138
-0.322422 0.262135 0.183631 138 138 138
-0.324587 0.259985 0.183978 138 138 138
-0.326799 0.257924 0.184279 138 138 138
-0.329012 0.255861 0.184582 138 138 138
-0.331225 0.253797 0.184885 138 138 138
-0.333440 0.251732 0.185188 138 138 138
-0.335728 0.249810 0.185420 138 138 138
-0.338025 0.247906 0.185643 138 138 138
-0.340041 0.245427 0.186150 138 138 138
-0.342288 0.243414 0.186425 138 138 138
-0.344423 0.241168 0.186816 138 138 138
-0.346464 0.238725 0.187303 138 138 138
-0.348506 0.236281 0.187791 138 138 138
-0.350551 0.233834 0.188279 138 138 138
-0.352234 0.230637 0.189137 138 138 138
-0.353808 0.227204 0.190109 138 138 138
-0.355382 0.223760 0.191086 138 138 138
-0.356927 0.220244 0.192098 138 138 138
