ply
format ascii 1.0
element vertex 1161
property float x
property float y
property float z
property uchar red
property uchar green
property uchar blue
end_header
-0.099225 0.114802 -0.473484 138 138 138
-0.101285 0.112595 -0.473604 138 138 138
-0.103049 0.110225 -0.473664 138 138 138
-0.104669 0.107775 -0.473696 138 138 138
-0.106259 0.105309 -0.473721 138 138 138
-0.107848 0.102842 -0.473746 138 138 138
-0.109372 0.100340 -0.473758 138 138 138
-0.110610 0.097676 -0.473713 138 138 138
-0.111873 0.095026 -0.473672 138 138 138
-0.113141 0.092378 -0.473632 138 138 138
-0.114410 0.089730 -0.473592 138 138 138
-0.115679 0.087082 -0.473553 138 138 138
-0.117007 0.084466 -0.473525 138 138 138
-0.118490 0.081940 -0.473529 138 138 138
-0.119985 0.079419 -0.473535 138 138 138
-0.121479 0.076899 -0.473541 138 138 138
-0.122974 0.074379 -0.473547 138 138 138
-0.124476 0.071863 -0.473554 138 138 138
-0.125777 0.069231 -0.473521 138 138 138
-0.127011 0.066560 -0.473474 138 138 138
-0.128224 0.063876 -0.473423 138 138 138
-0.129436 0.061191 -0.473371 138 138 138
-0.130604 0.058478 -0.473310 138 138 138
-0.131327 0.055505 -0.473159 138 138 138
-0.131886 0.052434 -0.472973 138 138 138
-0.132678 0.049497 -0.472836 138 138 138
-0.133523 0.046589 -0.472708 138 138 138
-0.134331 0.043658 -0.472573 138 138 138
-0.135053 0.040674 -0.472421 138 138 138
-0.135940 0.037786 -0.472302 138 138 138
-0.136817 0.034890 -0.472180 138 138 138
-0.137655 0.031969 -0.472051 138 138 138
-0.138458 0.029027 -0.471914 138 138 138
-0.139208 0.026050 -0.471767 138 138 138
-0.139929 0.023053 -0.471613 138 138 138
-0.140606 0.020028 -0.471449 138 138 138
-0.141307 0.017015 -0.471291 138 138 138
-0.142070 0.014038 -0.471145 138 138 138
-0.142835 0.011060 -0.471000 138 138 138
-0.143606 0.008084 -0.470855 138 138 138
-0.144603 0.005243 -0.470757 138 138 138
-0.145614 0.002410 -0.470662 138 138 138
-0.146627 -0.000424 -0.470566 138 138 138
-0.147641 -0.003258 -0.470472 138 138 138
-0.148039 -0.006472 -0.470249 138 138 138
-0.148449 -0.009683 -0.470029 138 138 138
-0.148858 -0.012896 -0.469808 138 138 138
-0.149024 -0.016263 -0.469537 138 138 138
-0.148244 -0.020221 -0.469069 138 138 138
-0.147207 -0.024346 -0.468548 138 138 138
-0.146030 -0.028564 -0.467997 138 138 138
-0.144225 -0.033183 -0.467315 138 138 138
-0.142222 -0.037936 -0.466590 138 138 138
-0.140738 -0.042372 -0.465973 138 138 138
-0.138840 -0.047077 -0.465269 138 138 138
-0.137018 -0.051745 -0.464580 138 138 138
-0.134935 -0.056586 -0.463836 138 138 138
-0.133039 -0.061320 -0.463130 138 138 138
-0.130580 -0.066421 -0.462305 138 138 138
-0.128098 -0.071547 -0.461475 138 138 138
-0.125717 -0.076621 -0.460665 138 138 138
-0.124122 -0.081204 -0.460018 138 138 138
-0.122706 -0.085680 -0.459408 138 138 138
-0.121924 -0.089758 -0.458929 138 138 138
-0.121157 -0.093834 -0.458453 138 138 138
-0.120202 -0.098036 -0.457937 138 138 138
-0.118977 -0.102421 -0.457364 138 138 138
-0.117367 -0.107063 -0.456710 138 138 138
-0.114843 -0.112308 -0.455863 138 138 138
-0.112204 -0.117639 -0.454990 138 138 138
-0.109801 -0.122829 -0.454167 138 138 138
-0.108232 -0.127485 -0.453517 138 138 138
-0.106654 -0.132156 -0.452865 138 138 138
-0.104822 -0.137002 -0.452159 138 138 138
-0.102826 -0.141967 -0.451417 138 138 138
-0.096602 -0.149731 -0.449784 138 138 138
0.050466 0.204227 -0.461553 138 138 138
0.043219 0.204428 -0.462670 138 138 138
0.036826 0.204224 -0.463622 138 138 138
0.032925 0.202805 -0.464089 138 138 138
0.029279 0.201266 -0.464507 138 138 138
0.025513 0.199791 -0.464950 138 138 138
0.022349 0.198023 -0.465275 138 138 138
0.019446 0.196130 -0.465549 138 138 138
0.016548 0.194238 -0.465823 138 138 138
0.013697 0.192325 -0.466088 138 138 138
0.011190 0.190244 -0.466286 138 138 138
0.008684 0.188164 -0.466484 138 138 138
0.006004 0.186176 -0.466716 138 138 138
0.002682 0.184514 -0.467074 138 138 138
-0.000564 0.182819 -0.467418 138 138 138
-0.004512 0.181486 -0.467900 138 138 138
-0.008403 0.180129 -0.468372 138 138 138
-0.012449 0.178858 -0.468874 138 138 138
-0.016487 0.177589 -0.469375 138 138 138
-0.020559 0.176344 -0.469884 138 138 138
-0.024446 0.175011 -0.470357 138 138 138
-0.027555 0.173283 -0.470677 138 138 138
-0.030635 0.171544 -0.470992 138 138 138
-0.033224 0.169555 -0.471210 138 138 138
-0.035590 0.167452 -0.471385 138 138 138
-0.037933 0.165340 -0.471555 138 138 138
-0.040166 0.163172 -0.471704 138 138 138
-0.042375 0.160994 -0.471849 138 138 138
-0.044361 0.158701 -0.471949 138 138 138
-0.046345 0.156408 -0.472049 138 138 138
-0.048085 0.153988 -0.472101 138 138 138
-0.049690 0.151497 -0.472126 138 138 138
-0.051481 0.149105 -0.472189 138 138 138
-0.053401 0.146782 -0.472276 138 138 138
-0.055515 0.144563 -0.472403 138 138 138
-0.057609 0.142336 -0.472525 138 138 138
-0.059605 0.140059 -0.472629 138 138 138
-0.062238 0.138124 -0.472859 138 138 138
-0.064793 0.136150 -0.473073 138 138 138
-0.067372 0.134193 -0.473293 138 138 138
-0.069989 0.132259 -0.473521 138 138 138
-0.072989 0.130535 -0.473825 138 138 138
-0.075985 0.128814 -0.474128 138 138 138
-0.079009 0.127111 -0.474438 138 138 138
-0.082031 0.125412 -0.474747 138 138 138
-0.084914 0.123640 -0.475030 138 138 138
-0.087837 0.121895 -0.475320 138 138 138
-0.090732 0.120138 -0.475605 138 138 138
-0.093309 0.118210 -0.475827 138 138 138
-0.095774 0.116222 -0.476027 138 138 138
-0.098067 0.114142 -0.476193 138 138 138
-0.100237 0.111995 -0.476334 138 138 138
-0.102128 0.109696 -0.476419 138 138 138
-0.103717 0.107228 -0.476444 138 138 138
-0.105306 0.104761 -0.476469 138 138 138
-0.106895 0.102295 -0.476494 138 138 138
-0.108483 0.099828 -0.476519 138 138 138
-0.109960 0.097299 -0.476522 138 138 138
-0.111200 0.094636 -0.476476 138 138 138
-0.112439 0.091972 -0.476431 138 138 138
-0.113679 0.089307 -0.476386 138 138 138
-0.114919 0.086643 -0.476341 138 138 138
-0.116085 0.083935 -0.476280 138 138 138
-0.117525 0.081383 -0.476275 138 138 138
-0.119006 0.078855 -0.476279 138 138 138
-0.120487 0.076327 -0.476282 138 138 138
-0.121968 0.073799 -0.476285 138 138 138
-0.123310 0.071190 -0.476260 138 138 138
-0.124643 0.068576 -0.476233 138 138 138
-0.125855 0.065892 -0.476182 138 138 138
-0.127067 0.063206 -0.476131 138 138 138
-0.128279 0.060521 -0.476080 138 138 138
-0.129143 0.057631 -0.475958 138 138 138
-0.129961 0.054712 -0.475826 138 138 138
-0.130764 0.051783 -0.475691 138 138 138
-0.131446 0.048781 -0.475532 138 138 138
-0.132240 0.045843 -0.475395 138 138 138
-0.132953 0.042855 -0.475241 138 138 138
-0.133676 0.039870 -0.475090 138 138 138
-0.134587 0.036996 -0.474976 138 138 138
-0.135481 0.034109 -0.474859 138 138 138
-0.136334 0.031197 -0.474734 138 138 138
-0.137168 0.028272 -0.474604 138 138 138
-0.138012 0.025350 -0.474476 138 138 138
-0.138889 0.022447 -0.474355 138 138 138
-0.139674 0.019487 -0.474215 138 138 138
-0.140377 0.016475 -0.474057 138 138 138
-0.141081 0.013462 -0.473900 138 138 138
-0.141841 0.010481 -0.473755 138 138 138
-0.142698 0.007557 -0.473629 138 138 138
-0.143710 0.004725 -0.473534 138 138 138
-0.144701 0.001879 -0.473435 138 138 138
-0.145634 -0.001004 -0.473324 138 138 138
-0.146158 -0.004139 -0.473129 138 138 138
-0.146522 -0.007375 -0.472901 138 138 138
-0.146931 -0.010587 -0.472682 138 138 138
-0.147324 -0.013811 -0.472459 138 138 138
-0.146516 -0.017783 -0.471989 138 138 138
-0.145518 -0.021878 -0.471479 138 138 138
-0.144467 -0.026014 -0.470957 138 138 138
-0.143264 -0.030252 -0.470404 138 138 138
-0.141465 -0.034869 -0.469727 138 138 138
-0.139767 -0.039433 -0.469069 138 138 138
-0.138446 -0.043769 -0.468489 138 138 138
-0.136737 -0.048358 -0.467828 138 138 138
-0.135174 -0.052864 -0.467197 138 138 138
-0.133108 -0.057696 -0.466460 138 138 138
-0.131226 -0.062422 -0.465761 138 138 138
-0.128653 -0.067597 -0.464918 138 138 138
-0.126185 -0.072716 -0.464095 138 138 138
-0.124235 -0.077516 -0.463379 138 138 138
-0.122684 -0.082071 -0.462745 138 138 138
-0.121704 -0.086270 -0.462229 138 138 138
-0.120904 -0.090360 -0.461749 138 138 138
-0.120136 -0.094436 -0.461276 138 138 138
-0.118934 -0.098798 -0.460711 138 138 138
-0.117676 -0.103205 -0.460135 138 138 138
-0.115919 -0.107943 -0.459453 138 138 138
-0.113294 -0.113254 -0.458590 138 138 138
-0.110542 -0.118660 -0.457699 138 138 138
-0.108225 -0.123795 -0.456898 138 138 138
-0.106585 -0.128498 -0.456238 138 138 138
-0.104745 -0.133341 -0.455535 138 138 138
-0.102857 -0.138227 -0.454820 138 138 138
-0.098331 -0.144858 -0.453553 138 138 138
-0.076666 -0.162813 -0.448695 100 100 100
0.130005 0.165255 -0.449196 138 138 138
0.044751 0.203605 -0.465389 138 138 138
0.038622 0.203271 -0.466284 138 138 138
0.033810 0.202300 -0.466925 138 138 138
0.030151 0.200766 -0.467343 138 138 138
0.026384 0.199292 -0.467782 138 138 138
0.022774 0.197746 -0.468192 138 138 138
0.019920 0.195829 -0.468456 138 138 138
0.017225 0.193836 -0.468688 138 138 138
0.014457 0.191882 -0.468936 138 138 138
0.011596 0.189978 -0.469201 138 138 138
0.009090 0.187899 -0.469398 138 138 138
0.006241 0.185996 -0.469662 138 138 138
0.002881 0.184355 -0.470026 138 138 138
-0.000647 0.182804 -0.470423 138 138 138
-0.004370 0.181357 -0.470858 138 138 138
-0.008089 0.179914 -0.471293 138 138 138
-0.012100 0.178625 -0.471786 138 138 138
-0.016306 0.177443 -0.472317 138 138 138
-0.020403 0.176213 -0.472828 138 138 138
-0.024066 0.174765 -0.473254 138 138 138
-0.027112 0.173005 -0.473560 138 138 138
-0.030145 0.171242 -0.473864 138 138 138
-0.033080 0.169432 -0.474149 138 138 138
-0.035444 0.167330 -0.474322 138 138 138
-0.037695 0.165171 -0.474474 138 138 138
-0.039928 0.163004 -0.474622 138 138 138
-0.042159 0.160838 -0.474770 138 138 138
-0.044226 0.158588 -0.474885 138 138 138
-0.046207 0.156295 -0.474984 138 138 138
-0.047920 0.153861 -0.475031 138 138 138
-0.049731 0.151479 -0.475096 138 138 138
-0.051547 0.149102 -0.475163 138 138 138
-0.053322 0.146703 -0.475222 138 138 138
-0.055096 0.144305 -0.475281 138 138 138
-0.056875 0.141910 -0.475341 138 138 138
-0.058951 0.139675 -0.475459 138 138 138
-0.061239 0.137555 -0.475619 138 138 138
-0.063803 0.135586 -0.475835 138 138 138
-0.066382 0.133628 -0.476053 138 138 138
-0.068960 0.131672 -0.476272 138 138 138
-0.071707 0.129812 -0.476524 138 138 138
-0.074704 0.128090 -0.476826 138 138 138
-0.077714 0.126379 -0.477131 138 138 138
-0.080649 0.124632 -0.477421 138 138 138
-0.083546 0.122867 -0.477704 138 138 138
-0.086443 0.121107 -0.477988 138 138 138
-0.089321 0.119340 -0.478268 138 138 138
-0.092195 0.117574 -0.478548 138 138 138
-0.094663 0.115588 -0.478747 138 138 138
-0.096909 0.113481 -0.478902 138 138 138
-0.099132 0.111364 -0.479053 138 138 138
-0.101176 0.109149 -0.479168 138 138 138
-0.102907 0.106761 -0.479221 138 138 138
-0.104496 0.104294 -0.479246 138 138 138
-0.106085 0.101827 -0.479271 138 138 138
-0.107657 0.099351 -0.479293 138 138 138
-0.109010 0.096752 -0.479270 138 138 138
-0.110321 0.094129 -0.479240 138 138 138
-0.111561 0.091465 -0.479195 138 138 138
-0.112800 0.088801 -0.479150 138 138 138
-0.114001 0.086114 -0.479097 138 138 138
-0.115119 0.083378 -0.479027 138 138 138
-0.116394 0.080732 -0.478989 138 138 138
-0.117876 0.078204 -0.478992 138 138 138
-0.119357 0.075675 -0.478996 138 138 138
-0.120723 0.073081 -0.478976 138 138 138
-0.121997 0.070432 -0.478937 138 138 138
-0.123357 0.067833 -0.478916 138 138 138
-0.124697 0.065222 -0.478891 138 138 138
-0.125909 0.062536 -0.478840 138 138 138
-0.126866 0.059701 -0.478737 138 138 138
-0.127683 0.056783 -0.478606 138 138 138
-0.128500 0.053863 -0.478475 138 138 138
-0.129277 0.050918 -0.478336 138 138 138
-0.130093 0.047994 -0.478205 138 138 138
-0.130854 0.045035 -0.478062 138 138 138
-0.131567 0.042046 -0.477909 138 138 138
-0.132324 0.039081 -0.477765 138 138 138
-0.133226 0.036201 -0.477650 138 138 138
-0.134100 0.033302 -0.477530 138 138 138
-0.134975 0.030402 -0.477409 138 138 138
-0.135842 0.027495 -0.477287 138 138 138
-0.136682 0.024571 -0.477159 138 138 138
-0.137660 0.021728 -0.477059 138 138 138
-0.138509 0.018805 -0.476933 138 138 138
-0.139274 0.015831 -0.476789 138 138 138
-0.140040 0.012855 -0.476646 138 138 138
-0.140833 0.009893 -0.476507 138 138 138
-0.141732 0.006994 -0.476390 138 138 138
-0.142664 0.004113 -0.476280 138 138 138
-0.143597 0.001231 -0.476170 138 138 138
-0.144279 -0.001805 -0.476009 138 138 138
-0.144703 -0.005002 -0.475794 138 138 138
-0.145077 -0.008233 -0.475569 138 138 138
-0.145433 -0.011479 -0.475340 138 138 138
-0.144835 -0.015316 -0.474916 138 138 138
-0.143890 -0.019375 -0.474421 138 138 138
-0.142943 -0.023441 -0.473924 138 138 138
-0.141599 -0.027762 -0.473345 138 138 138
-0.140493 -0.031942 -0.472814 138 138 138
-0.138797 -0.036498 -0.472162 138 138 138
-0.137476 -0.040828 -0.471586 138 138 138
-0.136160 -0.045164 -0.471010 138 138 138
-0.134925 -0.049456 -0.470450 138 138 138
-0.133330 -0.053983 -0.469816 138 138 138
-0.131577 -0.058619 -0.469148 138 138 138
-0.129392 -0.063538 -0.468390 138 138 138
-0.126724 -0.068774 -0.467532 138 138 138
-0.124301 -0.073866 -0.466724 138 138 138
-0.122752 -0.078412 -0.466094 138 138 138
-0.121264 -0.082928 -0.465477 138 138 138
-0.120619 -0.086913 -0.465033 138 138 138
-0.119884 -0.090961 -0.464570 138 138 138
-0.118941 -0.095150 -0.464063 138 138 138
-0.117581 -0.099615 -0.463469 138 138 138
-0.116054 -0.104196 -0.462840 138 138 138
-0.114345 -0.108904 -0.462172 138 138 138
-0.111783 -0.114175 -0.461327 138 138 138
-0.109173 -0.119490 -0.460471 138 138 138
-0.107052 -0.124498 -0.459715 138 138 138
-0.105095 -0.129408 -0.458993 138 138 138
-0.103042 -0.134392 -0.458250 138 138 138
-0.100975 -0.139396 -0.457502 138 138 138
-0.093015 -0.148289 -0.455528 138 138 138
0.046285 0.202781 -0.468108 138 138 138
0.040419 0.202317 -0.468947 138 138 138
0.035088 0.201600 -0.469684 138 138 138
0.031024 0.200267 -0.470178 138 138 138
0.027262 0.198790 -0.470614 138 138 138
0.023705 0.197217 -0.471011 138 138 138
0.020705 0.195373 -0.471301 138 138 138
0.018009 0.193380 -0.471533 138 138 138
0.015227 0.191434 -0.471782 138 138 138
0.012077 0.189675 -0.472101 138 138 138
0.009497 0.187634 -0.472311 138 138 138
0.006479 0.185817 -0.472607 138 138 138
0.003123 0.184174 -0.472967 138 138 138
-0.000323 0.182582 -0.473346 138 138 138
-0.004048 0.181137 -0.473779 138 138 138
-0.007766 0.179694 -0.474212 138 138 138
-0.011563 0.178297 -0.474660 138 138 138
-0.015769 0.177115 -0.475188 138 138 138
-0.019958 0.175932 -0.475714 138 138 138
-0.023696 0.174524 -0.476152 138 138 138
-0.026698 0.172741 -0.476448 138 138 138
-0.029695 0.170960 -0.476743 138 138 138
-0.032689 0.169182 -0.477038 138 138 138
-0.035224 0.167169 -0.477243 138 138 138
-0.037458 0.165001 -0.477391 138 138 138
-0.039690 0.162835 -0.477538 138 138 138
-0.041921 0.160670 -0.477685 138 138 138
-0.044090 0.158475 -0.477820 138 138 138
-0.046070 0.156181 -0.477918 138 138 138
-0.047948 0.153835 -0.477997 138 138 138
-0.049774 0.151463 -0.478065 138 138 138
-0.051599 0.149091 -0.478133 138 138 138
-0.053378 0.146696 -0.478193 138 138 138
-0.055148 0.144297 -0.478250 138 138 138
-0.056909 0.141893 -0.478306 138 138 138
-0.058598 0.139452 -0.478348 138 138 138
-0.060731 0.137250 -0.478477 138 138 138
-0.063128 0.135191 -0.478658 138 138 138
-0.065609 0.133181 -0.478856 138 138 138
-0.068088 0.131172 -0.479054 138 138 138
-0.070566 0.129164 -0.479252 138 138 138
-0.073475 0.127394 -0.479535 138 138 138
-0.076548 0.125718 -0.479850 138 138 138
-0.079371 0.123909 -0.480117 138 138 138
-0.082272 0.122146 -0.480399 138 138 138
-0.085086 0.120339 -0.480664 138 138 138
-0.087909 0.118541 -0.480932 138 138 138
-0.090784 0.116775 -0.481210 138 138 138
-0.093552 0.114954 -0.481467 138 138 138
-0.095805 0.112851 -0.481623 138 138 138
-0.098070 0.110756 -0.481781 138 138 138
-0.100048 0.108505 -0.481883 138 138 138
-0.102011 0.106245 -0.481981 138 138 138
-0.103686 0.103826 -0.482023 138 138 138
-0.105275 0.101360 -0.482048 138 138 138
-0.106671 0.098785 -0.482034 138 138 138
-0.108023 0.096185 -0.482012 138 138 138
-0.109377 0.093586 -0.481990 138 138 138
-0.110682 0.090959 -0.481958 138 138 138
-0.111922 0.088295 -0.481914 138 138 138
-0.113035 0.085558 -0.481844 138 138 138
-0.114152 0.082821 -0.481774 138 138 138
-0.115270 0.080085 -0.481705 138 138 138
-0.116745 0.077553 -0.481707 138 138 138
-0.118161 0.074986 -0.481697 138 138 138
-0.119372 0.072301 -0.481646 138 138 138
-0.120683 0.069673 -0.481615 138 138 138
-0.122044 0.067074 -0.481594 138 138 138
-0.123405 0.064475 -0.481573 138 138 138
-0.124515 0.061729 -0.481502 138 138 138
-0.125262 0.058771 -0.481358 138 138 138
-0.126010 0.055811 -0.481214 138 138 138
-0.126758 0.052850 -0.481070 138 138 138
-0.127547 0.049910 -0.480934 138 138 138
-0.128451 0.047036 -0.480821 138 138 138
-0.129355 0.044161 -0.480708 138 138 138
-0.130179 0.041237 -0.480578 138 138 138
-0.130971 0.038292 -0.480442 138 138 138
-0.131844 0.035393 -0.480322 138 138 138
-0.132719 0.032494 -0.480202 138 138 138
-0.133584 0.029587 -0.480080 138 138 138
-0.134427 0.026666 -0.479954 138 138 138
-0.135446 0.023848 -0.479863 138 138 138
-0.136430 0.021008 -0.479764 138 138 138
-0.137342 0.018123 -0.479651 138 138 138
-0.138107 0.015148 -0.479509 138 138 138
-0.138889 0.012181 -0.479369 138 138 138
-0.139752 0.009261 -0.479246 138 138 138
-0.140630 0.006349 -0.479125 138 138 138
-0.141538 0.003453 -0.479011 138 138 138
-0.142391 0.000522 -0.478885 138 138 138
-0.142823 -0.002668 -0.478674 138 138 138
-0.143244 -0.005868 -0.478460 138 138 138
-0.143638 -0.009088 -0.478240 138 138 138
-0.143452 -0.012668 -0.477903 138 138 138
-0.142469 -0.016745 -0.477403 138 138 138
-0.141574 -0.020775 -0.476920 138 138 138
-0.140430 -0.024966 -0.476386 138 138 138
-0.138929 -0.029386 -0.475778 138 138 138
-0.137778 -0.033597 -0.475241 138 138 138
-0.136580 -0.037845 -0.474694 138 138 138
-0.135325 -0.042136 -0.474135 138 138 138
-0.134091 -0.046421 -0.473579 138 138 138
-0.133051 -0.050593 -0.473062 138 138 138
-0.131491 -0.055099 -0.472438 138 138 138
-0.129804 -0.059695 -0.471788 138 138 138
-0.127557 -0.064654 -0.471022 138 138 138
-0.124809 -0.069943 -0.470152 138 138 138
-0.122809 -0.074767 -0.469435 138 138 138
-0.121074 -0.079433 -0.468771 138 138 138
-0.119992 -0.083691 -0.468241 138 138 138
-0.119204 -0.087767 -0.467770 138 138 138
-0.118813 -0.091595 -0.467380 138 138 138
-0.117488 -0.096031 -0.466797 138 138 138
-0.115969 -0.100599 -0.466174 138 138 138
-0.114360 -0.105234 -0.465532 138 138 138
-0.112527 -0.110024 -0.464843 138 138 138
-0.110272 -0.115097 -0.464066 138 138 138
-0.108022 -0.120178 -0.463289 138 138 138
-0.105642 -0.125355 -0.462485 138 138 138
-0.103221 -0.130570 -0.461670 138 138 138
-0.101156 -0.135563 -0.460929 138 138 138
-0.095382 -0.143003 -0.459420 138 138 138
0.055880 0.198005 -0.469289 100 100 100
0.042242 0.201350 -0.471608 138 138 138
0.036922 0.200627 -0.472339 138 138 138
0.031978 0.199727 -0.472998 138 138 138
0.028400 0.198159 -0.473396 138 138 138
0.024957 0.196530 -0.473769 138 138 138
0.021512 0.194906 -0.474143 138 138 138
0.018793 0.192925 -0.474377 138 138 138
0.015996 0.190986 -0.474627 138 138 138
0.012845 0.189228 -0.474945 138 138 138
0.009903 0.187369 -0.475224 138 138 138
0.006723 0.185634 -0.475548 138 138 138
0.003728 0.183810 -0.475838 138 138 138
0.000605 0.182054 -0.476152 138 138 138
-0.003414 0.180758 -0.476639 138 138 138
-0.007424 0.179464 -0.477126 138 138 138
-0.011155 0.178034 -0.477558 138 138 138
-0.015232 0.176787 -0.478058 138 138 138
-0.019234 0.175508 -0.478545 138 138 138
-0.023206 0.174221 -0.479026 138 138 138
-0.026432 0.172554 -0.479363 138 138 138
-0.029429 0.170774 -0.479656 138 138 138
-0.032355 0.168961 -0.479937 138 138 138
-0.035151 0.167084 -0.480192 138 138 138
-0.037369 0.164909 -0.480335 138 138 138
-0.039586 0.162736 -0.480478 138 138 138
-0.041854 0.160592 -0.480632 138 138 138
-0.044120 0.158448 -0.480785 138 138 138
-0.046207 0.156212 -0.480904 138 138 138
-0.048008 0.153827 -0.480967 138 138 138
-0.049833 0.151455 -0.481035 138 138 138
-0.051639 0.149075 -0.481099 138 138 138
-0.053423 0.146683 -0.481159 138 138 138
-0.055193 0.144285 -0.481216 138 138 138
-0.056858 0.141831 -0.481253 138 138 138
-0.058569 0.139403 -0.481300 138 138 138
-0.060355 0.137015 -0.481360 138 138 138
-0.062534 0.134840 -0.481498 138 138 138
-0.065015 0.132830 -0.481694 138 138 138
-0.067494 0.130821 -0.481891 138 138 138
-0.069928 0.128790 -0.482079 138 138 138
-0.072306 0.126732 -0.482256 138 138 138
-0.075280 0.125001 -0.482550 138 138 138
-0.078216 0.123253 -0.482837 138 138 138
-0.081159 0.121512 -0.483126 138 138 138
-0.084052 0.119749 -0.483405 138 138 138
-0.086864 0.117944 -0.483669 138 138 138
-0.089673 0.116142 -0.483933 138 138 138
-0.092409 0.114302 -0.484182 138 138 138
-0.094742 0.112243 -0.484353 138 138 138
-0.096957 0.110121 -0.484500 138 138 138
-0.098921 0.107860 -0.484598 138 138 138
-0.100884 0.105601 -0.484696 138 138 138
-0.102846 0.103342 -0.484794 138 138 138
-0.104332 0.100817 -0.484799 138 138 138
-0.105684 0.098218 -0.484776 138 138 138
-0.107037 0.095618 -0.484754 138 138 138
-0.108391 0.093019 -0.484732 138 138 138
-0.109742 0.090417 -0.484710 138 138 138
-0.110952 0.087736 -0.484660 138 138 138
-0.112069 0.085001 -0.484591 138 138 138
-0.113186 0.082265 -0.484522 138 138 138
-0.114303 0.079528 -0.484453 138 138 138
-0.115597 0.076891 -0.484419 138 138 138
-0.116809 0.074207 -0.484369 138 138 138
-0.118021 0.071522 -0.484318 138 138 138
-0.119369 0.068915 -0.484295 138 138 138
-0.120529 0.066199 -0.484234 138 138 138
-0.121576 0.063416 -0.484151 138 138 138
-0.122451 0.060532 -0.484033 138 138 138
-0.123397 0.057689 -0.483929 138 138 138
-0.124240 0.054783 -0.483805 138 138 138
-0.125002 0.051828 -0.483664 138 138 138
-0.125905 0.048954 -0.483551 138 138 138
-0.126808 0.046079 -0.483439 138 138 138
-0.127702 0.043196 -0.483324 138 138 138
-0.128560 0.040291 -0.483202 138 138 138
-0.129525 0.037448 -0.483101 138 138 138
-0.130367 0.034529 -0.482976 138 138 138
-0.131210 0.031610 -0.482850 138 138 138
-0.132053 0.028689 -0.482724 138 138 138
-0.133021 0.025841 -0.482624 138 138 138
-0.134101 0.023059 -0.482545 138 138 138
-0.135180 0.020276 -0.482466 138 138 138
-0.136176 0.017440 -0.482371 138 138 138
-0.136945 0.014468 -0.482230 138 138 138
-0.137809 0.011550 -0.482108 138 138 138
-0.138687 0.008638 -0.481988 138 138 138
-0.139564 0.005726 -0.481868 138 138 138
-0.140426 0.002801 -0.481745 138 138 138
-0.140948 -0.000332 -0.481553 138 138 138
-0.141446 -0.003483 -0.481356 138 138 138
-0.141825 -0.006709 -0.481135 138 138 138
-0.142088 -0.010011 -0.480891 138 138 138
-0.141302 -0.013961 -0.480434 138 138 138
-0.140515 -0.017919 -0.479976 138 138 138
-0.139604 -0.021961 -0.479492 138 138 138
-0.138154 -0.026343 -0.478900 138 138 138
-0.136656 -0.030764 -0.478296 138 138 138
-0.135389 -0.035049 -0.477739 138 138 138
-0.134287 -0.039239 -0.477214 138 138 138
-0.133222 -0.043413 -0.476696 138 138 138
-0.132295 -0.047507 -0.476206 138 138 138
-0.131184 -0.051725 -0.475678 138 138 138
-0.130095 -0.055936 -0.475153 138 138 138
-0.127967 -0.060811 -0.474417 138 138 138
-0.125714 -0.065776 -0.473654 138 138 138
-0.122919 -0.071095 -0.472780 138 138 138
-0.121062 -0.075830 -0.472096 138 138 138
-0.119585 -0.080333 -0.471489 138 138 138
-0.118718 -0.084454 -0.471005 138 138 138
-0.117828 -0.088596 -0.470516 138 138 138
-0.117120 -0.092629 -0.470064 138 138 138
-0.115876 -0.097013 -0.469502 138 138 138
-0.114305 -0.101616 -0.468871 138 138 138
-0.112543 -0.106351 -0.468202 138 138 138
-0.110708 -0.111144 -0.467516 138 138 138
-0.108761 -0.116018 -0.466807 138 138 138
-0.106349 -0.121205 -0.466001 138 138 138
-0.104189 -0.126240 -0.465246 138 138 138
-0.101426 -0.131680 -0.464367 138 138 138
-0.099267 -0.136735 -0.463610 138 138 138
-0.066236 -0.162075 -0.456509 100 100 100
0.044273 0.200281 -0.474232 138 138 138
0.038947 0.199559 -0.474959 138 138 138
0.033639 0.198838 -0.475684 138 138 138
0.029653 0.197471 -0.476157 138 138 138
0.026209 0.195842 -0.476528 138 138 138
0.022763 0.194218 -0.476899 138 138 138
0.019577 0.192469 -0.477222 138 138 138
0.016765 0.190538 -0.477473 138 138 138
0.013614 0.188780 -0.477789 138 138 138
0.010543 0.186986 -0.478091 138 138 138
0.007539 0.185163 -0.478380 138 138 138
0.004609 0.183306 -0.478655 138 138 138
0.001630 0.181477 -0.478940 138 138 138
-0.002391 0.180182 -0.479425 138 138 138
-0.006403 0.178889 -0.479908 138 138 138
-0.010407 0.177598 -0.480391 138 138 138
-0.014520 0.176370 -0.480895 138 138 138
-0.018509 0.175084 -0.481376 138 138 138
-0.022481 0.173796 -0.481854 138 138 138
-0.026167 0.172368 -0.482277 138 138 138
-0.029103 0.170557 -0.482557 138 138 138
-0.031966 0.168712 -0.482824 138 138 138
-0.034660 0.166782 -0.483058 138 138 138
-0.037231 0.164792 -0.483268 138 138 138
-0.039523 0.162659 -0.483425 138 138 138
-0.041814 0.160527 -0.483582 138 138 138
-0.044104 0.158397 -0.483739 138 138 138
-0.046273 0.156206 -0.483873 138 138 138
-0.048067 0.153818 -0.483935 138 138 138
-0.049891 0.151447 -0.484002 138 138 138
-0.051678 0.149057 -0.484062 138 138 138
-0.053461 0.146666 -0.484122 138 138 138
-0.055217 0.144262 -0.484176 138 138 138
-0.056823 0.141777 -0.484202 138 138 138
-0.058541 0.139354 -0.484249 138 138 138
-0.060259 0.136931 -0.484296 138 138 138
-0.062133 0.134592 -0.484374 138 138 138
-0.064422 0.132479 -0.484532 138 138 138
-0.066908 0.130474 -0.484729 138 138 138
-0.069245 0.128392 -0.484897 138 138 138
-0.071598 0.126320 -0.485068 138 138 138
-0.074234 0.124405 -0.485295 138 138 138
-0.077123 0.122631 -0.485571 138 138 138
-0.080040 0.120876 -0.485853 138 138 138
-0.082980 0.119137 -0.486140 138 138 138
-0.085830 0.117354 -0.486409 138 138 138
-0.088663 0.115564 -0.486676 138 138 138
-0.091243 0.113638 -0.486893 138 138 138
-0.093644 0.111616 -0.487076 138 138 138
-0.095829 0.109476 -0.487217 138 138 138
-0.097782 0.107210 -0.487312 138 138 138
-0.099717 0.104934 -0.487404 138 138 138
-0.101475 0.102560 -0.487461 138 138 138
-0.103092 0.100109 -0.487491 138 138 138
-0.104468 0.097522 -0.487474 138 138 138
-0.105815 0.094919 -0.487451 138 138 138
-0.107163 0.092315 -0.487428 138 138 138
-0.108438 0.089670 -0.487390 138 138 138
-0.109640 0.086983 -0.487339 138 138 138
-0.110823 0.084285 -0.487283 138 138 138
-0.111969 0.081565 -0.487221 138 138 138
-0.113116 0.078844 -0.487158 138 138 138
-0.114095 0.076027 -0.487062 138 138 138
-0.115321 0.073350 -0.487015 138 138 138
-0.116519 0.070656 -0.486961 138 138 138
-0.117617 0.067903 -0.486889 138 138 138
-0.118671 0.065125 -0.486807 138 138 138
-0.119524 0.062228 -0.486686 138 138 138
-0.120399 0.059342 -0.486569 138 138 138
-0.121312 0.056477 -0.486459 138 138 138
-0.122274 0.053640 -0.486359 138 138 138
-0.123241 0.050803 -0.486260 138 138 138
-0.124097 0.047900 -0.486138 138 138 138
-0.124954 0.044996 -0.486017 138 138 138
-0.125811 0.042091 -0.485895 138 138 138
-0.126781 0.039250 -0.485796 138 138 138
-0.127790 0.036432 -0.485705 138 138 138
-0.128798 0.033611 -0.485613 138 138 138
-0.129679 0.030713 -0.485495 138 138 138
-0.130596 0.027836 -0.485385 138 138 138
-0.131675 0.025053 -0.485307 138 138 138
-0.132755 0.022270 -0.485229 138 138 138
-0.133834 0.019486 -0.485151 138 138 138
-0.134912 0.016700 -0.485072 138 138 138
-0.135846 0.013825 -0.484965 138 138 138
-0.136704 0.010903 -0.484842 138 138 138
-0.137563 0.007980 -0.484719 138 138 138
-0.138422 0.005056 -0.484596 138 138 138
-0.139056 0.001992 -0.484428 138 138 138
-0.139531 -0.001171 -0.484228 138 138 138
-0.140005 -0.004337 -0.484028 138 138 138
-0.140453 -0.007522 -0.483822 138 138 138
-0.140140 -0.011178 -0.483463 138 138 138
-0.139457 -0.015067 -0.483029 138 138 138
-0.138668 -0.019028 -0.482573 138 138 138
-0.137327 -0.023336 -0.482006 138 138 138
-0.135876 -0.027722 -0.481417 138 138 138
-0.134437 -0.032107 -0.480829 138 138 138
-0.133444 -0.036224 -0.480329 138 138 138
-0.132377 -0.040393 -0.479815 138 138 138
-0.131441 -0.044488 -0.479326 138 138 138
-0.130618 -0.048519 -0.478860 138 138 138
-0.129504 -0.052740 -0.478334 138 138 138
-0.128188 -0.057095 -0.477766 138 138 138
-0.126096 -0.061949 -0.477042 138 138 138
-0.123762 -0.066966 -0.476267 138 138 138
-0.120675 -0.072473 -0.475339 138 138 138
-0.119165 -0.076989 -0.474729 138 138 138
-0.118154 -0.081196 -0.474220 138 138 138
-0.117281 -0.085321 -0.473738 138 138 138
-0.116164 -0.089610 -0.473206 138 138 138
-0.115145 -0.093844 -0.472693 138 138 138
-0.114194 -0.098041 -0.472193 138 138 138
-0.112558 -0.102687 -0.471554 138 138 138
-0.110709 -0.107480 -0.470870 138 138 138
-0.108856 -0.112285 -0.470184 138 138 138
-0.106945 -0.117137 -0.469487 138 138 138
-0.104860 -0.122114 -0.468752 138 138 138
-0.102502 -0.127278 -0.467962 138 138 138
-0.099735 -0.132721 -0.467086 138 138 138
-0.090432 -0.142459 -0.464876 138 138 138
0.050274 0.197260 -0.476108 138 138 138
0.040975 0.198490 -0.477582 138 138 138
0.035862 0.197671 -0.478265 138 138 138
0.030908 0.196782 -0.478919 138 138 138
0.027461 0.195153 -0.479288 138 138 138
0.024014 0.193530 -0.479657 138 138 138
0.020571 0.191909 -0.480026 138 138 138
0.017534 0.190090 -0.480319 138 138 138
0.014629 0.188209 -0.480586 138 138 138
0.012030 0.186178 -0.480796 138 138 138
0.008523 0.184607 -0.481179 138 138 138
0.005490 0.182802 -0.481472 138 138 138
0.002563 0.180947 -0.481745 138 138 138
-0.001368 0.179606 -0.482210 138 138 138
-0.005382 0.178313 -0.482691 138 138 138
-0.009347 0.177002 -0.483163 138 138 138
-0.013727 0.175910 -0.483715 138 138 138
-0.017783 0.174659 -0.484206 138 138 138
-0.021755 0.173372 -0.484681 138 138 138
-0.025630 0.172041 -0.485139 138 138 138
-0.028612 0.170254 -0.485426 138 138 138
-0.031218 0.168276 -0.485641 138 138 138
-0.033821 0.166300 -0.485856 138 138 138
-0.036843 0.164545 -0.486152 138 138 138
-0.039160 0.162425 -0.486313 138 138 138
-0.041451 0.160294 -0.486469 138 138 138
-0.043785 0.158188 -0.486634 138 138 138
-0.046188 0.156120 -0.486812 138 138 138
-0.048126 0.153809 -0.486901 138 138 138
-0.049933 0.151430 -0.486964 138 138 138
-0.051716 0.149040 -0.487024 138 138 138
-0.053573 0.146689 -0.487097 138 138 138
-0.055187 0.144210 -0.487124 138 138 138
-0.056795 0.141728 -0.487150 138 138 138
-0.058513 0.139305 -0.487197 138 138 138
-0.060230 0.136883 -0.487244 138 138 138
-0.061947 0.134461 -0.487291 138 138 138
-0.063887 0.132160 -0.487381 138 138 138
-0.066253 0.130091 -0.487553 138 138 138
-0.068621 0.128025 -0.487726 138 138 138
-0.070987 0.125960 -0.487899 138 138 138
-0.073495 0.123976 -0.488100 138 138 138
-0.076320 0.122167 -0.488362 138 138 138
-0.079206 0.120395 -0.488636 138 138 138
-0.082102 0.118633 -0.488912 138 138 138
-0.084824 0.116778 -0.489156 138 138 138
-0.087659 0.114990 -0.489421 138 138 138
-0.090077 0.112974 -0.489605 138 138 138
-0.092453 0.110937 -0.489782 138 138 138
-0.094624 0.108789 -0.489919 138 138 138
-0.096571 0.106519 -0.490013 138 138 138
-0.098356 0.104159 -0.490075 138 138 138
-0.099975 0.101707 -0.490105 138 138 138
-0.101593 0.099255 -0.490135 138 138 138
-0.103211 0.096803 -0.490164 138 138 138
-0.104583 0.094213 -0.490146 138 138 138
-0.105886 0.091584 -0.490115 138 138 138
-0.107087 0.088897 -0.490063 138 138 138
-0.108290 0.086209 -0.490012 138 138 138
-0.109492 0.083521 -0.489960 138 138 138
-0.110683 0.080826 -0.489906 138 138 138
-0.111659 0.078006 -0.489811 138 138 138
-0.112539 0.075131 -0.489696 138 138 138
-0.113726 0.072431 -0.489641 138 138 138
-0.114879 0.069710 -0.489579 138 138 138
-0.115913 0.066920 -0.489495 138 138 138
-0.116715 0.063993 -0.489364 138 138 138
-0.117563 0.061093 -0.489242 138 138 138
-0.118385 0.058175 -0.489115 138 138 138
-0.119223 0.055265 -0.488991 138 138 138
-0.120202 0.052435 -0.488895 138 138 138
-0.121183 0.049605 -0.488799 138 138 138
-0.122163 0.046773 -0.488702 138 138 138
-0.123060 0.043891 -0.488590 138 138 138
-0.124010 0.041039 -0.488487 138 138 138
-0.125032 0.038228 -0.488398 138 138 138
-0.126040 0.035407 -0.488307 138 138 138
-0.127047 0.032584 -0.488215 138 138 138
-0.128095 0.029785 -0.488132 138 138 138
-0.129230 0.027036 -0.488065 138 138 138
-0.130303 0.024249 -0.487986 138 138 138
-0.131376 0.021461 -0.487907 138 138 138
-0.132448 0.018672 -0.487828 138 138 138
-0.133553 0.015901 -0.487755 138 138 138
-0.134620 0.013106 -0.487675 138 138 138
-0.135560 0.010234 -0.487569 138 138 138
-0.136419 0.007310 -0.487447 138 138 138
-0.137171 0.004320 -0.487304 138 138 138
-0.137645 0.001158 -0.487105 138 138 138
-0.138119 -0.002006 -0.486905 138 138 138
-0.138599 -0.005169 -0.486707 138 138 138
-0.138809 -0.008501 -0.486455 138 138 138
-0.138186 -0.012349 -0.486036 138 138 138
-0.137611 -0.016173 -0.485627 138 138 138
-0.136490 -0.020340 -0.485107 138 138 138
-0.135048 -0.024714 -0.484523 138 138 138
-0.133595 -0.029102 -0.483937 138 138 138
-0.132483 -0.033287 -0.483417 138 138 138
-0.131517 -0.037388 -0.482927 138 138 138
-0.130466 -0.041549 -0.482418 138 138 138
-0.129756 -0.045504 -0.481978 138 138 138
-0.128939 -0.049532 -0.481515 138 138 138
-0.127864 -0.053729 -0.481000 138 138 138
-0.126167 -0.058326 -0.480359 138 138 138
-0.124223 -0.063088 -0.479669 138 138 138
-0.121483 -0.068364 -0.478817 138 138 138
-0.118665 -0.073701 -0.477948 138 138 138
-0.117065 -0.078277 -0.477324 138 138 138
-0.115919 -0.082571 -0.476790 138 138 138
-0.114789 -0.086863 -0.476259 138 138 138
-0.113576 -0.091216 -0.475711 138 138 138
-0.112549 -0.095457 -0.475199 138 138 138
-0.111614 -0.099647 -0.474705 138 138 138
-0.109929 -0.104326 -0.474060 138 138 138
-0.108069 -0.109129 -0.473378 138 138 138
-0.106309 -0.113876 -0.472715 138 138 138
-0.104436 -0.118707 -0.472029 138 138 138
-0.102888 -0.123336 -0.471407 138 138 138
-0.099299 -0.129304 -0.470372 138 138 138
-0.094403 -0.136143 -0.469070 138 138 138
-0.056373 -0.164707 -0.461044 100 100 100
0.043529 0.197161 -0.480108 138 138 138
0.038088 0.196502 -0.480849 138 138 138
0.033107 0.195625 -0.481503 138 138 138
0.028714 0.194465 -0.482048 138 138 138
0.025266 0.192841 -0.482416 138 138 138
0.021821 0.191221 -0.482783 138 138 138
0.018722 0.189433 -0.483085 138 138 138
0.016118 0.187400 -0.483294 138 138 138
0.013518 0.185368 -0.483503 138 138 138
0.010036 0.183784 -0.483879 138 138 138
0.006411 0.182277 -0.484282 138 138 138
0.003444 0.180443 -0.484561 138 138 138
-0.000344 0.179029 -0.484996 138 138 138
-0.004296 0.177705 -0.485462 138 138 138
-0.008439 0.176484 -0.485965 138 138 138
-0.012821 0.175393 -0.486514 138 138 138
-0.016938 0.174174 -0.487014 138 138 138
-0.020760 0.172809 -0.487458 138 138 138
-0.024480 0.171398 -0.487883 138 138 138
-0.027773 0.169772 -0.488227 138 138 138
-0.030379 0.167794 -0.488441 138 138 138
-0.032998 0.165825 -0.488658 138 138 138
-0.036044 0.164083 -0.488957 138 138 138
-0.038797 0.162191 -0.489200 138 138 138
-0.041106 0.160070 -0.489358 138 138 138
-0.043509 0.158001 -0.489535 138 138 138
-0.045911 0.155933 -0.489712 138 138 138
-0.048186 0.153801 -0.489865 138 138 138
-0.050034 0.151445 -0.489936 138 138 138
-0.051894 0.149096 -0.490010 138 138 138
-0.053619 0.146677 -0.490058 138 138 138
-0.055021 0.144086 -0.490044 138 138 138
-0.056646 0.141613 -0.490073 138 138 138
-0.058319 0.139168 -0.490111 138 138 138
-0.059992 0.136722 -0.490149 138 138 138
-0.061665 0.134277 -0.490188 138 138 138
-0.063444 0.131891 -0.490246 138 138 138
-0.065642 0.129731 -0.490385 138 138 138
-0.068010 0.127665 -0.490557 138 138 138
-0.070376 0.125601 -0.490729 138 138 138
-0.072906 0.123629 -0.490933 138 138 138
-0.075516 0.121703 -0.491152 138 138 138
-0.078428 0.119945 -0.491430 138 138 138
-0.081298 0.118168 -0.491699 138 138 138
-0.083939 0.116269 -0.491925 138 138 138
-0.086493 0.114325 -0.492135 138 138 138
-0.088850 0.112276 -0.492307 138 138 138
-0.091206 0.110228 -0.492478 138 138 138
-0.093289 0.108030 -0.492597 138 138 138
-0.095242 0.105762 -0.492692 138 138 138
-0.096860 0.103308 -0.492721 138 138 138
-0.098479 0.100855 -0.492751 138 138 138
-0.100097 0.098402 -0.492780 138 138 138
-0.101715 0.095950 -0.492810 138 138 138
-0.103287 0.093471 -0.492830 138 138 138
-0.104469 0.090773 -0.492775 138 138 138
-0.105639 0.088067 -0.492718 138 138 138
-0.106809 0.085360 -0.492661 138 138 138
-0.107979 0.082653 -0.492603 138 138 138
-0.109096 0.079915 -0.492535 138 138 138
-0.110158 0.077144 -0.492457 138 138 138
-0.111042 0.074270 -0.492343 138 138 138
-0.112129 0.071511 -0.492269 138 138 138
-0.113233 0.068761 -0.492198 138 138 138
-0.114032 0.065833 -0.492068 138 138 138
-0.114831 0.062904 -0.491937 138 138 138
-0.115630 0.059974 -0.491807 138 138 138
-0.116449 0.057052 -0.491680 138 138 138
-0.117356 0.054181 -0.491570 138 138 138
-0.118268 0.051310 -0.491461 138 138 138
-0.119165 0.048430 -0.491349 138 138 138
-0.120090 0.045564 -0.491242 138 138 138
-0.121149 0.042776 -0.491161 138 138 138
-0.122262 0.040018 -0.491091 138 138 138
-0.123280 0.037203 -0.491002 138 138 138
-0.124313 0.034396 -0.490916 138 138 138
-0.125365 0.031599 -0.490834 138 138 138
-0.126553 0.028881 -0.490778 138 138 138
-0.127741 0.026163 -0.490723 138 138 138
-0.128911 0.023434 -0.490663 138 138 138
-0.129984 0.020645 -0.490585 138 138 138
-0.131103 0.017883 -0.490515 138 138 138
-0.132194 0.015103 -0.490440 138 138 138
-0.133285 0.012322 -0.490364 138 138 138
-0.134307 0.009498 -0.490275 138 138 138
-0.135275 0.006640 -0.490176 138 138 138
-0.135765 0.003490 -0.489981 138 138 138
-0.136248 0.000333 -0.489785 138 138 138
-0.136731 -0.002827 -0.489589 138 138 138
-0.137151 -0.006028 -0.489380 138 138 138
-0.137060 -0.009545 -0.489070 138 138 138
-0.136435 -0.013396 -0.488653 138 138 138
-0.135722 -0.017306 -0.488218 138 138 138
-0.134400 -0.021599 -0.487662 138 138 138
-0.132924 -0.025995 -0.487075 138 138 138
-0.131580 -0.030317 -0.486513 138 138 138
-0.130567 -0.034442 -0.486016 138 138 138
-0.129579 -0.038559 -0.485524 138 138 138
-0.128768 -0.042571 -0.485067 138 138 138
-0.128067 -0.046522 -0.484630 138 138 138
-0.127259 -0.050545 -0.484172 138 138 138
-0.125844 -0.054958 -0.483592 138 138 138
-0.124144 -0.059558 -0.482955 138 138 138
-0.122300 -0.064258 -0.482288 138 138 138
-0.119228 -0.069746 -0.481375 138 138 138
-0.116654 -0.074931 -0.480561 138 138 138
-0.114766 -0.079691 -0.479882 138 138 138
-0.113426 -0.084111 -0.479313 138 138 138
-0.112304 -0.088401 -0.478786 138 138 138
-0.110982 -0.092825 -0.478219 138 138 138
-0.109950 -0.097072 -0.477709 138 138 138
-0.108675 -0.101483 -0.477150 138 138 138
-0.106974 -0.106176 -0.476505 138 138 138
-0.105215 -0.110916 -0.475847 138 138 138
-0.103490 -0.115644 -0.475195 138 138 138
-0.101909 -0.120288 -0.474572 138 138 138
-0.098972 -0.125823 -0.473674 138 138 138
-0.095421 -0.131771 -0.472652 138 138 138
-0.061593 -0.157526 -0.465527 138 138 138
0.051817 0.193006 -0.481568 138 138 138
0.040312 0.195334 -0.483436 138 138 138
0.035319 0.194462 -0.484089 138 138 138
0.030339 0.193591 -0.484740 138 138 138
0.026639 0.192092 -0.485152 138 138 138
0.023522 0.190308 -0.485456 138 138 138
0.020517 0.188471 -0.485739 138 138 138
0.017608 0.186590 -0.486004 138 138 138
0.015006 0.184559 -0.486212 138 138 138
0.011576 0.182947 -0.486575 138 138 138
0.007815 0.181509 -0.487001 138 138 138
0.004324 0.179939 -0.487377 138 138 138
0.000709 0.178437 -0.487777 138 138 138
-0.002862 0.176918 -0.488168 138 138 138
-0.007185 0.175790 -0.488702 138 138 138
-0.011573 0.174701 -0.489249 138 138 138
-0.015827 0.173552 -0.489771 138 138 138
-0.019667 0.172196 -0.490216 138 138 138
-0.023105 0.170639 -0.490585 138 138 138
-0.026538 0.169084 -0.490954 138 138 138
-0.029541 0.167311 -0.491242 138 138 138
-0.032197 0.165363 -0.491464 138 138 138
-0.035244 0.163620 -0.491761 138 138 138
-0.038285 0.161879 -0.492057 138 138 138
-0.040725 0.159827 -0.492240 138 138 138
-0.043054 0.157719 -0.492401 138 138 138
-0.045318 0.155580 -0.492551 138 138 138
-0.047601 0.153452 -0.492704 138 138 138
-0.049676 0.151217 -0.492818 138 138 138
-0.051459 0.148827 -0.492877 138 138 138
-0.052950 0.146284 -0.492880 138 138 138
-0.054620 0.143836 -0.492918 138 138 138
-0.056289 0.141388 -0.492955 138 138 138
-0.057961 0.138942 -0.492993 138 138 138
-0.059633 0.136497 -0.493031 138 138 138
-0.061372 0.134088 -0.493081 138 138 138
-0.063155 0.131704 -0.493140 138 138 138
-0.065028 0.129369 -0.493217 138 138 138
-0.067400 0.127306 -0.493388 138 138 138
-0.069781 0.125250 -0.493562 138 138 138
-0.072318 0.123282 -0.493766 138 138 138
-0.074884 0.121332 -0.493975 138 138 138
-0.077713 0.119529 -0.494235 138 138 138
-0.080420 0.117664 -0.494472 138 138 138
-0.082833 0.115639 -0.494653 138 138 138
-0.085229 0.113608 -0.494831 138 138 138
-0.087602 0.111566 -0.495005 138 138 138
-0.089874 0.109471 -0.495159 138 138 138
-0.091821 0.107197 -0.495251 138 138 138
-0.093607 0.104835 -0.495313 138 138 138
-0.095392 0.102473 -0.495374 138 138 138
-0.097011 0.100019 -0.495403 138 138 138
-0.098630 0.097566 -0.495433 138 138 138
-0.100219 0.095096 -0.495457 138 138 138
-0.101505 0.092456 -0.495422 138 138 138
-0.102791 0.089815 -0.495387 138 138 138
-0.103999 0.087130 -0.495338 138 138 138
-0.105170 0.084422 -0.495280 138 138 138
-0.106300 0.081691 -0.495215 138 138 138
-0.107362 0.078920 -0.495137 138 138 138
-0.108424 0.076148 -0.495059 138 138 138
-0.109487 0.073375 -0.494981 138 138 138
-0.110519 0.070583 -0.494896 138 138 138
-0.111351 0.067676 -0.494773 138 138 138
-0.112147 0.064745 -0.494643 138 138 138
-0.112941 0.061811 -0.494512 138 138 138
-0.113734 0.058876 -0.494381 138 138 138
-0.114603 0.055982 -0.494264 138 138 138
-0.115512 0.053110 -0.494155 138 138 138
-0.116439 0.050247 -0.494050 138 138 138
-0.117337 0.047366 -0.493939 138 138 138
-0.118311 0.044527 -0.493842 138 138 138
-0.119421 0.041768 -0.493772 138 138 138
-0.120573 0.039032 -0.493709 138 138 138
-0.121595 0.036218 -0.493622 138 138 138
-0.122650 0.033422 -0.493540 138 138 138
-0.123820 0.030694 -0.493482 138 138 138
-0.125009 0.027977 -0.493426 138 138 138
-0.126198 0.025258 -0.493371 138 138 138
-0.127387 0.022539 -0.493316 138 138 138
-0.128629 0.019850 -0.493270 138 138 138
-0.129744 0.017085 -0.493200 138 138 138
-0.130835 0.014304 -0.493126 138 138 138
-0.131926 0.011522 -0.493051 138 138 138
-0.132978 0.008716 -0.492968 138 138 138
-0.133726 0.005724 -0.492826 138 138 138
-0.134367 0.002665 -0.492662 138 138 138
-0.134864 -0.000484 -0.492470 138 138 138
-0.135347 -0.003645 -0.492275 138 138 138
-0.135382 -0.007082 -0.491991 138 138 138
-0.135307 -0.010591 -0.491686 138 138 138
-0.134682 -0.014443 -0.491271 138 138 138
-0.133682 -0.018531 -0.490783 138 138 138
-0.132480 -0.022752 -0.490254 138 138 138
-0.131001 -0.027151 -0.489669 138 138 138
-0.129887 -0.031333 -0.489156 138 138 138
-0.128871 -0.035461 -0.488662 138 138 138
-0.127885 -0.039577 -0.488173 138 138 138
-0.127097 -0.043576 -0.487722 138 138 138
-0.126389 -0.047533 -0.487287 138 138 138
-0.125522 -0.051595 -0.486820 138 138 138
-0.123728 -0.056246 -0.486169 138 138 138
-0.121906 -0.060926 -0.485511 138 138 138
-0.119517 -0.065972 -0.484740 138 138 138
-0.116746 -0.071272 -0.483892 138 138 138
-0.114278 -0.076392 -0.483103 138 138 138
-0.112400 -0.081148 -0.482431 138 138 138
-0.111033 -0.085588 -0.481859 138 138 138
-0.109711 -0.090007 -0.481296 138 138 138
-0.108386 -0.094436 -0.480731 138 138 138
-0.107146 -0.098819 -0.480183 138 138 138
-0.105702 -0.103341 -0.479593 138 138 138
-0.104028 -0.108020 -0.478957 138 138 138
-0.102397 -0.112681 -0.478328 138 138 138
-0.100666 -0.117415 -0.477679 138 138 138
-0.098765 -0.122269 -0.476995 138 138 138
-0.095015 -0.128337 -0.475940 138 138 138
-0.066247 -0.150735 -0.469876 138 138 138
-0.051740 -0.163901 -0.466661 100 100 100
0.044940 0.192979 -0.485580 138 138 138
0.038356 0.192889 -0.486524 138 138 138
0.033338 0.192035 -0.487178 138 138 138
0.028483 0.191109 -0.487803 138 138 138
0.025334 0.189339 -0.488110 138 138 138
0.022327 0.187502 -0.488392 138 138 138
0.019323 0.185668 -0.488673 138 138 138
0.016495 0.183748 -0.488921 138 138 138
0.013118 0.182110 -0.489273 138 138 138
0.009355 0.180671 -0.489696 138 138 138
0.005729 0.179169 -0.490095 138 138 138
0.002674 0.177382 -0.490388 138 138 138
-0.000661 0.175742 -0.490733 138 138 138
-0.005086 0.174663 -0.491282 138 138 138
-0.009574 0.173624 -0.491844 138 138 138
-0.014018 0.172571 -0.492399 138 138 138
-0.018301 0.171441 -0.492923 138 138 138
-0.021731 0.169880 -0.493289 138 138 138
-0.025164 0.168324 -0.493655 138 138 138
-0.028593 0.166772 -0.494021 138 138 138
-0.031397 0.164900 -0.494270 138 138 138
-0.034403 0.163137 -0.494558 138 138 138
-0.037213 0.161275 -0.494809 138 138 138
-0.039895 0.159349 -0.495036 138 138 138
-0.042134 0.157194 -0.495179 138 138 138
-0.044371 0.155040 -0.495323 138 138 138
-0.046707 0.152940 -0.495485 138 138 138
-0.049158 0.150904 -0.495670 138 138 138
-0.050925 0.148506 -0.495725 138 138 138
-0.052595 0.146058 -0.495762 138 138 138
-0.054264 0.143611 -0.495799 138 138 138
-0.055933 0.141163 -0.495836 138 138 138
-0.057602 0.138716 -0.495873 138 138 138
-0.059300 0.136286 -0.495916 138 138 138
-0.061083 0.133901 -0.495974 138 138 138
-0.062865 0.131517 -0.496033 138 138 138
-0.064647 0.129134 -0.496092 138 138 138
-0.066789 0.126946 -0.496219 138 138 138
-0.069192 0.124903 -0.496396 138 138 138
-0.071755 0.122949 -0.496603 138 138 138
-0.074370 0.121026 -0.496820 138 138 138
-0.076825 0.119020 -0.497008 138 138 138
-0.079197 0.116969 -0.497180 138 138 138
-0.081567 0.114920 -0.497351 138 138 138
-0.083952 0.112882 -0.497526 138 138 138
-0.086347 0.110852 -0.497702 138 138 138
-0.088391 0.108630 -0.497813 138 138 138
-0.090179 0.106267 -0.497874 138 138 138
-0.091966 0.103905 -0.497935 138 138 138
-0.093753 0.101543 -0.497996 138 138 138
-0.095540 0.099182 -0.498057 138 138 138
-0.097149 0.096722 -0.498085 138 138 138
-0.098436 0.094081 -0.498050 138 138 138
-0.099722 0.091440 -0.498016 138 138 138
-0.101009 0.088798 -0.497981 138 138 138
-0.102295 0.086156 -0.497947 138 138 138
-0.103503 0.083468 -0.497897 138 138 138
-0.104548 0.080687 -0.497816 138 138 138
-0.105585 0.077901 -0.497733 138 138 138
-0.106623 0.075113 -0.497651 138 138 138
-0.107661 0.072325 -0.497568 138 138 138
-0.108582 0.069468 -0.497463 138 138 138
-0.109443 0.066576 -0.497346 138 138 138
-0.110236 0.063642 -0.497216 138 138 138
-0.111029 0.060706 -0.497085 138 138 138
-0.111883 0.057804 -0.496967 138 138 138
-0.112788 0.054930 -0.496858 138 138 138
-0.113694 0.052055 -0.496749 138 138 138
-0.114600 0.049178 -0.496640 138 138 138
-0.115555 0.046329 -0.496540 138 138 138
-0.116719 0.043601 -0.496480 138 138 138
-0.117887 0.040874 -0.496422 138 138 138
-0.119048 0.038142 -0.496362 138 138 138
-0.120023 0.035300 -0.496265 138 138 138
-0.121092 0.032512 -0.496187 138 138 138
-0.122262 0.029783 -0.496128 138 138 138
-0.123452 0.027064 -0.496074 138 138 138
-0.124642 0.024345 -0.496019 138 138 138
-0.125835 0.021627 -0.495964 138 138 138
-0.127054 0.018924 -0.495915 138 138 138
-0.128330 0.016254 -0.495877 138 138 138
-0.129431 0.013479 -0.495804 138 138 138
-0.130532 0.010702 -0.495732 138 138 138
-0.131474 0.007829 -0.495628 138 138 138
-0.132112 0.004769 -0.495465 138 138 138
-0.132759 0.001712 -0.495303 138 138 138
-0.133396 -0.001353 -0.495140 138 138 138
-0.133689 -0.004631 -0.494908 138 138 138
-0.133612 -0.008137 -0.494605 138 138 138
-0.133536 -0.011649 -0.494301 138 138 138
-0.132794 -0.015573 -0.493866 138 138 138
-0.131636 -0.019761 -0.493349 138 138 138
-0.130475 -0.023958 -0.492831 138 138 138
-0.129251 -0.028201 -0.492300 138 138 138
-0.128192 -0.032349 -0.491801 138 138 138
-0.127174 -0.036480 -0.491309 138 138 138
-0.126367 -0.040486 -0.490858 138 138 138
-0.125402 -0.044597 -0.490376 138 138 138
-0.124775 -0.048503 -0.489959 138 138 138
-0.123285 -0.052957 -0.489372 138 138 138
-0.121285 -0.057741 -0.488684 138 138 138
-0.118970 -0.062733 -0.487932 138 138 138
-0.115526 -0.068450 -0.486958 138 138 138
-0.112569 -0.073872 -0.486078 138 138 138
-0.110146 -0.078968 -0.485302 138 138 138
-0.108667 -0.083474 -0.484712 138 138 138
-0.107603 -0.087725 -0.484204 138 138 138
-0.106326 -0.092119 -0.483653 138 138 138
