ply
format ascii 1.0
element vertex 1152
property float x
property float y
property float z
property uchar red
property uchar green
property uchar blue
end_header
-0.361158 0.042702 -0.077243 138 138 138
-0.361742 0.039846 -0.077443 138 138 138
-0.362327 0.036992 -0.077642 138 138 138
-0.362915 0.034139 -0.077843 138 138 138
-0.363411 0.031288 -0.078012 138 138 138
-0.363696 0.028441 -0.078109 138 138 138
-0.364014 0.025593 -0.078218 138 138 138
-0.364340 0.022747 -0.078329 138 138 138
-0.364575 0.019902 -0.078409 138 138 138
-0.364691 0.017058 -0.078449 138 138 138
-0.364866 0.014214 -0.078509 138 138 138
-0.365042 0.011370 -0.078569 138 138 138
-0.365192 0.008527 -0.078620 138 138 138
-0.365291 0.005685 -0.078654 138 138 138
-0.365334 0.002842 -0.078669 138 138 138
-0.365378 0.000000 -0.078683 138 138 138
-0.365441 -0.002842 -0.078705 138 138 138
-0.365591 -0.005684 -0.078756 138 138 138
-0.365923 -0.008525 -0.078870 138 138 138
-0.366260 -0.011365 -0.078985 138 138 138
-0.366592 -0.014205 -0.079098 138 138 138
-0.366823 -0.017044 -0.079177 138 138 138
-0.367054 -0.019883 -0.079255 138 138 138
-0.367284 -0.022721 -0.079334 138 138 138
-0.367542 -0.025559 -0.079422 138 138 138
-0.367729 -0.028397 -0.079486 138 138 138
-0.367916 -0.031234 -0.079550 138 138 138
-0.368102 -0.034072 -0.079613 138 138 138
-0.368283 -0.036908 -0.079675 138 138 138
-0.368539 -0.039743 -0.079762 138 138 138
-0.368796 -0.042578 -0.079850 138 138 138
-0.369062 -0.045412 -0.079941 138 138 138
-0.369362 -0.048245 -0.080043 138 138 138
-0.369854 -0.051073 -0.080211 138 138 138
-0.370377 -0.053900 -0.080390 138 138 138
-0.370899 -0.056725 -0.080568 138 138 138
-0.371382 -0.059551 -0.080733 138 138 138
-0.372071 -0.062370 -0.080968 138 138 138
-0.372913 -0.065184 -0.081255 138 138 138
-0.373754 -0.067996 -0.081542 138 138 138
-0.374594 -0.070807 -0.081829 138 138 138
-0.375574 -0.073611 -0.082163 138 138 138
-0.376654 -0.076411 -0.082532 138 138 138
-0.377735 -0.079208 -0.082901 138 138 138
-0.378803 -0.082004 -0.083266 138 138 138
-0.379725 -0.084802 -0.083580 138 138 138
-0.380681 -0.087596 -0.083907 138 138 138
-0.381696 -0.090387 -0.084253 138 138 138
-0.382710 -0.093175 -0.084599 138 138 138
-0.383731 -0.095961 -0.084948 138 138 138
-0.384769 -0.098744 -0.085302 138 138 138
-0.385692 -0.101530 -0.085617 138 138 138
-0.386444 -0.104320 -0.085874 138 138 138
-0.387197 -0.107108 -0.086131 138 138 138
-0.387406 -0.109918 -0.086202 138 138 138
-0.387641 -0.112726 -0.086282 138 138 138
-0.387978 -0.115529 -0.086397 138 138 138
-0.388314 -0.118332 -0.086512 138 138 138
-0.387793 -0.121174 -0.086334 138 138 138
-0.387116 -0.124024 -0.086103 138 138 138
-0.386175 -0.126888 -0.085782 138 138 138
-0.384028 -0.129815 -0.085049 138 138 138
-0.379226 -0.132881 -0.083410 138 138 138
-0.373873 -0.135986 -0.081583 138 138 138
-0.361440 -0.139478 -0.077340 138 138 138
-0.358968 -0.142459 -0.076496 138 138 138
-0.357397 -0.145395 -0.075959 138 138 138
-0.355614 -0.148346 -0.075351 138 138 138
-0.353821 -0.151301 -0.074739 138 138 138
-0.352607 -0.154227 -0.074325 138 138 138
-0.351967 -0.157121 -0.074106 138 138 138
-0.351339 -0.160016 -0.073892 138 138 138
-0.350711 -0.162912 -0.073677 138 138 138
-0.350434 -0.165788 -0.073583 138 138 138
-0.350239 -0.168658 -0.073516 138 138 138
-0.350016 -0.171531 -0.073440 138 138 138
-0.349635 -0.174416 -0.073310 138 138 138
-0.349227 -0.177302 -0.073171 138 138 138
-0.348795 -0.180191 -0.073023 138 138 138
-0.347985 -0.183108 -0.072747 138 138 138
-0.347158 -0.186027 -0.072465 138 138 138
-0.346049 -0.188968 -0.072086 138 138 138
-0.344746 -0.191925 -0.071642 138 138 138
-0.343477 -0.194883 -0.071208 138 138 138
-0.342250 -0.197841 -0.070790 138 138 138
-0.340750 -0.200822 -0.070278 138 138 138
-0.338648 -0.203852 -0.069560 138 138 138
-0.336434 -0.206896 -0.068805 138 138 138
-0.334217 -0.209944 -0.068048 138 138 138
-0.332104 -0.212989 -0.067326 138 138 138
-0.329833 -0.216052 -0.066551 138 138 138
-0.327452 -0.219128 -0.065739 138 138 138
-0.325089 -0.222208 -0.064932 138 138 138
-0.322816 -0.225286 -0.064156 138 138 138
-0.320538 -0.228369 -0.063379 138 138 138
-0.317850 -0.231492 -0.062462 138 138 138
-0.315904 -0.234557 -0.061797 138 138 138
-0.313940 -0.237627 -0.061127 138 138 138
-0.311973 -0.240701 -0.060456 138 138 138
-0.310029 -0.243778 -0.059792 138 138 138
-0.307769 -0.246888 -0.059021 138 138 138
-0.305521 -0.250001 -0.058253 138 138 138
-0.303286 -0.253119 -0.057491 138 138 138
-0.301772 -0.256172 -0.056974 138 138 138
-0.299338 -0.259318 -0.056143 138 138 138
-0.297653 -0.262395 -0.055568 138 138 138
-0.295965 -0.265477 -0.054992 138 138 138
-0.294247 -0.268565 -0.054405 138 138 138
-0.292545 -0.271656 -0.053824 138 138 138
-0.291513 -0.274682 -0.053472 138 138 138
-0.290480 -0.277710 -0.053120 138 138 138
-0.289060 -0.280781 -0.052635 138 138 138
-0.287648 -0.283854 -0.052153 138 138 138
-0.286335 -0.286919 -0.051705 138 138 138
-0.285003 -0.289990 -0.051250 138 138 138
-0.283106 -0.293124 -0.050603 138 138 138
-0.281146 -0.296269 -0.049934 138 138 138
-0.279320 -0.299404 -0.049310 138 138 138
-0.277460 -0.302547 -0.048676 138 138 138
-0.275483 -0.305707 -0.048001 138 138 138
-0.273411 -0.308881 -0.047294 138 138 138
-0.271223 -0.312074 -0.046547 138 138 138
-0.268849 -0.315293 -0.045737 138 138 138
-0.266430 -0.318522 -0.044911 138 138 138
-0.263234 -0.321848 -0.043820 138 138 138
-0.258790 -0.325330 -0.042303 138 138 138
-0.255272 -0.328710 -0.041103 138 138 138
-0.250372 -0.332265 -0.039430 138 138 138
-0.245867 -0.335782 -0.037893 138 138 138
-0.242880 -0.339122 -0.036873 138 138 138
-0.240045 -0.342450 -0.035905 138 138 138
-0.237139 -0.345792 -0.034913 138 138 138
-0.234870 -0.349060 -0.034139 138 138 138
-0.232302 -0.352372 -0.033262 138 138 138
-0.229669 -0.355697 -0.032364 138 138 138
-0.227140 -0.359014 -0.031501 138 138 138
-0.224470 -0.362355 -0.030589 138 138 138
-0.221743 -0.365710 -0.029659 138 138 138
-0.219812 -0.368964 -0.028999 138 138 138
-0.218295 -0.372168 -0.028482 138 138 138
-0.216780 -0.375374 -0.027965 138 138 138
-0.215281 -0.378581 -0.027453 138 138 138
-0.214236 -0.381729 -0.027096 138 138 138
-0.213305 -0.384864 -0.026778 138 138 138
-0.212458 -0.387989 -0.026490 138 138 138
-0.212089 -0.391048 -0.026364 138 138 138
-0.211172 -0.394186 -0.026051 138 138 138
-0.210020 -0.397360 -0.025657 138 138 138
-0.208830 -0.400542 -0.025251 138 138 138
-0.207376 -0.403764 -0.024755 138 138 138
-0.204322 -0.407223 -0.023712 138 138 138
-0.201108 -0.410712 -0.022615 138 138 138
-0.197016 -0.414339 -0.021219 138 138 138
-0.179458 -0.419984 -0.015226 138 138 138
-0.157003 -0.426404 -0.007562 138 138 138
-0.146400 -0.431078 -0.003943 138 138 138
-0.090837 -0.442632 0.015022 138 138 138
-0.080962 -0.447288 0.018392 138 138 138
-0.065140 -0.452886 0.023793 100 100 100
-0.022250 0.424028 0.035037 138 138 138
-0.092903 0.410806 0.011003 138 138 138
-0.104757 0.406004 0.006971 138 138 138
-0.112220 0.401840 0.004432 138 138 138
-0.117802 0.397952 0.002533 138 138 138
-0.124376 0.393940 0.000297 138 138 138
-0.130182 0.390047 -0.001678 138 138 138
-0.139670 0.385669 -0.004906 138 138 138
-0.153379 0.380745 -0.009569 138 138 138
-0.168670 0.375641 -0.014771 138 138 138
-0.176657 0.371533 -0.017488 138 138 138
-0.182714 0.367695 -0.019548 138 138 138
-0.189206 0.363814 -0.021757 138 138 138
-0.195462 0.359977 -0.023885 138 138 138
-0.203651 0.355907 -0.026670 138 138 138
-0.220047 0.350816 -0.032248 138 138 138
-0.239882 0.345330 -0.038995 138 138 138
-0.246456 0.341535 -0.041232 138 138 138
-0.252977 0.337761 -0.043450 138 138 138
-0.255788 0.334455 -0.044406 138 138 138
-0.258123 0.331213 -0.045200 138 138 138
-0.263020 0.327667 -0.046866 138 138 138
-0.266923 0.324251 -0.048194 138 138 138
-0.270469 0.320885 -0.049400 138 138 138
-0.273990 0.317530 -0.050598 138 138 138
-0.276889 0.314255 -0.051584 138 138 138
-0.279601 0.311007 -0.052507 138 138 138
-0.282948 0.307693 -0.053645 138 138 138
-0.286789 0.304331 -0.054952 138 138 138
-0.289536 0.301098 -0.055886 138 138 138
-0.292162 0.297885 -0.056780 138 138 138
-0.294684 0.294689 -0.057638 138 138 138
-0.296788 0.291544 -0.058353 138 138 138
-0.298294 0.288468 -0.058865 138 138 138
-0.299726 0.285402 -0.059353 138 138 138
-0.300992 0.282357 -0.059783 138 138 138
-0.302234 0.279317 -0.060206 138 138 138
-0.303030 0.276326 -0.060477 138 138 138
-0.303722 0.273347 -0.060712 138 138 138
-0.304244 0.270386 -0.060889 138 138 138
-0.304735 0.267430 -0.061057 138 138 138
-0.305060 0.264491 -0.061167 138 138 138
-0.305483 0.261543 -0.061311 138 138 138
-0.306000 0.258588 -0.061487 138 138 138
-0.306506 0.255634 -0.061659 138 138 138
-0.307109 0.252672 -0.061864 138 138 138
-0.307560 0.249726 -0.062018 138 138 138
-0.308078 0.246775 -0.062194 138 138 138
-0.308608 0.243823 -0.062374 138 138 138
-0.309271 0.240861 -0.062599 138 138 138
-0.309944 0.237900 -0.062829 138 138 138
-0.310738 0.234929 -0.063099 138 138 138
-0.311817 0.231935 -0.063466 138 138 138
-0.312880 0.228945 -0.063827 138 138 138
-0.313990 0.225953 -0.064205 138 138 138
-0.315081 0.222966 -0.064576 138 138 138
-0.316105 0.219986 -0.064924 138 138 138
-0.317067 0.217013 -0.065252 138 138 138
-0.318030 0.214043 -0.065579 138 138 138
-0.318987 0.211075 -0.065905 138 138 138
-0.319694 0.208128 -0.066145 138 138 138
-0.320207 0.205198 -0.066320 138 138 138
-0.320687 0.202272 -0.066483 138 138 138
-0.321167 0.199346 -0.066646 138 138 138
-0.321658 0.196421 -0.066813 138 138 138
-0.322180 0.193495 -0.066991 138 138 138
-0.322663 0.190572 -0.067155 138 138 138
-0.322987 0.187662 -0.067265 138 138 138
-0.323324 0.184752 -0.067380 138 138 138
-0.323552 0.181849 -0.067458 138 138 138
-0.323622 0.178958 -0.067481 138 138 138
-0.323813 0.176059 -0.067546 138 138 138
-0.323977 0.173162 -0.067602 138 138 138
-0.324205 0.170262 -0.067680 138 138 138
-0.324462 0.167360 -0.067767 138 138 138
-0.324720 0.164458 -0.067855 138 138 138
-0.324829 0.161567 -0.067892 138 138 138
-0.324997 0.158672 -0.067949 138 138 138
-0.325163 0.155777 -0.068006 138 138 138
-0.325337 0.152882 -0.068065 138 138 138
-0.325671 0.149979 -0.068178 138 138 138
-0.326262 0.147062 -0.068379 138 138 138
-0.327116 0.144132 -0.068670 138 138 138
-0.327969 0.141204 -0.068960 138 138 138
-0.329091 0.138264 -0.069342 138 138 138
-0.330424 0.135316 -0.069795 138 138 138
-0.331755 0.132371 -0.070248 138 138 138
-0.332943 0.129435 -0.070652 138 138 138
-0.334524 0.126484 -0.071190 138 138 138
-0.336505 0.123517 -0.071864 138 138 138
-0.337957 0.120579 -0.072358 138 138 138
-0.339408 0.117643 -0.072851 138 138 138
-0.340919 0.114709 -0.073365 138 138 138
-0.342156 0.111789 -0.073786 138 138 138
-0.343279 0.108876 -0.074168 138 138 138
-0.344400 0.105966 -0.074549 138 138 138
-0.345400 0.103063 -0.074890 138 138 138
-0.346117 0.100173 -0.075133 138 138 138
-0.346755 0.097288 -0.075351 138 138 138
-0.347393 0.094404 -0.075568 138 138 138
-0.348008 0.091522 -0.075777 138 138 138
-0.348519 0.088644 -0.075951 138 138 138
-0.349029 0.085768 -0.076124 138 138 138
-0.349539 0.082893 -0.076298 138 138 138
-0.350030 0.080020 -0.076465 138 138 138
-0.350525 0.077148 -0.076633 138 138 138
-0.351079 0.074275 -0.076822 138 138 138
-0.351684 0.071402 -0.077027 138 138 138
-0.352608 0.068522 -0.077342 138 138 138
-0.353404 0.065647 -0.077612 138 138 138
-0.354428 0.062768 -0.077961 138 138 138
-0.355465 0.059892 -0.078313 138 138 138
-0.356489 0.057018 -0.078662 138 138 138
-0.357366 0.054149 -0.078960 138 138 138
-0.358169 0.051283 -0.079233 138 138 138
-0.358972 0.048419 -0.079507 138 138 138
-0.359801 0.045557 -0.079788 138 138 138
-0.360314 0.042701 -0.079963 138 138 138
-0.360870 0.039846 -0.080152 138 138 138
-0.361454 0.036992 -0.080351 138 138 138
-0.362037 0.034139 -0.080549 138 138 138
-0.362288 0.031291 -0.080634 138 138 138
-0.362471 0.028444 -0.080697 138 138 138
-0.362656 0.025598 -0.080760 138 138 138
-0.362957 0.022751 -0.080862 138 138 138
-0.363178 0.019906 -0.080937 138 138 138
-0.363354 0.017061 -0.080997 138 138 138
-0.363530 0.014216 -0.081057 138 138 138
-0.363705 0.011372 -0.081117 138 138 138
-0.363824 0.008529 -0.081157 138 138 138
-0.363923 0.005686 -0.081191 138 138 138
-0.363984 0.002843 -0.081211 138 138 138
-0.364027 0.000000 -0.081226 138 138 138
-0.364124 -0.002843 -0.081259 138 138 138
-0.364249 -0.005685 -0.081302 138 138 138
-0.364374 -0.008527 -0.081344 138 138 138
-0.364498 -0.011369 -0.081386 138 138 138
-0.364731 -0.014210 -0.081466 138 138 138
-0.364988 -0.017050 -0.081553 138 138 138
-0.365244 -0.019890 -0.081640 138 138 138
-0.365501 -0.022729 -0.081727 138 138 138
-0.365670 -0.025569 -0.081785 138 138 138
-0.365743 -0.028409 -0.081810 138 138 138
-0.365892 -0.031248 -0.081861 138 138 138
-0.366078 -0.034086 -0.081924 138 138 138
-0.366287 -0.036924 -0.081995 138 138 138
-0.366530 -0.039760 -0.082078 138 138 138
-0.366774 -0.042596 -0.082160 138 138 138
-0.367031 -0.045432 -0.082248 138 138 138
-0.367388 -0.048265 -0.082369 138 138 138
-0.367910 -0.051094 -0.082547 138 138 138
-0.368294 -0.053924 -0.082678 138 138 138
-0.368678 -0.056754 -0.082808 138 138 138
-0.369135 -0.059581 -0.082964 138 138 138
-0.369924 -0.062400 -0.083232 138 138 138
-0.370713 -0.065216 -0.083501 138 138 138
-0.371510 -0.068031 -0.083772 138 138 138
-0.372358 -0.070843 -0.084060 138 138 138
-0.373442 -0.073646 -0.084429 138 138 138
-0.374544 -0.076447 -0.084804 138 138 138
-0.375688 -0.079243 -0.085193 138 138 138
-0.376831 -0.082038 -0.085582 138 138 138
-0.378120 -0.084825 -0.086020 138 138 138
-0.379169 -0.087617 -0.086377 138 138 138
-0.380185 -0.090408 -0.086723 138 138 138
-0.381200 -0.093197 -0.087068 138 138 138
-0.382242 -0.095983 -0.087422 138 138 138
-0.383287 -0.098767 -0.087778 138 138 138
-0.384278 -0.101550 -0.088115 138 138 138
-0.385213 -0.104333 -0.088433 138 138 138
-0.385861 -0.107126 -0.088653 138 138 138
-0.386198 -0.109931 -0.088768 138 138 138
-0.386535 -0.112736 -0.088883 138 138 138
-0.386872 -0.115539 -0.088997 138 138 138
-0.386935 -0.118354 -0.089019 138 138 138
-0.386258 -0.121204 -0.088789 138 138 138
-0.385583 -0.124054 -0.088559 138 138 138
-0.384629 -0.126920 -0.088234 138 138 138
-0.382533 -0.129845 -0.087521 138 138 138
-0.377368 -0.132930 -0.085764 138 138 138
-0.371886 -0.136043 -0.083899 138 138 138
-0.360861 -0.139461 -0.080149 138 138 138
-0.357624 -0.142483 -0.079048 138 138 138
-0.355937 -0.145425 -0.078474 138 138 138
-0.354088 -0.148381 -0.077845 138 138 138
-0.352199 -0.151343 -0.077203 138 138 138
-0.351462 -0.154241 -0.076952 138 138 138
-0.350728 -0.157141 -0.076702 138 138 138
-0.350058 -0.160039 -0.076474 138 138 138
-0.349445 -0.162934 -0.076266 138 138 138
-0.349394 -0.165796 -0.076248 138 138 138
-0.349179 -0.168668 -0.076175 138 138 138
-0.348773 -0.171553 -0.076037 138 138 138
-0.348209 -0.174450 -0.075845 138 138 138
-0.347840 -0.177334 -0.075720 138 138 138
-0.347130 -0.180243 -0.075478 138 138 138
-0.346339 -0.183159 -0.075209 138 138 138
-0.345394 -0.186087 -0.074888 138 138 138
-0.344171 -0.189037 -0.074472 138 138 138
-0.342946 -0.191990 -0.074055 138 138 138
-0.341719 -0.194946 -0.073638 138 138 138
-0.340292 -0.197919 -0.073152 138 138 138
-0.338468 -0.200926 -0.072532 138 138 138
-0.336428 -0.203953 -0.071838 138 138 138
-0.334204 -0.206999 -0.071081 138 138 138
-0.332029 -0.210045 -0.070341 138 138 138
-0.329915 -0.213092 -0.069622 138 138 138
-0.327797 -0.216143 -0.068901 138 138 138
-0.325490 -0.219215 -0.068117 138 138 138
-0.323179 -0.222291 -0.067331 138 138 138
-0.320903 -0.225370 -0.066556 138 138 138
-0.318623 -0.228454 -0.065781 138 138 138
-0.316214 -0.231555 -0.064961 138 138 138
-0.314012 -0.234642 -0.064212 138 138 138
-0.311917 -0.237725 -0.063500 138 138 138
-0.309949 -0.240800 -0.062830 138 138 138
-0.308268 -0.243854 -0.062258 138 138 138
-0.306042 -0.246962 -0.061501 138 138 138
-0.303809 -0.250075 -0.060741 138 138 138
-0.301816 -0.253170 -0.060064 138 138 138
-0.300081 -0.256246 -0.059473 138 138 138
-0.297731 -0.259384 -0.058674 138 138 138
-0.295956 -0.262471 -0.058070 138 138 138
-0.294267 -0.265553 -0.057496 138 138 138
-0.292519 -0.268645 -0.056901 138 138 138
-0.290764 -0.271742 -0.056304 138 138 138
-0.289376 -0.274805 -0.055832 138 138 138
-0.288217 -0.277848 -0.055437 138 138 138
-0.286709 -0.280929 -0.054924 138 138 138
-0.285200 -0.284013 -0.054411 138 138 138
-0.283862 -0.287083 -0.053956 138 138 138
-0.282436 -0.290165 -0.053471 138 138 138
-0.280859 -0.293267 -0.052935 138 138 138
-0.278988 -0.296404 -0.052298 138 138 138
-0.277150 -0.299541 -0.051673 138 138 138
-0.275213 -0.302694 -0.051014 138 138 138
-0.273244 -0.305854 -0.050344 138 138 138
-0.271159 -0.309031 -0.049635 138 138 138
-0.268822 -0.312243 -0.048840 138 138 138
-0.266403 -0.315468 -0.048017 138 138 138
-0.263861 -0.318713 -0.047152 138 138 138
-0.260520 -0.322058 -0.046016 138 138 138
-0.256106 -0.325538 -0.044514 138 138 138
-0.253397 -0.328823 -0.043593 138 138 138
-0.249075 -0.332308 -0.042122 138 138 138
-0.245168 -0.335753 -0.040794 138 138 138
-0.241982 -0.339117 -0.039710 138 138 138
-0.239261 -0.342430 -0.038784 138 138 138
-0.236746 -0.345723 -0.037929 138 138 138
-0.234372 -0.349004 -0.037121 138 138 138
-0.232113 -0.352275 -0.036353 138 138 138
-0.229488 -0.355598 -0.035459 138 138 138
-0.226921 -0.358920 -0.034586 138 138 138
-0.224308 -0.362253 -0.033697 138 138 138
-0.221547 -0.365611 -0.032758 138 138 138
-0.219663 -0.368858 -0.032117 138 138 138
-0.218150 -0.372060 -0.031603 138 138 138
-0.216625 -0.375266 -0.031084 138 138 138
-0.215021 -0.378487 -0.030538 138 138 138
-0.213849 -0.381652 -0.030139 138 138 138
-0.212932 -0.384784 -0.029827 138 138 138
-0.212000 -0.387920 -0.029510 138 138 138
-0.211531 -0.390993 -0.029351 138 138 138
-0.210380 -0.394164 -0.028960 138 138 138
-0.209229 -0.397337 -0.028568 138 138 138
-0.208069 -0.400514 -0.028173 138 138 138
-0.205665 -0.403874 -0.027356 138 138 138
-0.202602 -0.407335 -0.026314 138 138 138
-0.199026 -0.410878 -0.025097 138 138 138
-0.193181 -0.414765 -0.023109 138 138 138
-0.170489 -0.421179 -0.015389 138 138 138
-0.153860 -0.426731 -0.009733 138 138 138
-0.142586 -0.431508 -0.005898 138 138 138
-0.086586 -0.443129 0.013152 138 138 138
-0.074424 -0.448139 0.017289 138 138 138
-0.020051 0.424197 0.032391 138 138 138
-0.092649 0.410702 0.007778 138 138 138
-0.103842 0.405994 0.003983 138 138 138
-0.110771 0.401904 0.001634 138 138 138
-0.117126 0.397909 -0.000521 138 138 138
-0.123571 0.393916 -0.002706 138 138 138
-0.131176 0.389778 -0.005284 138 138 138
-0.143446 0.385027 -0.009444 138 138 138
-0.158211 0.379967 -0.014450 138 138 138
-0.169887 0.375351 -0.018408 138 138 138
-0.176448 0.371434 -0.020633 138 138 138
-0.182053 0.367656 -0.022533 138 138 138
-0.188567 0.363772 -0.024741 138 138 138
-0.194807 0.359938 -0.026857 138 138 138
-0.203691 0.355780 -0.029869 138 138 138
-0.224565 0.350125 -0.036946 138 138 138
-0.238336 0.345406 -0.041614 138 138 138
-0.245163 0.341579 -0.043929 138 138 138
-0.250421 0.337961 -0.045712 138 138 138
-0.252403 0.334754 -0.046384 138 138 138
-0.254935 0.331485 -0.047242 138 138 138
-0.258690 0.328075 -0.048515 138 138 138
-0.260458 0.324909 -0.049115 138 138 138
-0.264342 0.321498 -0.050431 138 138 138
-0.268391 0.318076 -0.051804 138 138 138
-0.272393 0.314667 -0.053161 138 138 138
-0.276135 0.311298 -0.054429 138 138 138
-0.278848 0.308053 -0.055349 138 138 138
-0.282887 0.304665 -0.056719 138 138 138
-0.286643 0.301317 -0.057992 138 138 138
-0.289260 0.298103 -0.058879 138 138 138
-0.291702 0.294914 -0.059707 138 138 138
-0.293929 0.291754 -0.060462 138 138 138
-0.295818 0.288634 -0.061103 138 138 138
-0.297334 0.285558 -0.061617 138 138 138
-0.298691 0.282502 -0.062077 138 138 138
-0.299790 0.279475 -0.062449 138 138 138
-0.300559 0.276485 -0.062710 138 138 138
-0.301327 0.273497 -0.062971 138 138 138
-0.302096 0.270510 -0.063231 138 138 138
-0.302751 0.267536 -0.063453 138 138 138
-0.303075 0.264596 -0.063563 138 138 138
-0.303400 0.261657 -0.063673 138 138 138
-0.303883 0.258703 -0.063837 138 138 138
-0.304331 0.255754 -0.063989 138 138 138
-0.304750 0.252808 -0.064131 138 138 138
-0.305418 0.249840 -0.064357 138 138 138
-0.306086 0.246873 -0.064584 138 138 138
-0.306758 0.243908 -0.064812 138 138 138
-0.307594 0.240929 -0.065095 138 138 138
-0.308356 0.237959 -0.065354 138 138 138
-0.309030 0.234998 -0.065582 138 138 138
-0.310000 0.232013 -0.065911 138 138 138
-0.311064 0.229022 -0.066272 138 138 138
-0.312092 0.226036 -0.066620 138 138 138
-0.313112 0.223053 -0.066966 138 138 138
-0.314398 0.220051 -0.067402 138 138 138
-0.315364 0.217077 -0.067729 138 138 138
-0.316329 0.214106 -0.068056 138 138 138
-0.317293 0.211136 -0.068383 138 138 138
-0.318067 0.208184 -0.068646 138 138 138
-0.318572 0.205254 -0.068817 138 138 138
-0.319086 0.202324 -0.068991 138 138 138
-0.319589 0.199396 -0.069162 138 138 138
-0.320094 0.196469 -0.069333 138 138 138
-0.320617 0.193542 -0.069510 138 138 138
-0.321141 0.190616 -0.069688 138 138 138
-0.321516 0.187701 -0.069815 138 138 138
-0.321870 0.184789 -0.069935 138 138 138
-0.322234 0.181877 -0.070059 138 138 138
-0.322335 0.178983 -0.070093 138 138 138
-0.322404 0.176092 -0.070116 138 138 138
-0.322624 0.173191 -0.070191 138 138 138
-0.322750 0.170296 -0.070233 138 138 138
-0.323008 0.167394 -0.070321 138 138 138
-0.323266 0.164492 -0.070408 138 138 138
-0.323396 0.161598 -0.070453 138 138 138
-0.323575 0.158702 -0.070513 138 138 138
-0.323865 0.155799 -0.070611 138 138 138
-0.324156 0.152898 -0.070710 138 138 138
-0.324568 0.149990 -0.070850 138 138 138
-0.325039 0.147079 -0.071010 138 138 138
-0.325511 0.144170 -0.071170 138 138 138
-0.326203 0.141250 -0.071404 138 138 138
-0.327683 0.138290 -0.071906 138 138 138
-0.329201 0.135332 -0.072421 138 138 138
-0.330532 0.132386 -0.072872 138 138 138
-0.331718 0.129451 -0.073274 138 138 138
-0.333317 0.126498 -0.073816 138 138 138
-0.335260 0.123533 -0.074475 138 138 138
-0.336920 0.120585 -0.075038 138 138 138
-0.338371 0.117649 -0.075529 138 138 138
-0.339981 0.114710 -0.076075 138 138 138
-0.341491 0.111779 -0.076587 138 138 138
-0.342599 0.108867 -0.076963 138 138 138
-0.343720 0.105957 -0.077343 138 138 138
-0.344767 0.103053 -0.077698 138 138 138
-0.345405 0.100166 -0.077914 138 138 138
-0.346044 0.097281 -0.078131 138 138 138
-0.346910 0.094389 -0.078425 138 138 138
-0.347574 0.091505 -0.078650 138 138 138
-0.348105 0.088628 -0.078830 138 138 138
-0.348617 0.085752 -0.079003 138 138 138
-0.349127 0.082878 -0.079176 138 138 138
-0.349580 0.080006 -0.079330 138 138 138
-0.350069 0.077135 -0.079495 138 138 138
-0.350622 0.074262 -0.079683 138 138 138
-0.351337 0.071387 -0.079926 138 138 138
-0.352223 0.068508 -0.080226 138 138 138
-0.353069 0.065633 -0.080513 138 138 138
-0.353923 0.062759 -0.080802 138 138 138
-0.354960 0.059883 -0.081154 138 138 138
-0.355926 0.057010 -0.081481 138 138 138
-0.356733 0.054143 -0.081755 138 138 138
-0.357537 0.051278 -0.082027 138 138 138
-0.358286 0.048415 -0.082281 138 138 138
-0.358982 0.045555 -0.082517 138 138 138
-0.359490 0.042700 -0.082690 138 138 138
-0.360003 0.039846 -0.082863 138 138 138
-0.360582 0.036991 -0.083060 138 138 138
-0.361050 0.034140 -0.083219 138 138 138
-0.361282 0.031292 -0.083297 138 138 138
-0.361473 0.028445 -0.083362 138 138 138
-0.361656 0.025599 -0.083424 138 138 138
-0.361818 0.022753 -0.083479 138 138 138
-0.361916 0.019908 -0.083512 138 138 138
-0.362027 0.017064 -0.083550 138 138 138
-0.362197 0.014219 -0.083607 138 138 138
-0.362357 0.011374 -0.083661 138 138 138
-0.362455 0.008530 -0.083695 138 138 138
-0.362553 0.005687 -0.083728 138 138 138
-0.362633 0.002843 -0.083755 138 138 138
-0.362683 0.000000 -0.083772 138 138 138
-0.362808 -0.002843 -0.083814 138 138 138
-0.362932 -0.005686 -0.083857 138 138 138
-0.363069 -0.008528 -0.083903 138 138 138
-0.363222 -0.011371 -0.083955 138 138 138
-0.363328 -0.014213 -0.083991 138 138 138
-0.363381 -0.017055 -0.084009 138 138 138
-0.363501 -0.019896 -0.084049 138 138 138
-0.363758 -0.022736 -0.084137 138 138 138
-0.363849 -0.025578 -0.084167 138 138 138
-0.363923 -0.028419 -0.084192 138 138 138
-0.363997 -0.031260 -0.084218 138 138 138
-0.364071 -0.034101 -0.084243 138 138 138
-0.364300 -0.036939 -0.084320 138 138 138
-0.364547 -0.039777 -0.084404 138 138 138
-0.364793 -0.042614 -0.084488 138 138 138
-0.365040 -0.045451 -0.084571 138 138 138
-0.365286 -0.048287 -0.084655 138 138 138
-0.365586 -0.051121 -0.084756 138 138 138
-0.365971 -0.053953 -0.084887 138 138 138
-0.366356 -0.056785 -0.085017 138 138 138
-0.366993 -0.059610 -0.085233 138 138 138
-0.367783 -0.062429 -0.085501 138 138 138
-0.368574 -0.065247 -0.085769 138 138 138
-0.369360 -0.068064 -0.086036 138 138 138
-0.370364 -0.070873 -0.086376 138 138 138
-0.371521 -0.073675 -0.086768 138 138 138
-0.372667 -0.076475 -0.087157 138 138 138
-0.373812 -0.079273 -0.087545 138 138 138
-0.375047 -0.082065 -0.087964 138 138 138
-0.376379 -0.084852 -0.088415 138 138 138
-0.377611 -0.087639 -0.088833 138 138 138
-0.378673 -0.090430 -0.089193 138 138 138
-0.379692 -0.093219 -0.089539 138 138 138
-0.380751 -0.096005 -0.089898 138 138 138
-0.381796 -0.098789 -0.090252 138 138 138
-0.382840 -0.101571 -0.090606 138 138 138
-0.383788 -0.104355 -0.090927 138 138 138
-0.384447 -0.107148 -0.091151 138 138 138
-0.385031 -0.109943 -0.091349 138 138 138
-0.385429 -0.112745 -0.091484 138 138 138
-0.385766 -0.115549 -0.091598 138 138 138
-0.385400 -0.118383 -0.091474 138 138 138
-0.384725 -0.121233 -0.091245 138 138 138
-0.384049 -0.124085 -0.091016 138 138 138
-0.383083 -0.126952 -0.090688 138 138 138
-0.380783 -0.129888 -0.089908 138 138 138
-0.376528 -0.132927 -0.088466 138 138 138
-0.369636 -0.136113 -0.086129 138 138 138
-0.359735 -0.139473 -0.082773 138 138 138
-0.356287 -0.142506 -0.081603 138 138 138
-0.354436 -0.145458 -0.080976 138 138 138
-0.352598 -0.148414 -0.080353 138 138 138
-0.350857 -0.151368 -0.079763 138 138 138
-0.350126 -0.154266 -0.079515 138 138 138
-0.349456 -0.157163 -0.079288 138 138 138
-0.348787 -0.160061 -0.079061 138 138 138
-0.348404 -0.162943 -0.078931 138 138 138
-0.348341 -0.165805 -0.078910 138 138 138
-0.347911 -0.168692 -0.078764 138 138 138
-0.347344 -0.171587 -0.078572 138 138 138
-0.346884 -0.174478 -0.078416 138 138 138
-0.346174 -0.177386 -0.078175 138 138 138
-0.345463 -0.180295 -0.077934 138 138 138
-0.344693 -0.183210 -0.077673 138 138 138
-0.343629 -0.186148 -0.077312 138 138 138
-0.342414 -0.189098 -0.076900 138 138 138
-0.341188 -0.192052 -0.076485 138 138 138
-0.339863 -0.195016 -0.076035 138 138 138
-0.338153 -0.198011 -0.075456 138 138 138
-0.336183 -0.201030 -0.074788 138 138 138
-0.334209 -0.204053 -0.074119 138 138 138
-0.331971 -0.207102 -0.073360 138 138 138
-0.329841 -0.210146 -0.072637 138 138 138
-0.327723 -0.213194 -0.071920 138 138 138
-0.325603 -0.216247 -0.071201 138 138 138
-0.323428 -0.219309 -0.070463 138 138 138
-0.320967 -0.222400 -0.069629 138 138 138
-0.318483 -0.225497 -0.068787 138 138 138
-0.315996 -0.228601 -0.067944 138 138 138
-0.313783 -0.231686 -0.067193 138 138 138
-0.311818 -0.234754 -0.066527 138 138 138
-0.309850 -0.237827 -0.065860 138 138 138
-0.307899 -0.240902 -0.065199 138 138 138
-0.306280 -0.243951 -0.064650 138 138 138
-0.304331 -0.247035 -0.063989 138 138 138
-0.302096 -0.250149 -0.063231 138 138 138
-0.300381 -0.253219 -0.062650 138 138 138
-0.298388 -0.256319 -0.061974 138 138 138
-0.296394 -0.259424 -0.061298 138 138 138
-0.294258 -0.262546 -0.060574 138 138 138
-0.292546 -0.265632 -0.059993 138 138 138
-0.290791 -0.268725 -0.059398 138 138 138
-0.289034 -0.271823 -0.058803 138 138 138
-0.287275 -0.274925 -0.058206 138 138 138
-0.285865 -0.277994 -0.057728 138 138 138
-0.284355 -0.281077 -0.057216 138 138 138
-0.282844 -0.284163 -0.056704 138 138 138
-0.281387 -0.287247 -0.056210 138 138 138
-0.279866 -0.290341 -0.055694 138 138 138
-0.278313 -0.293442 -0.055168 138 138 138
-0.276691 -0.296553 -0.054618 138 138 138
-0.274930 -0.299684 -0.054021 138 138 138
-0.272866 -0.302851 -0.053321 138 138 138
-0.270800 -0.306024 -0.052621 138 138 138
-0.268558 -0.309221 -0.051861 138 138 138
-0.266063 -0.312452 -0.051015 138 138 138
-0.263486 -0.315698 -0.050141 138 138 138
-0.260862 -0.318955 -0.049252 138 138 138
-0.257215 -0.322338 -0.048015 138 138 138
-0.254119 -0.325663 -0.046965 138 138 138
-0.251406 -0.328949 -0.046046 138 138 138
-0.247776 -0.332352 -0.044815 138 138 138
-0.244475 -0.335723 -0.043696 138 138 138
-0.241419 -0.339070 -0.042660 138 138 138
-0.238919 -0.342355 -0.041812 138 138 138
-0.236465 -0.345640 -0.040980 138 138 138
-0.234091 -0.348920 -0.040175 138 138 138
-0.231713 -0.352206 -0.039369 138 138 138
-0.229310 -0.355500 -0.038554 138 138 138
-0.226669 -0.358830 -0.037659 138 138 138
-0.224010 -0.362168 -0.036758 138 138 138
-0.221346 -0.365512 -0.035854 138 138 138
-0.219385 -0.368769 -0.035189 138 138 138
-0.217784 -0.371982 -0.034647 138 138 138
-0.216182 -0.375198 -0.034104 138 138 138
-0.214794 -0.378389 -0.033633 138 138 138
-0.213497 -0.381570 -0.033193 138 138 138
-0.212441 -0.384720 -0.032835 138 138 138
-0.211627 -0.387840 -0.032559 138 138 138
-0.210740 -0.390971 -0.032259 138 138 138
-0.209565 -0.394145 -0.031860 138 138 138
-0.208373 -0.397323 -0.031456 138 138 138
-0.206688 -0.400576 -0.030885 138 138 138
-0.203857 -0.403998 -0.029925 138 138 138
-0.200522 -0.407499 -0.028794 138 138 138
-0.195964 -0.411188 -0.027249 138 138 138
-0.184487 -0.415911 -0.023358 138 138 138
-0.165601 -0.421764 -0.016955 138 138 138
-0.150745 -0.427053 -0.011919 138 138 138
-0.133313 -0.432764 -0.006008 138 138 138
-0.078042 -0.444280 0.012730 138 138 138
-0.065685 -0.449327 0.016920 100 100 100
-0.009148 0.428831 0.032683 100 100 100
-0.020068 0.424049 0.028993 138 138 138
-0.090556 0.410858 0.005176 138 138 138
-0.102211 0.406084 0.001238 138 138 138
-0.109410 0.401957 -0.001195 138 138 138
-0.116327 0.397884 -0.003532 138 138 138
-0.122845 0.393881 -0.005734 138 138 138
-0.133876 0.389277 -0.009462 138 138 138
-0.146546 0.384476 -0.013743 138 138 138
-0.161745 0.379364 -0.018878 138 138 138
-0.170154 0.375187 -0.021720 138 138 138
-0.176239 0.371334 -0.023776 138 138 138
-0.181443 0.367610 -0.025534 138 138 138
-0.187809 0.363746 -0.027685 138 138 138
-0.194152 0.359899 -0.029828 138 138 138
-0.204417 0.355566 -0.033297 138 138 138
-0.227749 0.349603 -0.041180 138 138 138
-0.236887 0.345469 -0.044268 138 138 138
-0.243810 0.341631 -0.046607 138 138 138
-0.247286 0.338232 -0.047782 138 138 138
-0.248970 0.335059 -0.048351 138 138 138
-0.251407 0.331799 -0.049174 138 138 138
-0.253695 0.328562 -0.049947 138 138 138
-0.255255 0.325417 -0.050474 138 138 138
-0.256946 0.322259 -0.051046 138 138 138
-0.261205 0.318806 -0.052485 138 138 138
-0.265532 0.315353 -0.053947 138 138 138
-0.269767 0.311921 -0.055378 138 138 138
-0.275148 0.308368 -0.057196 138 138 138
-0.278683 0.305034 -0.058390 138 138 138
-0.282418 0.301685 -0.059652 138 138 138
-0.286143 0.298345 -0.060911 138 138 138
-0.288718 0.295139 -0.061781 138 138 138
-0.290774 0.291995 -0.062476 138 138 138
-0.292555 0.288884 -0.063078 138 138 138
-0.294540 0.285756 -0.063748 138 138 138
-0.296376 0.282648 -0.064369 138 138 138
-0.297315 0.279636 -0.064686 138 138 138
-0.298021 0.276651 -0.064925 138 138 138
-0.298714 0.273669 -0.065159 138 138 138
-0.299407 0.270688 -0.065393 138 138 138
-0.299933 0.267725 -0.065570 138 138 138
-0.300571 0.264752 -0.065786 138 138 138
-0.301279 0.261774 -0.066025 138 138 138
-0.301766 0.258818 -0.066190 138 138 138
-0.302155 0.255873 -0.066321 138 138 138
-0.302517 0.252931 -0.066444 138 138 138
-0.303047 0.249975 -0.066623 138 138 138
-0.303716 0.247007 -0.066849 138 138 138
-0.304331 0.244045 -0.067056 138 138 138
-0.305091 0.241072 -0.067313 138 138 138
-0.306012 0.238085 -0.067624 138 138 138
-0.306858 0.235108 -0.067910 138 138 138
-0.307829 0.232121 -0.068239 138 138 138
-0.308844 0.229133 -0.068581 138 138 138
-0.309865 0.226147 -0.068927 138 138 138
-0.311007 0.223152 -0.069312 138 138 138
-0.312330 0.220146 -0.069759 138 138 138
-0.313642 0.217143 -0.070203 138 138 138
-0.314656 0.214166 -0.070545 138 138 138
-0.315604 0.211197 -0.070866 138 138 138
-0.316422 0.208241 -0.071142 138 138 138
-0.317003 0.205304 -0.071338 138 138 138
-0.317510 0.202374 -0.071509 138 138 138
-0.318016 0.199445 -0.071681 138 138 138
-0.318559 0.196515 -0.071864 138 138 138
-0.319108 0.193585 -0.072049 138 138 138
-0.319582 0.190662 -0.072210 138 138 138
-0.320051 0.187740 -0.072368 138 138 138
-0.320415 0.184827 -0.072491 138 138 138
-0.320780 0.181914 -0.072614 138 138 138
-0.321048 0.179008 -0.072705 138 138 138
-0.321161 0.176114 -0.072743 138 138 138
-0.321522 0.173203 -0.072865 138 138 138
-0.321713 0.170304 -0.072930 138 138 138
-0.321739 0.167416 -0.072939 138 138 138
-0.321810 0.164525 -0.072963 138 138 138
-0.322101 0.161621 -0.073061 138 138 138
-0.322392 0.158718 -0.073159 138 138 138
-0.322683 0.155815 -0.073258 138 138 138
-0.322992 0.152912 -0.073362 138 138 138
-0.323464 0.150000 -0.073522 138 138 138
-0.323936 0.147090 -0.073681 138 138 138
-0.324426 0.144179 -0.073846 138 138 138
-0.325044 0.141263 -0.074055 138 138 138
-0.326266 0.138316 -0.074468 138 138 138
-0.327977 0.135348 -0.075046 138 138 138
-0.329309 0.132402 -0.075496 138 138 138
-0.330583 0.129462 -0.075927 138 138 138
-0.332339 0.126501 -0.076520 138 138 138
-0.334036 0.123547 -0.077094 138 138 138
-0.335882 0.120590 -0.077717 138 138 138
-0.337402 0.117652 -0.078231 138 138 138
-0.339044 0.114711 -0.078786 138 138 138
-0.340554 0.111780 -0.079296 138 138 138
-0.341960 0.108856 -0.079771 138 138 138
-0.343037 0.105948 -0.080135 138 138 138
-0.344055 0.103045 -0.080479 138 138 138
-0.344757 0.100156 -0.080716 138 138 138
-0.345699 0.097260 -0.081035 138 138 138
-0.346605 0.094367 -0.081340 138 138 138
-0.347136 0.091489 -0.081520 138 138 138
-0.347667 0.088612 -0.081699 138 138 138
-0.348197 0.085737 -0.081879 138 138 138
-0.348711 0.082863 -0.082052 138 138 138
-0.349131 0.079993 -0.082194 138 138 138
-0.349612 0.077122 -0.082357 138 138 138
-0.350221 0.074248 -0.082562 138 138 138
-0.350991 0.071372 -0.082823 138 138 138
-0.351840 0.068495 -0.083109 138 138 138
-0.352685 0.065620 -0.083395 138 138 138
-0.353530 0.062747 -0.083681 138 138 138
-0.354455 0.059874 -0.083993 138 138 138
-0.355297 0.057004 -0.084277 138 138 138
-0.356017 0.054139 -0.084521 138 138 138
-0.356735 0.051276 -0.084763 138 138 138
-0.357479 0.048414 -0.085015 138 138 138
-0.358137 0.045554 -0.085237 138 138 138
-0.358717 0.042698 -0.085433 138 138 138
-0.359192 0.039844 -0.085593 138 138 138
-0.359709 0.036991 -0.085768 138 138 138
-0.360032 0.034141 -0.085877 138 138 138
-0.360264 0.031293 -0.085956 138 138 138
-0.360475 0.028446 -0.086027 138 138 138
-0.360658 0.025600 -0.086089 138 138 138
-0.360784 0.022754 -0.086132 138 138 138
-0.360882 0.019909 -0.086165 138 138 138
-0.360980 0.017064 -0.086198 138 138 138
-0.361098 0.014220 -0.086238 138 138 138
-0.361147 0.011376 -0.086254 138 138 138
-0.361138 0.008532 -0.086251 138 138 138
-0.361184 0.005688 -0.086267 138 138 138
-0.361282 0.002844 -0.086300 138 138 138
-0.361366 0.000000 -0.086328 138 138 138
-0.361502 -0.002844 -0.086374 138 138 138
-0.361654 -0.005687 -0.086425 138 138 138
-0.361807 -0.008530 -0.086477 138 138 138
-0.361997 -0.011372 -0.086541 138 138 138
-0.362082 -0.014214 -0.086570 138 138 138
-0.362135 -0.017057 -0.086588 138 138 138
-0.362188 -0.019899 -0.086606 138 138 138
-0.362234 -0.022742 -0.086621 138 138 138
-0.362130 -0.025586 -0.086586 138 138 138
-0.362162 -0.028428 -0.086597 138 138 138
-0.362245 -0.031270 -0.086625 138 138 138
-0.362338 -0.034111 -0.086657 138 138 138
-0.362459 -0.036952 -0.086697 138 138 138
-0.362581 -0.039793 -0.086739 138 138 138
-0.362827 -0.042631 -0.086822 138 138 138
-0.363074 -0.045469 -0.086905 138 138 138
-0.363321 -0.048306 -0.086989 138 138 138
-0.363567 -0.051143 -0.087072 138 138 138
-0.363814 -0.053979 -0.087155 138 138 138
-0.364083 -0.056815 -0.087246 138 138 138
-0.364845 -0.059638 -0.087504 138 138 138
-0.365634 -0.062459 -0.087770 138 138 138
-0.366423 -0.065279 -0.088037 138 138 138
-0.367211 -0.068096 -0.088303 138 138 138
-0.368412 -0.070901 -0.088709 138 138 138
-0.369649 -0.073702 -0.089127 138 138 138
-0.370790 -0.076504 -0.089512 138 138 138
-0.371934 -0.079303 -0.089899 138 138 138
-0.373316 -0.082092 -0.090366 138 138 138
-0.374636 -0.084880 -0.090812 138 138 138
-0.375889 -0.087667 -0.091235 138 138 138
-0.377091 -0.090453 -0.091642 138 138 138
-0.378177 -0.093241 -0.092008 138 138 138
-0.379259 -0.096027 -0.092374 138 138 138
-0.380305 -0.098812 -0.092728 138 138 138
-0.381349 -0.101594 -0.093080 138 138 138
-0.382268 -0.104380 -0.093391 138 138 138
-0.382882 -0.107176 -0.093598 138 138 138
-0.383495 -0.109970 -0.093805 138 138 138
-0.384101 -0.112764 -0.094010 138 138 138
-0.384482 -0.115566 -0.094139 138 138 138
-0.383866 -0.118413 -0.093931 138 138 138
-0.383191 -0.121263 -0.093703 138 138 138
-0.382515 -0.124115 -0.093474 138 138 138
-0.381475 -0.126987 -0.093123 138 138 138
-0.378939 -0.129935 -0.092266 138 138 138
-0.374648 -0.132977 -0.090816 138 138 138
-0.367239 -0.136191 -0.088313 138 138 138
-0.359812 -0.139422 -0.085803 138 138 138
-0.355079 -0.142523 -0.084204 138 138 138
-0.353082 -0.145483 -0.083529 138 138 138
-0.351242 -0.148439 -0.082907 138 138 138
-0.349512 -0.151393 -0.082323 138 138 138
-0.348574 -0.154304 -0.082006 138 138 138
-0.347904 -0.157202 -0.081779 138 138 138
-0.347234 -0.160100 -0.081553 138 138 138
-0.347178 -0.162963 -0.081534 138 138 138
-0.346850 -0.165842 -0.081423 138 138 138
-0.346336 -0.168734 -0.081250 138 138 138
-0.345876 -0.171624 -0.081094 138 138 138
-0.345218 -0.174528 -0.080872 138 138 138
-0.344507 -0.177437 -0.080632 138 138 138
-0.343796 -0.180347 -0.080391 138 138 138
-0.343046 -0.183261 -0.080138 138 138 138
-0.341863 -0.186208 -0.079738 138 138 138
-0.340651 -0.189159 -0.079329 138 138 138
-0.339429 -0.192114 -0.078916 138 138 138
-0.337816 -0.195100 -0.078371 138 138 138
-0.335869 -0.198114 -0.077713 138 138 138
-0.333896 -0.201134 -0.077046 138 138 138
-0.331911 -0.204160 -0.076375 138 138 138
-0.329766 -0.207202 -0.075651 138 138 138
-0.327614 -0.210250 -0.074924 138 138 138
-0.325446 -0.213303 -0.074191 138 138 138
-0.323265 -0.216363 -0.073454 138 138 138
-0.321046 -0.219430 -0.072704 138 138 138
-0.318629 -0.222518 -0.071888 138 138 138
-0.316207 -0.225612 -0.071069 138 138 138
-0.313670 -0.228721 -0.070212 138 138 138
-0.311436 -0.231810 -0.069457 138 138 138
-0.309752 -0.234855 -0.068888 138 138 138
-0.307782 -0.237929 -0.068222 138 138 138
-0.305939 -0.240995 -0.067600 138 138 138
-0.304290 -0.244049 -0.067043 138 138 138
-0.302619 -0.247108 -0.066478 138 138 138
-0.300494 -0.250212 -0.065760 138 138 138
-0.298689 -0.253291 -0.065150 138 138 138
-0.296695 -0.256392 -0.064477 138 138 138
-0.294698 -0.259498 -0.063802 138 138 138
-0.292640 -0.262614 -0.063106 138 138 138
-0.290671 -0.265725 -0.062441 138 138 138
-0.288743 -0.268837 -0.061789 138 138 138
-0.286774 -0.271957 -0.061124 138 138 138
-0.284853 -0.275077 -0.060475 138 138 138
-0.283219 -0.278171 -0.059923 138 138 138
-0.281707 -0.281256 -0.059412 138 138 138
-0.280195 -0.284344 -0.058901 138 138 138
-0.278547 -0.287450 -0.058345 138 138 138
-0.276996 -0.290549 -0.057820 138 138 138
-0.275346 -0.293662 -0.057263 138 138 138
-0.273688 -0.296780 -0.056702 138 138 138
-0.272010 -0.299903 -0.056136 138 138 138
-0.270052 -0.303061 -0.055474 138 138 138
-0.267947 -0.306240 -0.054763 138 138 138
-0.265722 -0.309437 -0.054011 138 138 138
-0.263111 -0.312683 -0.053129 138 138 138
-0.260522 -0.315933 -0.052254 138 138 138
-0.257979 -0.319182 -0.051395 138 138 138
-0.254847 -0.322506 -0.050336 138 138 138
-0.252129 -0.325788 -0.049418 138 138 138
-0.249414 -0.329076 -0.048501 138 138 138
-0.246993 -0.332333 -0.047683 138 138 138
-0.243968 -0.335670 -0.046661 138 138 138
-0.240911 -0.339017 -0.045628 138 138 138
-0.238443 -0.342298 -0.044794 138 138 138
-0.235741 -0.345613 -0.043881 138 138 138
-0.233270 -0.348905 -0.043046 138 138 138
-0.230794 -0.352203 -0.042209 138 138 138
-0.228253 -0.355514 -0.041351 138 138 138
-0.225787 -0.358821 -0.040517 138 138 138
-0.223259 -0.362142 -0.039663 138 138 138
-0.220625 -0.365482 -0.038773 138 138 138
-0.218981 -0.368697 -0.038218 138 138 138
-0.217341 -0.371914 -0.037664 138 138 138
-0.215819 -0.375119 -0.037149 138 138 138
-0.214584 -0.378288 -0.036732 138 138 138
-0.213287 -0.381468 -0.036294 138 138 138
-0.211989 -0.384651 -0.035855 138 138 138
-0.211032 -0.387790 -0.035532 138 138 138
-0.209869 -0.390959 -0.035139 138 138 138
-0.208676 -0.394136 -0.034736 138 138 138
-0.207078 -0.397372 -0.034196 138 138 138
-0.204742 -0.400718 -0.033407 138 138 138
-0.201770 -0.404162 -0.032402 138 138 138
-0.196881 -0.407891 -0.030750 138 138 138
-0.190619 -0.411833 -0.028634 138 138 138
-0.177183 -0.416850 -0.024094 138 138 138
-0.160647 -0.422359 -0.018507 138 138 138
-0.147944 -0.427328 -0.014215 138 138 138
-0.082144 -0.440357 0.008018 138 138 138
-0.068729 -0.445547 0.012551 138 138 138
-0.012305 0.428231 0.028218 138 138 138
-0.020101 0.423900 0.025592 138 138 138
-0.087882 0.411096 0.002767 138 138 138
-0.100139 0.406236 -0.001361 138 138 138
-0.107440 0.402094 -0.003819 138 138 138
-0.114449 0.398008 -0.006179 138 138 138
-0.122138 0.393843 -0.008769 138 138 138
-0.135371 0.388941 -0.013225 138 138 138
-0.151921 0.383619 -0.018798 138 138 138
-0.163860 0.378951 -0.022819 138 138 138
-0.170145 0.375060 -0.024935 138 138 138
-0.176030 0.371235 -0.026917 138 138 138
-0.180934 0.367551 -0.028568 138 138 138
-0.186976 0.363730 -0.030603 138 138 138
-0.193487 0.359862 -0.032796 138 138 138
-0.205097 0.355358 -0.036705 138 138 138
-0.227661 0.349494 -0.044304 138 138 138
-0.235724 0.345497 -0.047019 138 138 138
-0.241870 0.341755 -0.049089 138 138 138
-0.244121 0.338506 -0.049846 138 138 138
-0.245764 0.335336 -0.050400 138 138 138
-0.247760 0.332127 -0.051072 138 138 138
-0.249617 0.328939 -0.051697 138 138 138
-0.250840 0.325830 -0.052109 138 138 138
-0.252062 0.322724 -0.052521 138 138 138
-0.253448 0.319602 -0.052987 138 138 138
-0.257058 0.316225 -0.054203 138 138 138
-0.261268 0.312788 -0.055621 138 138 138
-0.266516 0.309241 -0.057388 138 138 138
-0.272133 0.305665 -0.059280 138 138 138
-0.278190 0.302052 -0.061319 138 138 138
-0.281935 0.298707 -0.062580 138 138 138
-0.285323 0.295409 -0.063721 138 138 138
-0.287615 0.292236 -0.064493 138 138 138
-0.289394 0.289124 -0.065092 138 138 138
-0.291275 0.286004 -0.065726 138 138 138
-0.293243 0.282880 -0.066388 138 138 138
-0.294283 0.279855 -0.066738 138 138 138
-0.295302 0.276836 -0.067081 138 138 138
-0.295995 0.273851 -0.067315 138 138 138
-0.296661 0.270871 -0.067539 138 138 138
-0.297136 0.267911 -0.067699 138 138 138
-0.297635 0.264950 -0.067867 138 138 138
-0.298344 0.261970 -0.068106 138 138 138
-0.299056 0.258990 -0.068346 138 138 138
-0.299736 0.256016 -0.068575 138 138 138
-0.300339 0.253050 -0.068778 138 138 138
-0.300702 0.250107 -0.068900 138 138 138
-0.301330 0.247142 -0.069112 138 138 138
-0.301904 0.244182 -0.069305 138 138 138
-0.302501 0.241221 -0.069506 138 138 138
-0.303423 0.238233 -0.069817 138 138 138
-0.304421 0.235241 -0.070152 138 138 138
-0.305574 0.232237 -0.070541 138 138 138
-0.306621 0.229245 -0.070893 138 138 138
-0.307636 0.226257 -0.071235 138 138 138
-0.308840 0.223256 -0.071641 138 138 138
-0.310165 0.220248 -0.072087 138 138 138
-0.311489 0.217243 -0.072532 138 138 138
-0.312810 0.214241 -0.072978 138 138 138
-0.313873 0.211262 -0.073335 138 138 138
-0.314691 0.208304 -0.073611 138 138 138
-0.315433 0.205354 -0.073861 138 138 138
-0.315940 0.202423 -0.074032 138 138 138
-0.316457 0.199493 -0.074206 138 138 138
-0.317034 0.196560 -0.074400 138 138 138
-0.317611 0.193627 -0.074594 138 138 138
-0.318187 0.190696 -0.074788 138 138 138
-0.318760 0.187767 -0.074981 138 138 138
-0.319213 0.184847 -0.075134 138 138 138
-0.319426 0.181944 -0.075205 138 138 138
-0.319690 0.179038 -0.075294 138 138 138
-0.319993 0.176130 -0.075396 138 138 138
-0.320353 0.173220 -0.075517 138 138 138
-0.320712 0.170310 -0.075639 138 138 138
-0.320802 0.167418 -0.075669 138 138 138
-0.320977 0.164520 -0.075728 138 138 138
-0.321185 0.161621 -0.075798 138 138 138
-0.321209 0.158734 -0.075806 138 138 138
-0.321500 0.155831 -0.075904 138 138 138
-0.321889 0.152923 -0.076035 138 138 138
-0.322394 0.150009 -0.076205 138 138 138
-0.322962 0.147093 -0.076396 138 138 138
-0.323530 0.144178 -0.076587 138 138 138
-0.324302 0.141254 -0.076847 138 138 138
-0.325262 0.138321 -0.077171 138 138 138
-0.326566 0.135373 -0.077610 138 138 138
-0.328086 0.132418 -0.078122 138 138 138
-0.329602 0.129465 -0.078632 138 138 138
-0.331357 0.126505 -0.079223 138 138 138
-0.333100 0.123549 -0.079810 138 138 138
-0.334754 0.120600 -0.080367 138 138 138
-0.336546 0.117650 -0.080970 138 138 138
-0.338106 0.114713 -0.081496 138 138 138
-0.339617 0.111781 -0.082005 138 138 138
-0.341126 0.108853 -0.082513 138 138 138
-0.342423 0.105937 -0.082950 138 138 138
-0.343503 0.103032 -0.083313 138 138 138
-0.344440 0.100134 -0.083629 138 138 138
-0.345377 0.097239 -0.083944 138 138 138
-0.346128 0.094352 -0.084197 138 138 138
-0.346729 0.091472 -0.084400 138 138 138
-0.347290 0.088595 -0.084589 138 138 138
-0.347835 0.085719 -0.084772 138 138 138
-0.348300 0.082847 -0.084929 138 138 138
-0.348681 0.079979 -0.085057 138 138 138
-0.349160 0.077109 -0.085218 138 138 138
-0.349824 0.074234 -0.085442 138 138 138
-0.350609 0.071358 -0.085706 138 138 138
-0.351455 0.068482 -0.085991 138 138 138
-0.352301 0.065607 -0.086276 138 138 138
-0.353036 0.062737 -0.086524 138 138 138
-0.353756 0.059869 -0.086766 138 138 138
-0.354465 0.057003 -0.087005 138 138 138
-0.355183 0.054138 -0.087247 138 138 138
-0.355901 0.051275 -0.087488 138 138 138
-0.356672 0.048412 -0.087748 138 138 138
-0.357293 0.045553 -0.087957 138 138 138
-0.357913 0.042696 -0.088166 138 138 138
-0.358425 0.039842 -0.088338 138 138 138
-0.358866 0.036990 -0.088487 138 138 138
-0.359032 0.034143 -0.088543 138 138 138
-0.359246 0.031295 -0.088615 138 138 138
-0.359476 0.028447 -0.088692 138 138 138
-0.359653 0.025601 -0.088752 138 138 138
-0.359751 0.022755 -0.088785 138 138 138
-0.359869 0.019910 -0.088824 138 138 138
-0.360063 0.017065 -0.088890 138 138 138
-0.360257 0.014219 -0.088955 138 138 138
-0.360201 0.011376 -0.088936 138 138 138
-0.360143 0.008532 -0.088917 138 138 138
-0.360085 0.005688 -0.088897 138 138 138
-0.360028 0.002844 -0.088878 138 138 138
-0.360086 0.000000 -0.088898 138 138 138
-0.360239 -0.002844 -0.088949 138 138 138
-0.360392 -0.005687 -0.089001 138 138 138
-0.360545 -0.008531 -0.089052 138 138 138
-0.360773 -0.011373 -0.089129 138 138 138
-0.360835 -0.014216 -0.089150 138 138 138
-0.360888 -0.017059 -0.089168 138 138 138
-0.360984 -0.019902 -0.089200 138 138 138
-0.361010 -0.022745 -0.089209 138 138 138
-0.360907 -0.025589 -0.089174 138 138 138
-0.360803 -0.028433 -0.089139 138 138 138
-0.360699 -0.031278 -0.089104 138 138 138
-0.360648 -0.034122 -0.089087 138 138 138
-0.360770 -0.036963 -0.089128 138 138 138
-0.360891 -0.039805 -0.089169 138 138 138
-0.361013 -0.042646 -0.089210 138 138 138
-0.361109 -0.045487 -0.089242 138 138 138
-0.361357 -0.048326 -0.089326 138 138 138
-0.361605 -0.051164 -0.089409 138 138 138
-0.361853 -0.054001 -0.089493 138 138 138
-0.362265 -0.056834 -0.089632 138 138 138
-0.362854 -0.059663 -0.089830 138 138 138
-0.363503 -0.062488 -0.090048 138 138 138
-0.364270 -0.065310 -0.090307 138 138 138
-0.365223 -0.068125 -0.090628 138 138 138
-0.366462 -0.070930 -0.091045 138 138 138
-0.367724 -0.073731 -0.091470 138 138 138
-0.368920 -0.076532 -0.091873 138 138 138
-0.370116 -0.079331 -0.092275 138 138 138
-0.371585 -0.082118 -0.092770 138 138 138
-0.372893 -0.084907 -0.093210 138 138 138
-0.374175 -0.087694 -0.093642 138 138 138
-0.375541 -0.090476 -0.094102 138 138 138
-0.376681 -0.093263 -0.094486 138 138 138
-0.377848 -0.096046 -0.094879 138 138 138
