ply
format ascii 1.0
element vertex 1154
property float x
property float y
property float z
property uchar red
property uchar green
property uchar blue
end_header
-0.420749 -0.139766 -0.028453 138 138 138
-0.419427 -0.142229 -0.028485 138 138 138
-0.418103 -0.144692 -0.028516 138 138 138
-0.415963 -0.146648 -0.028192 138 138 138
-0.413187 -0.148212 -0.027592 138 138 138
-0.410408 -0.149778 -0.026991 138 138 138
-0.407050 -0.150993 -0.026139 138 138 138
-0.402783 -0.151654 -0.024894 138 138 138
-0.397694 -0.151821 -0.023293 138 138 138
-0.389369 -0.150021 -0.020291 138 138 138
-0.384636 -0.150432 -0.018850 138 138 138
-0.381884 -0.152057 -0.018269 138 138 138
-0.380292 -0.154391 -0.018190 138 138 138
-0.379883 -0.157442 -0.018624 138 138 138
-0.379957 -0.160780 -0.019266 138 138 138
-0.380648 -0.164486 -0.020173 138 138 138
-0.380866 -0.167902 -0.020875 138 138 138
-0.380438 -0.170926 -0.021298 138 138 138
-0.379999 -0.173940 -0.021715 138 138 138
-0.379626 -0.176991 -0.022160 138 138 138
-0.378508 -0.179595 -0.022283 138 138 138
-0.377655 -0.182356 -0.022521 138 138 138
-0.376803 -0.185116 -0.022758 138 138 138
-0.375937 -0.187866 -0.022990 138 138 138
-0.374690 -0.190390 -0.023057 138 138 138
-0.373443 -0.192913 -0.023124 138 138 138
-0.372163 -0.195417 -0.023177 138 138 138
-0.370578 -0.197742 -0.023100 138 138 138
-0.368325 -0.199678 -0.022736 138 138 138
-0.366160 -0.201668 -0.022410 138 138 138
-0.364022 -0.203675 -0.022096 138 138 138
-0.362039 -0.205775 -0.021849 138 138 138
-0.360056 -0.207875 -0.021602 138 138 138
-0.357372 -0.209575 -0.021056 138 138 138
-0.354368 -0.211093 -0.020374 138 138 138
-0.351538 -0.212717 -0.019768 138 138 138
-0.349033 -0.214530 -0.019300 138 138 138
-0.346410 -0.216279 -0.018783 138 138 138
-0.344401 -0.218381 -0.018528 138 138 138
-0.342462 -0.220524 -0.018303 138 138 138
-0.340495 -0.222652 -0.018067 138 138 138
-0.338527 -0.224782 -0.017830 138 138 138
-0.336558 -0.226913 -0.017593 138 138 138
-0.334587 -0.229045 -0.017356 138 138 138
-0.332736 -0.231245 -0.017170 138 138 138
-0.330986 -0.233503 -0.017027 138 138 138
-0.329171 -0.235725 -0.016856 138 138 138
-0.327335 -0.237937 -0.016677 138 138 138
-0.325525 -0.240165 -0.016509 138 138 138
-0.323833 -0.242459 -0.016391 138 138 138
-0.322594 -0.245004 -0.016465 138 138 138
-0.321319 -0.247528 -0.016524 138 138 138
-0.319983 -0.250018 -0.016556 138 138 138
-0.319027 -0.252717 -0.016749 138 138 138
-0.318097 -0.255428 -0.016953 138 138 138
-0.316962 -0.258026 -0.017070 138 138 138
-0.315827 -0.260623 -0.017187 138 138 138
-0.314695 -0.263222 -0.017305 138 138 138
-0.313517 -0.265794 -0.017403 138 138 138
-0.312339 -0.268366 -0.017501 138 138 138
-0.311161 -0.270937 -0.017600 138 138 138
-0.310016 -0.273525 -0.017712 138 138 138
-0.308914 -0.276136 -0.017842 138 138 138
-0.307813 -0.278746 -0.017972 138 138 138
-0.306712 -0.281356 -0.018102 138 138 138
-0.305586 -0.283951 -0.018221 138 138 138
-0.304387 -0.286507 -0.018310 138 138 138
-0.303189 -0.289062 -0.018399 138 138 138
-0.301949 -0.291595 -0.018470 138 138 138
-0.300663 -0.294104 -0.018522 138 138 138
-0.299327 -0.296586 -0.018553 138 138 138
-0.297913 -0.299026 -0.018552 138 138 138
-0.296506 -0.301471 -0.018553 138 138 138
-0.295124 -0.303929 -0.018565 138 138 138
-0.293794 -0.306413 -0.018598 138 138 138
-0.292466 -0.308899 -0.018633 138 138 138
-0.291088 -0.311358 -0.018646 138 138 138
-0.289710 -0.313817 -0.018660 138 138 138
-0.288211 -0.316214 -0.018623 138 138 138
-0.286435 -0.318470 -0.018471 138 138 138
-0.284612 -0.320703 -0.018300 138 138 138
-0.282789 -0.322937 -0.018129 138 138 138
-0.280856 -0.325116 -0.017912 138 138 138
-0.278061 -0.326861 -0.017339 138 138 138
-0.275208 -0.328581 -0.016743 138 138 138
-0.272259 -0.330256 -0.016108 138 138 138
-0.269315 -0.331938 -0.015476 138 138 138
-0.266268 -0.333573 -0.014802 138 138 138
-0.263250 -0.335227 -0.014140 138 138 138
-0.260566 -0.337051 -0.013617 138 138 138
-0.258087 -0.338980 -0.013180 138 138 138
-0.255304 -0.340761 -0.012617 138 138 138
-0.252497 -0.342535 -0.012046 138 138 138
-0.249623 -0.344279 -0.011447 138 138 138
-0.247005 -0.346153 -0.010955 138 138 138
-0.244826 -0.348244 -0.010643 138 138 138
-0.242878 -0.350451 -0.010427 138 138 138
-0.240671 -0.352533 -0.010105 138 138 138
-0.238378 -0.354575 -0.009748 138 138 138
-0.235927 -0.356543 -0.009327 138 138 138
-0.233929 -0.358733 -0.009092 138 138 138
-0.231808 -0.360865 -0.008806 138 138 138
-0.229905 -0.363103 -0.008610 138 138 138
-0.228069 -0.365375 -0.008442 138 138 138
-0.226329 -0.367693 -0.008314 138 138 138
-0.224754 -0.370091 -0.008253 138 138 138
-0.223139 -0.372470 -0.008175 138 138 138
-0.221492 -0.374835 -0.008085 138 138 138
-0.219846 -0.377201 -0.007995 138 138 138
-0.218590 -0.379751 -0.008064 138 138 138
-0.217373 -0.382318 -0.008149 138 138 138
-0.216183 -0.384898 -0.008245 138 138 138
-0.215116 -0.387534 -0.008391 138 138 138
-0.214480 -0.390370 -0.008712 138 138 138
-0.213986 -0.393270 -0.009091 138 138 138
-0.213493 -0.396168 -0.009469 138 138 138
-0.212983 -0.399056 -0.009840 138 138 138
-0.212092 -0.401766 -0.010056 138 138 138
-0.211202 -0.404474 -0.010272 138 138 138
-0.210176 -0.407120 -0.010433 138 138 138
-0.208754 -0.409584 -0.010433 138 138 138
-0.206854 -0.411830 -0.010239 138 138 138
-0.204525 -0.413883 -0.009873 138 138 138
-0.202195 -0.415938 -0.009506 138 138 138
-0.199352 -0.417764 -0.008933 138 138 138
-0.195101 -0.418961 -0.007792 138 138 138
-0.190034 -0.419799 -0.006322 138 138 138
-0.184786 -0.420567 -0.004782 138 138 138
-0.180111 -0.421599 -0.003475 138 138 138
-0.175890 -0.422841 -0.002351 138 138 138
-0.172028 -0.424249 -0.001374 138 138 138
-0.168172 -0.425667 -0.000401 138 138 138
-0.164130 -0.427009 0.000647 138 138 138
-0.159962 -0.428302 0.001744 138 138 138
-0.156265 -0.429808 0.002650 138 138 138
-0.153078 -0.431544 0.003350 138 138 138
-0.149883 -0.433279 0.004053 138 138 138
-0.145669 -0.434577 0.005164 138 138 138
-0.139973 -0.435241 0.006867 138 138 138
-0.134213 -0.435888 0.008594 140 140 140
-0.128240 -0.436454 0.010403 138 138 138
-0.122262 -0.437030 0.012213 138 138 138
-0.117280 -0.438043 0.013622 138 138 138
-0.111826 -0.438865 0.015218 138 138 138
-0.106794 -0.439875 0.016645 138 138 138
-0.102278 -0.441113 0.017863 138 138 138
-0.097823 -0.442385 0.019056 138 138 138
-0.094218 -0.444023 0.019908 138 138 138
-0.090813 -0.445749 0.020680 138 138 138
-0.087350 -0.447457 0.021474 138 138 138
-0.083669 -0.449079 0.022354 138 138 138
-0.079498 -0.450502 0.023428 138 138 138
-0.075174 -0.451869 0.024561 138 138 138
-0.071077 -0.453336 0.025602 138 138 138
-0.066933 -0.454791 0.026662 138 138 138
-0.060186 -0.455182 0.028752 138 138 138
-0.053064 -0.455432 0.030989 138 138 138
-0.043557 -0.454721 0.034168 138 138 138
-0.029042 -0.451990 0.039326 139 139 139
-0.017843 -0.450639 0.043166 138 138 138
-0.010725 -0.450964 0.045387 138 138 138
-0.004361 -0.451608 0.047308 138 138 138
0.002049 -0.452246 0.049245 139 139 139
0.010186 -0.452202 0.051861 152 152 152
0.018487 -0.452110 0.054539 162 162 162
0.064731 -0.436902 0.072177 165 165 165
0.071695 -0.437421 0.074313 156 156 156
0.078212 -0.438132 0.076271 150 150 150
0.085434 -0.438576 0.078503 148 148 148
0.093054 -0.438877 0.080890 151 151 151
-0.293818 0.319466 0.093856 138 138 138
-0.297438 0.312629 0.091438 138 138 138
-0.299164 0.307298 0.089903 138 138 138
-0.301190 0.301744 0.088231 138 138 138
-0.304727 0.295020 0.085860 138 138 138
-0.357313 0.249978 0.060747 138 138 138
-0.361608 0.242782 0.058047 138 138 138
-0.363510 0.237468 0.056459 138 138 138
-0.364276 0.233047 0.055398 138 138 138
-0.364866 0.228770 0.054421 138 138 138
-0.365358 0.224577 0.053490 138 138 138
-0.365383 0.220751 0.052776 138 138 138
-0.365341 0.216981 0.052094 138 138 138
-0.365269 0.213240 0.051427 138 138 138
-0.365165 0.209527 0.050775 138 138 138
-0.365031 0.205844 0.050139 138 138 138
-0.364884 0.202174 0.049508 138 138 138
-0.364720 0.198522 0.048887 138 138 138
-0.364693 0.194770 0.048203 138 138 138
-0.364848 0.190885 0.047437 138 138 138
-0.365254 0.186817 0.046557 138 138 138
-0.365643 0.182768 0.045686 138 138 138
-0.366007 0.178744 0.044827 138 138 138
-0.366342 0.174748 0.043983 138 138 138
-0.366659 0.170772 0.043148 138 138 138
-0.366995 0.166787 0.042305 138 138 138
-0.367342 0.162801 0.041459 138 138 138
-0.367764 0.158765 0.040580 138 138 138
-0.368314 0.154641 0.039643 138 138 138
-0.368845 0.150537 0.038717 138 138 138
-0.370183 0.145844 0.037423 138 138 138
-0.371808 0.140948 0.036001 138 138 138
-0.373990 0.135652 0.034326 138 138 138
-0.377458 0.129425 0.032069 138 138 138
-0.381050 0.123124 0.029759 138 138 138
-0.383914 0.117371 0.027782 138 138 138
-0.386141 0.112098 0.026098 138 138 138
-0.388276 0.106903 0.024457 138 138 138
-0.389914 0.102081 0.023045 138 138 138
-0.391080 0.097611 0.021847 138 138 138
-0.391846 0.093439 0.020833 138 138 138
-0.392416 0.089416 0.019909 138 138 138
-0.392984 0.085401 0.018986 138 138 138
-0.393453 0.081464 0.018110 138 138 138
-0.393858 0.077578 0.017264 138 138 138
-0.394263 0.073700 0.016419 138 138 138
-0.394698 0.069805 0.015561 138 138 138
-0.395159 0.065898 0.014693 138 138 138
-0.395842 0.061840 0.013726 138 138 138
-0.396814 0.057585 0.012631 138 138 138
-0.397811 0.053320 0.011525 138 138 138
-0.398814 0.049058 0.010418 138 138 138
-0.399651 0.044921 0.009388 138 138 138
-0.400590 0.040720 0.008313 138 138 138
-0.401322 0.036671 0.007332 138 138 138
-0.401877 0.032754 0.006432 138 138 138
-0.402432 0.028842 0.005533 138 138 138
-0.403000 0.024929 0.004629 138 138 138
-0.403528 0.021049 0.003745 138 138 138
-0.403963 0.017240 0.002903 138 138 138
-0.404279 0.013519 0.002115 138 138 138
-0.404550 0.009835 0.001349 138 138 138
-0.404706 0.006235 0.000635 138 138 138
-0.404646 0.002788 0.000018 138 138 138
-0.404563 -0.000638 -0.000587 138 138 138
-0.404355 -0.003975 -0.001136 138 138 138
-0.403822 -0.007087 -0.001540 138 138 138
-0.403347 -0.010235 -0.001969 138 138 138
-0.402894 -0.013395 -0.002407 138 138 138
-0.402463 -0.016567 -0.002854 138 138 138
-0.402049 -0.019748 -0.003309 138 138 138
-0.401636 -0.022925 -0.003763 138 138 138
-0.401210 -0.026090 -0.004211 138 138 138
-0.400756 -0.029234 -0.004646 138 138 138
-0.400338 -0.032399 -0.005096 138 138 138
-0.399920 -0.035561 -0.005546 138 138 138
-0.399652 -0.038818 -0.006061 138 138 138
-0.399401 -0.042084 -0.006584 138 138 138
-0.399153 -0.045348 -0.007107 138 138 138
-0.399138 -0.048762 -0.007732 138 138 138
-0.399291 -0.052282 -0.008430 138 138 138
-0.399463 -0.055810 -0.009136 138 138 138
-0.399556 -0.059281 -0.009806 138 138 138
-0.399584 -0.062705 -0.010447 138 138 138
-0.399679 -0.066168 -0.011116 138 138 138
-0.399807 -0.069648 -0.011799 138 138 138
-0.399872 -0.073082 -0.012453 138 138 138
-0.400161 -0.076657 -0.013205 138 138 138
-0.400428 -0.080212 -0.013946 138 138 138
-0.400819 -0.083841 -0.014740 138 138 138
-0.401407 -0.087592 -0.015621 138 138 138
-0.402168 -0.091448 -0.016575 138 138 138
-0.403426 -0.095615 -0.017746 138 138 138
-0.404885 -0.099903 -0.019003 138 138 138
-0.407981 -0.105224 -0.020974 138 138 138
-0.411422 -0.110751 -0.023093 138 138 138
-0.414772 -0.116205 -0.025170 138 138 138
-0.417314 -0.121134 -0.026892 138 138 138
-0.419005 -0.125514 -0.028240 138 138 138
-0.419900 -0.129383 -0.029240 138 138 138
-0.420214 -0.132881 -0.029985 138 138 138
-0.419931 -0.135999 -0.030470 138 138 138
-0.419164 -0.138812 -0.030744 138 138 138
-0.417871 -0.141295 -0.030789 138 138 138
-0.416434 -0.143688 -0.030771 138 138 138
-0.414194 -0.145583 -0.030405 138 138 138
-0.411311 -0.147082 -0.029760 138 138 138
-0.408424 -0.148584 -0.029115 138 138 138
-0.405621 -0.150142 -0.028507 138 138 138
-0.400880 -0.150514 -0.027060 138 138 138
-0.395238 -0.150344 -0.025226 138 138 138
-0.388301 -0.149394 -0.022834 138 138 138
-0.385555 -0.151017 -0.022256 138 138 138
-0.382805 -0.152641 -0.021677 138 138 138
-0.379846 -0.154143 -0.021009 138 138 138
-0.379193 -0.157045 -0.021336 138 138 138
-0.378880 -0.160150 -0.021808 138 138 138
-0.378857 -0.163427 -0.022406 138 138 138
-0.378856 -0.166713 -0.023011 138 138 138
-0.378542 -0.169807 -0.023482 138 138 138
-0.378245 -0.172907 -0.023959 138 138 138
-0.377936 -0.175997 -0.024430 138 138 138
-0.377082 -0.178761 -0.024667 138 138 138
-0.376230 -0.181523 -0.024904 138 138 138
-0.375423 -0.184310 -0.025161 138 138 138
-0.374763 -0.187183 -0.025480 138 138 138
-0.373393 -0.189635 -0.025494 138 138 138
-0.372087 -0.192125 -0.025537 138 138 138
-0.370782 -0.194614 -0.025579 138 138 138
-0.369346 -0.197027 -0.025565 138 138 138
-0.367328 -0.199101 -0.025303 138 138 138
-0.365171 -0.201096 -0.024982 138 138 138
-0.363052 -0.203115 -0.024677 138 138 138
-0.361069 -0.205214 -0.024431 138 138 138
-0.359308 -0.207444 -0.024279 138 138 138
-0.357186 -0.209466 -0.023974 138 138 138
-0.354455 -0.211141 -0.023411 138 138 138
-0.351997 -0.212977 -0.022964 138 138 138
-0.349526 -0.214807 -0.022512 138 138 138
-0.346905 -0.216555 -0.021997 138 138 138
-0.344263 -0.218295 -0.021474 138 138 138
-0.342125 -0.220325 -0.021165 138 138 138
-0.340172 -0.222461 -0.020935 138 138 138
-0.338219 -0.224598 -0.020705 138 138 138
-0.336264 -0.226737 -0.020475 138 138 138
-0.333523 -0.228435 -0.019912 138 138 138
-0.331149 -0.230343 -0.019506 138 138 138
-0.329299 -0.232546 -0.019321 138 138 138
-0.327463 -0.234758 -0.019142 138 138 138
-0.325625 -0.236970 -0.018964 138 138 138
-0.323852 -0.239220 -0.018812 138 138 138
-0.322344 -0.241617 -0.018772 138 138 138
-0.321104 -0.244162 -0.018846 138 138 138
-0.319865 -0.246707 -0.018919 138 138 138
-0.318612 -0.249244 -0.018987 138 138 138
-0.317734 -0.251986 -0.019212 138 138 138
-0.316964 -0.254785 -0.019483 138 138 138
-0.315876 -0.257409 -0.019619 138 138 138
-0.314761 -0.260018 -0.019744 138 138 138
-0.313608 -0.262605 -0.019853 138 138 138
-0.312429 -0.265178 -0.019951 138 138 138
-0.311258 -0.267754 -0.020052 138 138 138
-0.310130 -0.270352 -0.020170 138 138 138
-0.309045 -0.272973 -0.020308 138 138 138
-0.307978 -0.275603 -0.020452 138 138 138
-0.306881 -0.278215 -0.020583 138 138 138
-0.305780 -0.280825 -0.020713 138 138 138
-0.304639 -0.283412 -0.020825 138 138 138
-0.303440 -0.285968 -0.020914 138 138 138
-0.302241 -0.288523 -0.021002 138 138 138
-0.301042 -0.291079 -0.021090 138 138 138
-0.299756 -0.293587 -0.021142 138 138 138
-0.298428 -0.296074 -0.021177 138 138 138
-0.297109 -0.298564 -0.021215 138 138 138
-0.295701 -0.301008 -0.021216 138 138 138
-0.294277 -0.303444 -0.021210 138 138 138
-0.292859 -0.305883 -0.021207 138 138 138
-0.291481 -0.308343 -0.021220 138 138 138
-0.290103 -0.310803 -0.021234 138 138 138
-0.288726 -0.313262 -0.021247 138 138 138
-0.287168 -0.315629 -0.021186 138 138 138
-0.285516 -0.317949 -0.021086 138 138 138
-0.283771 -0.320222 -0.020948 138 138 138
-0.281948 -0.322456 -0.020778 138 138 138
-0.279839 -0.324546 -0.020490 138 138 138
-0.276988 -0.326264 -0.019895 138 138 138
-0.274134 -0.327983 -0.019301 138 138 138
-0.271254 -0.329693 -0.018696 138 138 138
-0.268271 -0.331356 -0.018049 138 138 138
-0.265284 -0.333021 -0.017402 138 138 138
-0.262298 -0.334691 -0.016756 138 138 138
-0.259340 -0.336379 -0.016122 138 138 138
-0.256718 -0.338238 -0.015627 138 138 138
-0.253887 -0.339996 -0.015047 138 138 138
-0.251000 -0.341731 -0.014445 138 138 138
-0.248109 -0.343468 -0.013841 138 138 138
-0.245491 -0.345343 -0.013351 138 138 138
-0.243543 -0.347548 -0.013135 138 138 138
-0.241577 -0.349747 -0.012912 138 138 138
-0.239285 -0.351788 -0.012556 138 138 138
-0.236991 -0.353831 -0.012200 138 138 138
-0.234686 -0.355870 -0.011840 138 138 138
-0.232711 -0.358071 -0.011615 138 138 138
-0.230876 -0.360341 -0.011447 138 138 138
-0.229040 -0.362612 -0.011280 138 138 138
-0.227204 -0.364883 -0.011112 138 138 138
-0.225534 -0.367236 -0.011013 138 138 138
-0.223960 -0.369634 -0.010952 138 138 138
-0.222384 -0.372032 -0.010891 138 138 138
-0.220796 -0.374424 -0.010825 138 138 138
-0.219238 -0.376831 -0.010771 138 138 138
-0.218050 -0.379413 -0.010867 138 138 138
-0.216982 -0.382050 -0.011013 138 138 138
-0.215915 -0.384687 -0.011158 138 138 138
-0.214895 -0.387345 -0.011323 138 138 138
-0.214368 -0.390231 -0.011687 138 138 138
-0.213874 -0.393130 -0.012064 138 138 138
-0.213371 -0.396022 -0.012437 138 138 138
-0.212623 -0.398799 -0.012710 138 138 138
-0.211580 -0.401438 -0.012864 138 138 138
-0.210633 -0.404121 -0.013056 138 138 138
-0.209737 -0.406826 -0.013268 138 138 138
-0.208274 -0.409270 -0.013252 138 138 138
-0.206387 -0.411522 -0.013065 138 138 138
-0.204059 -0.413575 -0.012699 138 138 138
-0.201729 -0.415630 -0.012334 138 138 138
-0.199170 -0.417584 -0.011877 138 138 138
-0.195278 -0.418941 -0.010883 138 138 138
-0.189923 -0.419649 -0.009303 138 138 138
-0.184488 -0.420331 -0.007692 138 138 138
-0.179742 -0.421331 -0.006360 138 138 138
-0.175436 -0.422535 -0.005206 138 138 138
-0.171588 -0.423949 -0.004238 138 138 138
-0.167657 -0.425333 -0.003237 138 138 138
-0.163425 -0.426591 -0.002116 138 138 138
-0.159183 -0.427851 -0.000993 138 138 138
-0.155552 -0.429386 -0.000116 138 138 138
-0.152330 -0.431106 0.000596 138 138 138
-0.148921 -0.432748 0.001382 138 138 138
-0.145015 -0.434180 0.002366 138 138 138
-0.139626 -0.434976 0.003941 138 138 138
-0.133709 -0.435555 0.005726 139 139 139
-0.127828 -0.436160 0.007493 138 138 138
-0.122069 -0.436829 0.009210 138 138 138
-0.116025 -0.437387 0.011038 138 138 138
-0.110814 -0.438312 0.012533 138 138 138
-0.105759 -0.439313 0.013963 138 138 138
-0.100982 -0.440441 0.015282 138 138 138
-0.096525 -0.441712 0.016471 138 138 138
-0.093051 -0.443405 0.017269 138 138 138
-0.089714 -0.445161 0.018011 138 138 138
-0.086174 -0.446837 0.018833 138 138 138
-0.082208 -0.448340 0.019824 138 138 138
-0.078131 -0.449803 0.020856 138 138 138
-0.073874 -0.451198 0.021959 138 138 138
-0.069759 -0.452658 0.023005 138 138 138
-0.064797 -0.453776 0.024384 138 138 138
-0.058532 -0.454367 0.026277 138 138 138
-0.051359 -0.454597 0.028527 138 138 138
-0.042449 -0.454131 0.031460 138 138 138
-0.025327 -0.450337 0.037631 139 139 139
-0.016412 -0.449916 0.040557 138 138 138
-0.009560 -0.450350 0.042667 138 138 138
-0.003300 -0.451037 0.044540 138 138 138
0.003285 -0.451603 0.046540 140 140 140
0.010469 -0.451943 0.048773 150 150 150
0.018524 -0.451948 0.051346 162 162 162
0.060831 -0.438306 0.067382 172 172 172
0.070433 -0.437771 0.070549 160 160 160
0.078327 -0.437932 0.073041 148 148 148
0.085531 -0.438382 0.075260 149 149 149
0.095096 -0.437916 0.078403 150 150 150
-0.291655 0.320991 0.091459 138 138 138
-0.296613 0.313097 0.088428 138 138 138
-0.298810 0.307397 0.086680 138 138 138
-0.301598 0.301246 0.084661 138 138 138
-0.305340 0.294363 0.082203 138 138 138
-0.356703 0.250284 0.057735 138 138 138
-0.360015 0.243855 0.055498 138 138 138
-0.362230 0.238296 0.053770 138 138 138
-0.362818 0.234013 0.052795 138 138 138
-0.363283 0.229832 0.051878 138 138 138
-0.363757 0.225652 0.050959 138 138 138
-0.363774 0.221830 0.050250 138 138 138
-0.363752 0.218044 0.049561 138 138 138
-0.363687 0.214296 0.048892 138 138 138
-0.363554 0.210605 0.048256 138 138 138
-0.363409 0.206928 0.047626 138 138 138
-0.363252 0.203265 0.047002 138 138 138
-0.363079 0.199618 0.046387 138 138 138
-0.362923 0.195963 0.045764 138 138 138
-0.363012 0.192127 0.045030 138 138 138
-0.363420 0.188056 0.044152 138 138 138
-0.363825 0.183993 0.043276 138 138 138
-0.364190 0.179967 0.042419 138 138 138
-0.364550 0.175951 0.041565 138 138 138
-0.364879 0.171964 0.040728 138 138 138
-0.365130 0.168042 0.039926 138 138 138
-0.365440 0.164081 0.039099 138 138 138
-0.365858 0.160047 0.038224 138 138 138
-0.366392 0.155932 0.037297 138 138 138
-0.366924 0.151825 0.036372 138 138 138
-0.368267 0.147127 0.035081 138 138 138
-0.369903 0.142222 0.033658 138 138 138
-0.372734 0.136448 0.031694 138 138 138
-0.376156 0.130253 0.029465 138 138 138
-0.379778 0.123930 0.027148 138 138 138
-0.383027 0.117895 0.025003 138 138 138
-0.385213 0.112651 0.023342 138 138 138
-0.387145 0.107604 0.021799 138 138 138
-0.388772 0.102790 0.020395 138 138 138
-0.390014 0.098265 0.019167 138 138 138
-0.390848 0.094044 0.018125 138 138 138
-0.391483 0.089973 0.017175 138 138 138
-0.392040 0.085966 0.016260 138 138 138
-0.392505 0.082031 0.015388 138 138 138
-0.392917 0.078141 0.014542 138 138 138
-0.393327 0.074258 0.013697 138 138 138
-0.393769 0.070359 0.012839 138 138 138
-0.394272 0.066422 0.011955 138 138 138
-0.395282 0.062132 0.010844 138 138 138
-0.396342 0.057814 0.009712 138 138 138
-0.397370 0.053528 0.008597 138 138 138
-0.398449 0.049213 0.007459 138 138 138
-0.399287 0.045077 0.006432 138 138 138
-0.400346 0.040793 0.005307 138 138 138
-0.401099 0.036730 0.004320 138 138 138
-0.401812 0.032703 0.003352 138 138 138
-0.402371 0.028790 0.002454 138 138 138
-0.402860 0.024932 0.001589 138 138 138
-0.403312 0.021106 0.000741 138 138 138
-0.403729 0.017311 -0.000089 138 138 138
-0.404086 0.013563 -0.000892 138 138 138
-0.404356 0.009880 -0.001656 138 138 138
-0.404421 0.006344 -0.002327 138 138 138
-0.404362 0.002897 -0.002942 138 138 138
-0.404305 -0.000546 -0.003557 138 138 138
-0.404135 -0.003908 -0.004121 138 138 138
-0.403600 -0.007018 -0.004523 138 138 138
-0.403067 -0.010125 -0.004924 138 138 138
-0.402537 -0.013232 -0.005327 138 138 138
-0.402068 -0.016378 -0.005756 138 138 138
-0.401600 -0.019521 -0.006185 138 138 138
-0.401186 -0.022697 -0.006637 138 138 138
-0.400758 -0.025861 -0.007083 138 138 138
-0.400340 -0.029028 -0.007532 138 138 138
-0.399923 -0.032193 -0.007981 138 138 138
-0.399536 -0.035374 -0.008443 138 138 138
-0.399284 -0.038643 -0.008964 138 138 138
-0.399033 -0.041907 -0.009484 138 138 138
-0.398785 -0.045170 -0.010005 138 138 138
-0.398882 -0.048658 -0.010678 138 138 138
-0.399057 -0.052192 -0.011383 138 138 138
-0.399228 -0.055718 -0.012086 138 138 138
-0.399284 -0.059164 -0.012738 138 138 138
-0.399313 -0.062587 -0.013377 138 138 138
-0.399328 -0.065998 -0.014009 138 138 138
-0.399284 -0.069364 -0.014614 138 138 138
-0.399260 -0.072741 -0.015227 138 138 138
-0.399364 -0.076195 -0.015895 138 138 138
-0.399617 -0.079741 -0.016628 138 138 138
-0.399827 -0.083254 -0.017341 138 138 138
-0.400386 -0.086987 -0.018206 138 138 138
-0.401256 -0.090913 -0.019205 138 138 138
-0.402516 -0.095081 -0.020373 138 138 138
-0.403667 -0.099172 -0.021492 138 138 138
-0.406367 -0.104242 -0.023284 138 138 138
-0.409800 -0.109765 -0.025393 138 138 138
-0.412985 -0.115115 -0.027392 138 138 138
-0.415620 -0.120105 -0.029149 138 138 138
-0.417214 -0.124425 -0.030451 138 138 138
-0.418165 -0.128331 -0.031473 138 138 138
-0.418667 -0.131948 -0.032298 138 138 138
-0.418335 -0.135037 -0.032760 138 138 138
-0.417275 -0.137668 -0.032906 138 138 138
-0.416062 -0.140202 -0.032986 138 138 138
-0.414763 -0.142683 -0.033028 138 138 138
-0.412452 -0.144535 -0.032633 138 138 138
-0.409566 -0.146035 -0.031989 138 138 138
-0.406758 -0.147587 -0.031380 138 138 138
-0.404064 -0.149213 -0.030821 138 138 138
-0.399545 -0.149723 -0.029476 138 138 138
-0.393770 -0.149471 -0.027590 138 138 138
-0.388810 -0.149731 -0.026057 138 138 138
-0.385730 -0.151149 -0.025337 138 138 138
-0.382727 -0.152618 -0.024651 138 138 138
-0.381132 -0.154946 -0.024571 138 138 138
-0.380818 -0.158050 -0.025042 138 138 138
-0.380203 -0.160970 -0.025383 138 138 138
-0.378973 -0.163516 -0.025459 138 138 138
-0.377654 -0.166008 -0.025497 138 138 138
-0.376933 -0.168859 -0.025792 138 138 138
-0.376503 -0.171882 -0.026211 138 138 138
-0.376176 -0.174963 -0.026673 138 138 138
-0.375340 -0.177738 -0.026917 138 138 138
-0.374686 -0.180619 -0.027239 138 138 138
-0.374032 -0.183498 -0.027560 138 138 138
-0.373396 -0.186386 -0.027889 138 138 138
-0.372076 -0.188868 -0.027925 138 138 138
-0.370705 -0.191321 -0.027939 138 138 138
-0.369400 -0.193811 -0.027981 138 138 138
-0.367983 -0.196236 -0.027976 138 138 138
-0.366243 -0.198473 -0.027833 138 138 138
-0.364182 -0.200524 -0.027554 138 138 138
-0.362082 -0.202554 -0.027258 138 138 138
-0.360268 -0.204752 -0.027084 138 138 138
-0.358723 -0.207106 -0.027025 138 138 138
-0.356545 -0.209096 -0.026697 138 138 138
-0.354596 -0.211220 -0.026467 138 138 138
-0.352456 -0.213236 -0.026157 138 138 138
-0.350007 -0.215078 -0.025715 138 138 138
-0.347399 -0.216831 -0.025207 138 138 138
-0.344636 -0.218501 -0.024634 138 138 138
-0.342161 -0.220337 -0.024183 138 138 138
-0.339894 -0.222295 -0.023821 138 138 138
-0.337941 -0.224432 -0.023592 138 138 138
-0.335372 -0.226223 -0.023103 138 138 138
-0.332730 -0.227977 -0.022584 138 138 138
-0.330006 -0.229689 -0.022031 138 138 138
-0.327591 -0.231577 -0.021609 138 138 138
-0.325753 -0.233789 -0.021430 138 138 138
-0.323920 -0.236006 -0.021254 138 138 138
-0.322175 -0.238272 -0.021115 138 138 138
-0.320853 -0.240773 -0.021154 138 138 138
-0.319614 -0.243320 -0.021227 138 138 138
-0.318452 -0.245909 -0.021333 138 138 138
-0.317360 -0.248535 -0.021469 138 138 138
-0.316493 -0.251283 -0.021698 138 138 138
-0.315671 -0.254055 -0.021946 138 138 138
-0.314790 -0.256792 -0.022169 138 138 138
-0.313698 -0.259414 -0.022303 138 138 138
-0.312520 -0.261988 -0.022401 138 138 138
-0.311383 -0.264584 -0.022516 138 138 138
-0.310254 -0.267183 -0.022635 138 138 138
-0.309126 -0.269782 -0.022753 138 138 138
-0.308054 -0.272410 -0.022895 138 138 138
-0.306987 -0.275040 -0.023039 138 138 138
-0.305920 -0.277669 -0.023183 138 138 138
-0.304865 -0.280303 -0.023331 138 138 138
-0.303710 -0.282883 -0.023438 138 138 138
-0.302531 -0.285450 -0.023534 138 138 138
-0.301352 -0.288016 -0.023631 138 138 138
-0.300173 -0.290582 -0.023727 138 138 138
-0.298898 -0.293096 -0.023783 138 138 138
-0.297582 -0.295589 -0.023822 138 138 138
-0.296199 -0.298046 -0.023834 138 138 138
-0.294794 -0.300492 -0.023836 138 138 138
-0.293366 -0.302926 -0.023829 138 138 138
-0.291899 -0.305340 -0.023805 138 138 138
-0.290496 -0.307787 -0.023808 138 138 138
-0.289118 -0.310247 -0.023822 138 138 138
-0.287749 -0.312711 -0.023839 138 138 138
-0.286123 -0.315044 -0.023750 138 138 138
-0.284471 -0.317364 -0.023651 138 138 138
-0.282819 -0.319685 -0.023551 138 138 138
-0.281106 -0.321975 -0.023427 138 138 138
-0.278767 -0.323949 -0.023045 138 138 138
-0.275998 -0.325707 -0.022486 138 138 138
-0.273260 -0.327486 -0.021941 138 138 138
-0.270366 -0.329189 -0.021332 138 138 138
-0.267316 -0.330818 -0.020660 138 138 138
-0.264328 -0.332483 -0.020015 138 138 138
-0.261353 -0.334159 -0.019375 138 138 138
-0.258395 -0.335846 -0.018743 138 138 138
-0.255469 -0.337555 -0.018126 138 138 138
-0.252677 -0.339334 -0.017563 138 138 138
-0.249883 -0.341115 -0.017001 138 138 138
-0.247086 -0.342898 -0.016438 138 138 138
-0.244543 -0.344810 -0.015980 138 138 138
-0.242260 -0.346852 -0.015628 138 138 138
-0.240192 -0.349001 -0.015364 138 138 138
-0.237946 -0.351066 -0.015029 138 138 138
-0.236005 -0.353280 -0.014818 138 138 138
-0.234127 -0.355527 -0.014633 138 138 138
-0.232041 -0.357674 -0.014363 138 138 138
-0.230011 -0.359850 -0.014117 138 138 138
-0.228175 -0.362121 -0.013949 138 138 138
-0.226339 -0.364392 -0.013782 138 138 138
-0.224739 -0.366778 -0.013711 138 138 138
-0.223164 -0.369176 -0.013651 138 138 138
-0.221590 -0.371574 -0.013590 138 138 138
-0.220077 -0.374002 -0.013555 138 138 138
-0.218828 -0.376556 -0.013627 138 138 138
-0.217781 -0.379203 -0.013780 138 138 138
-0.216714 -0.381840 -0.013925 138 138 138
-0.215647 -0.384476 -0.014070 138 138 138
-0.214749 -0.387190 -0.014283 138 138 138
-0.214255 -0.390091 -0.014659 138 138 138
-0.213743 -0.392981 -0.015028 138 138 138
-0.213215 -0.395861 -0.015389 138 138 138
-0.212293 -0.398556 -0.015591 138 138 138
-0.211220 -0.401181 -0.015732 138 138 138
-0.210190 -0.403825 -0.015890 138 138 138
-0.209243 -0.406506 -0.016081 138 138 138
-0.207792 -0.408956 -0.016070 138 138 138
-0.205922 -0.411215 -0.015890 138 138 138
-0.203537 -0.413242 -0.015503 138 138 138
-0.200920 -0.415166 -0.015023 138 138 138
-0.198294 -0.417090 -0.014540 138 138 138
-0.195075 -0.418750 -0.013820 138 138 138
-0.189812 -0.419498 -0.012281 138 138 138
-0.184449 -0.420212 -0.010704 138 138 138
-0.179375 -0.421064 -0.009245 138 138 138
-0.174981 -0.422228 -0.008059 138 138 138
-0.171134 -0.423642 -0.007094 138 138 138
-0.166861 -0.424875 -0.005960 138 138 138
-0.162605 -0.426121 -0.004833 138 138 138
-0.158399 -0.427398 -0.003728 138 138 138
-0.154841 -0.428965 -0.002883 138 138 138
-0.151364 -0.430573 -0.002071 138 138 138
-0.147892 -0.432188 -0.001262 138 138 138
-0.143928 -0.433595 -0.000258 138 138 138
-0.139279 -0.434712 0.001017 138 138 138
-0.133017 -0.435140 0.002933 138 138 138
-0.127123 -0.435740 0.004700 138 138 138
-0.121178 -0.436329 0.006486 138 138 138
-0.114811 -0.436748 0.008437 138 138 138
-0.109573 -0.437662 0.009937 138 138 138
-0.104409 -0.438617 0.011407 138 138 138
-0.099686 -0.439768 0.012699 138 138 138
-0.095227 -0.441039 0.013886 138 138 138
-0.091883 -0.442788 0.014629 138 138 138
-0.088419 -0.444491 0.015419 138 138 138
-0.084605 -0.446052 0.016347 138 138 138
-0.080617 -0.447547 0.017343 138 138 138
-0.076605 -0.449038 0.018347 138 138 138
-0.072578 -0.450529 0.019355 138 138 138
-0.067687 -0.451669 0.020703 138 138 138
-0.062648 -0.452756 0.022108 138 138 138
-0.056878 -0.453551 0.023800 138 138 138
-0.049641 -0.453756 0.026068 138 138 138
-0.041288 -0.453519 0.028772 138 138 138
-0.025054 -0.450086 0.034575 138 138 138
-0.014959 -0.449186 0.037956 138 138 138
-0.008673 -0.449849 0.039836 138 138 138
-0.002654 -0.450632 0.041610 138 138 138
0.003902 -0.451210 0.043592 140 140 140
0.010661 -0.451720 0.045651 147 147 147
0.018543 -0.451793 0.048148 158 158 158
0.031625 -0.449807 0.052680 175 175 175
0.069159 -0.438125 0.066785 164 164 164
0.078123 -0.437860 0.069689 152 152 152
0.085527 -0.438229 0.071979 146 146 146
0.096276 -0.437294 0.075575 149 149 149
-0.290164 0.321985 0.088747 138 138 138
-0.296357 0.313116 0.085155 138 138 138
-0.298616 0.307369 0.083384 138 138 138
-0.302005 0.300748 0.081094 138 138 138
-0.306341 0.293402 0.078371 138 138 138
-0.355704 0.250894 0.054904 138 138 138
-0.358578 0.244806 0.052875 138 138 138
-0.360840 0.239210 0.051131 138 138 138
-0.361423 0.234929 0.050161 138 138 138
-0.361733 0.230869 0.049318 138 138 138
-0.362152 0.226729 0.048426 138 138 138
-0.362162 0.222912 0.047723 138 138 138
-0.362161 0.219108 0.047026 138 138 138
-0.362094 0.215360 0.046360 138 138 138
-0.361985 0.211650 0.045715 138 138 138
-0.361841 0.207971 0.045086 138 138 138
-0.361683 0.204308 0.044465 138 138 138
-0.361510 0.200660 0.043851 138 138 138
-0.361390 0.196977 0.043214 138 138 138
-0.361384 0.193212 0.042526 138 138 138
-0.361611 0.189275 0.041732 138 138 138
-0.361996 0.185226 0.040867 138 138 138
-0.362434 0.181143 0.039979 138 138 138
-0.362789 0.177130 0.039131 138 138 138
-0.363134 0.173129 0.038288 138 138 138
-0.363378 0.169211 0.037492 138 138 138
-0.363617 0.165302 0.036700 138 138 138
-0.363949 0.161330 0.035866 138 138 138
-0.364493 0.157206 0.034937 138 138 138
-0.365037 0.153089 0.034010 138 138 138
-0.366367 0.148399 0.032728 138 138 138
-0.368016 0.143482 0.031303 138 138 138
-0.370831 0.137718 0.029352 138 138 138
-0.374853 0.131082 0.026859 138 138 138
-0.378501 0.124738 0.024537 138 138 138
-0.382040 0.118491 0.022268 138 138 138
-0.384151 0.113302 0.020647 138 138 138
-0.386066 0.108267 0.019115 138 138 138
-0.387574 0.103540 0.017770 138 138 138
-0.388739 0.099070 0.016581 138 138 138
-0.389590 0.094835 0.015534 138 138 138
-0.390388 0.090647 0.014513 138 138 138
-0.391076 0.086545 0.013542 138 138 138
-0.391522 0.082624 0.012682 138 138 138
-0.391939 0.078730 0.011836 138 138 138
-0.392351 0.074845 0.010993 138 138 138
-0.392816 0.070929 0.010127 138 138 138
-0.393353 0.066968 0.009231 138 138 138
-0.394400 0.062652 0.008107 138 138 138
-0.395869 0.058045 0.006796 138 138 138
-0.396929 0.053737 0.005669 138 138 138
-0.398084 0.049369 0.004502 138 138 138
-0.398982 0.045191 0.003451 138 138 138
-0.400069 0.040888 0.002317 138 138 138
-0.400822 0.036826 0.001333 138 138 138
-0.401587 0.032764 0.000345 138 138 138
-0.402191 0.028821 -0.000569 138 138 138
-0.402644 0.024989 -0.001416 138 138 138
-0.403097 0.021164 -0.002261 138 138 138
-0.403494 0.017383 -0.003080 138 138 138
-0.403877 0.013618 -0.003892 138 138 138
-0.404163 0.009925 -0.004659 138 138 138
-0.404136 0.006453 -0.005288 138 138 138
-0.404121 0.002978 -0.005920 138 138 138
-0.404190 -0.000551 -0.006589 138 138 138
-0.403859 -0.003802 -0.007080 138 138 138
-0.403367 -0.006940 -0.007499 138 138 138
-0.402834 -0.010047 -0.007899 138 138 138
-0.402375 -0.013201 -0.008331 138 138 138
-0.401952 -0.016377 -0.008779 138 138 138
-0.401464 -0.019505 -0.009198 138 138 138
-0.400976 -0.022631 -0.009616 138 138 138
-0.400484 -0.025751 -0.010032 138 138 138
-0.399985 -0.028863 -0.010444 138 138 138
-0.399508 -0.031987 -0.010865 138 138 138
-0.399168 -0.035199 -0.011346 138 138 138
-0.398917 -0.038467 -0.011865 138 138 138
-0.398666 -0.041731 -0.012384 138 138 138
-0.398479 -0.045034 -0.012930 138 138 138
-0.398648 -0.048568 -0.013632 138 138 138
-0.398824 -0.052102 -0.014335 138 138 138
-0.398983 -0.055619 -0.015031 138 138 138
-0.399012 -0.059047 -0.015668 138 138 138
-0.399000 -0.062442 -0.016287 138 138 138
-0.398975 -0.065826 -0.016900 138 138 138
-0.398923 -0.069187 -0.017499 138 138 138
-0.398867 -0.072541 -0.018096 138 138 138
-0.398803 -0.075886 -0.018689 138 138 138
-0.398806 -0.079270 -0.019310 138 138 138
-0.399016 -0.082784 -0.020021 138 138 138
-0.399365 -0.086381 -0.020791 138 138 138
-0.400344 -0.090378 -0.021835 138 138 138
-0.401443 -0.094443 -0.022929 138 138 138
-0.402401 -0.098411 -0.023961 138 138 138
-0.404902 -0.103355 -0.025661 138 138 138
-0.408129 -0.108748 -0.027675 138 138 138
-0.411050 -0.113933 -0.029553 138 138 138
-0.413801 -0.118997 -0.031355 138 138 138
-0.415420 -0.123334 -0.032664 138 138 138
-0.416374 -0.127244 -0.033684 138 138 138
-0.417119 -0.131015 -0.034611 138 138 138
-0.416598 -0.133987 -0.034991 138 138 138
-0.415384 -0.136523 -0.035070 138 138 138
-0.414170 -0.139058 -0.035150 138 138 138
-0.412996 -0.141618 -0.035246 138 138 138
-0.410986 -0.143658 -0.034982 138 138 138
-0.408300 -0.145283 -0.034427 138 138 138
-0.405605 -0.146905 -0.033869 138 138 138
-0.402902 -0.148527 -0.033308 138 138 138
-0.399174 -0.149523 -0.032307 138 138 138
-0.393509 -0.149339 -0.030474 138 138 138
-0.389212 -0.150003 -0.029231 138 138 138
-0.385679 -0.151143 -0.028318 138 138 138
-0.383068 -0.152849 -0.027802 138 138 138
-0.382271 -0.155660 -0.028064 138 138 138
-0.381041 -0.158207 -0.028141 138 138 138
-0.379811 -0.160753 -0.028217 138 138 138
-0.378559 -0.163286 -0.028284 138 138 138
-0.377217 -0.165764 -0.028312 138 138 138
-0.375886 -0.168248 -0.028345 138 138 138
-0.375242 -0.171143 -0.028671 138 138 138
-0.374685 -0.174088 -0.029034 138 138 138
-0.373948 -0.176923 -0.029320 138 138 138
-0.373295 -0.179806 -0.029641 138 138 138
-0.372642 -0.182686 -0.029961 138 138 138
-0.372012 -0.185578 -0.030292 138 138 138
-0.370828 -0.188142 -0.030386 138 138 138
-0.369389 -0.190555 -0.030371 138 138 138
-0.368017 -0.193007 -0.030385 138 138 138
-0.366588 -0.195426 -0.030375 138 138 138
-0.364847 -0.197663 -0.030232 138 138 138
-0.363106 -0.199901 -0.030090 138 138 138
-0.361227 -0.202060 -0.029889 138 138 138
-0.359808 -0.204487 -0.029883 138 138 138
-0.358268 -0.206843 -0.029826 138 138 138
-0.356316 -0.208963 -0.029595 138 138 138
-0.354364 -0.211084 -0.029364 138 138 138
-0.352415 -0.213209 -0.029134 138 138 138
-0.350464 -0.215335 -0.028905 138 138 138
-0.347798 -0.217054 -0.028373 138 138 138
-0.345010 -0.218707 -0.027791 138 138 138
-0.342482 -0.220512 -0.027319 138 138 138
-0.340093 -0.222398 -0.026906 138 138 138
-0.337220 -0.224015 -0.026290 138 138 138
-0.334611 -0.225784 -0.025786 138 138 138
-0.331929 -0.227515 -0.025252 138 138 138
-0.329204 -0.229227 -0.024701 138 138 138
-0.326476 -0.230940 -0.024149 138 138 138
-0.324041 -0.232820 -0.023720 138 138 138
-0.322251 -0.235062 -0.023562 138 138 138
-0.320601 -0.237382 -0.023464 138 138 138
-0.319474 -0.239992 -0.023585 138 138 138
-0.318382 -0.242621 -0.023720 138 138 138
-0.317305 -0.245257 -0.023861 138 138 138
-0.316264 -0.247911 -0.024017 138 138 138
-0.315403 -0.250664 -0.024248 138 138 138
-0.314543 -0.253415 -0.024480 138 138 138
-0.313684 -0.256165 -0.024711 138 138 138
-0.312658 -0.258823 -0.024873 138 138 138
-0.311531 -0.261425 -0.024992 138 138 138
-0.310409 -0.264029 -0.025113 138 138 138
-0.309288 -0.266633 -0.025234 138 138 138
-0.308175 -0.269240 -0.025359 138 138 138
-0.307113 -0.271874 -0.025504 138 138 138
-0.306052 -0.274507 -0.025650 138 138 138
-0.304997 -0.277142 -0.025798 138 138 138
-0.303969 -0.279791 -0.025957 138 138 138
-0.302876 -0.282405 -0.026090 138 138 138
-0.301723 -0.284985 -0.026197 138 138 138
-0.300544 -0.287551 -0.026293 138 138 138
-0.299365 -0.290117 -0.026389 138 138 138
-0.298056 -0.292614 -0.026431 138 138 138
-0.296673 -0.295071 -0.026442 138 138 138
-0.295287 -0.297528 -0.026452 138 138 138
-0.293881 -0.299973 -0.026454 138 138 138
-0.292444 -0.302403 -0.026443 138 138 138
-0.290973 -0.304815 -0.026418 138 138 138
-0.289519 -0.307236 -0.026401 138 138 138
-0.288133 -0.309692 -0.026411 138 138 138
-0.286730 -0.312139 -0.026414 138 138 138
-0.285079 -0.314459 -0.026315 138 138 138
-0.283427 -0.316779 -0.026216 138 138 138
-0.281774 -0.319099 -0.026116 138 138 138
-0.280122 -0.321421 -0.026017 138 138 138
-0.277884 -0.323447 -0.025678 138 138 138
-0.275147 -0.325222 -0.025134 138 138 138
-0.272408 -0.326999 -0.024590 138 138 138
-0.269503 -0.328698 -0.023979 138 138 138
-0.266405 -0.330303 -0.023290 138 138 138
-0.263371 -0.331945 -0.022628 138 138 138
-0.260408 -0.333626 -0.021995 138 138 138
-0.257501 -0.335340 -0.021386 138 138 138
-0.254579 -0.337050 -0.020772 138 138 138
-0.251671 -0.338772 -0.020164 138 138 138
-0.248872 -0.340550 -0.019601 138 138 138
-0.246074 -0.342334 -0.019040 138 138 138
-0.243658 -0.344308 -0.018635 138 138 138
-0.241305 -0.346316 -0.018256 138 138 138
-0.239228 -0.348461 -0.017989 138 138 138
-0.237288 -0.350675 -0.017779 138 138 138
-0.235347 -0.352889 -0.017569 138 138 138
-0.233501 -0.355151 -0.017397 138 138 138
-0.231660 -0.357416 -0.017228 138 138 138
-0.229485 -0.359522 -0.016923 138 138 138
-0.227329 -0.361639 -0.016627 138 138 138
-0.225519 -0.363923 -0.016471 138 138 138
-0.223947 -0.366322 -0.016412 138 138 138
-0.222512 -0.368786 -0.016407 138 138 138
-0.221076 -0.371251 -0.016404 138 138 138
-0.219585 -0.373689 -0.016377 138 138 138
-0.218475 -0.376307 -0.016504 138 138 138
-0.217445 -0.378962 -0.016664 138 138 138
-0.216416 -0.381616 -0.016824 138 138 138
-0.215379 -0.384265 -0.016980 138 138 138
-0.214636 -0.387051 -0.017255 138 138 138
-0.214115 -0.389938 -0.017619 138 138 138
-0.213587 -0.392820 -0.017980 138 138 138
-0.213035 -0.395688 -0.018330 138 138 138
-0.211962 -0.398313 -0.018471 138 138 138
-0.210890 -0.400938 -0.018611 138 138 138
-0.209817 -0.403562 -0.018752 138 138 138
-0.208800 -0.406210 -0.018915 138 138 138
-0.207122 -0.408556 -0.018812 138 138 138
-0.205215 -0.410798 -0.018617 138 138 138
-0.202654 -0.412745 -0.018161 138 138 138
-0.200030 -0.414666 -0.017680 138 138 138
-0.197403 -0.416590 -0.017198 138 138 138
-0.193903 -0.418123 -0.016368 138 138 138
-0.189700 -0.419347 -0.015258 138 138 138
-0.184411 -0.420092 -0.013715 138 138 138
-0.179137 -0.420855 -0.012180 138 138 138
-0.174527 -0.421922 -0.010912 138 138 138
-0.170364 -0.423196 -0.009824 138 138 138
-0.166013 -0.424393 -0.008662 138 138 138
-0.161758 -0.425640 -0.007539 138 138 138
-0.157882 -0.427062 -0.006569 138 138 138
-0.154029 -0.428499 -0.005609 138 138 138
-0.150336 -0.430012 -0.004714 138 138 138
-0.146863 -0.431627 -0.003907 138 138 138
-0.142839 -0.433009 -0.002883 138 138 138
-0.138467 -0.434246 -0.001721 138 138 138
-0.132324 -0.434726 0.000141 138 138 138
-0.126530 -0.435368 0.001864 138 138 138
-0.119932 -0.435676 0.003902 138 138 138
-0.113653 -0.436134 0.005812 138 138 138
-0.108256 -0.436980 0.007370 138 138 138
-0.103023 -0.437906 0.008862 138 138 138
-0.098390 -0.439096 0.010115 138 138 138
-0.094050 -0.440418 0.011251 138 138 138
-0.090527 -0.442091 0.012063 138 138 138
-0.086778 -0.443675 0.012963 138 138 138
-0.082821 -0.445177 0.013944 138 138 138
-0.078559 -0.446559 0.015044 138 138 138
-0.074285 -0.447942 0.016148 138 138 138
-0.070224 -0.449420 0.017166 138 138 138
-0.065612 -0.450678 0.018400 138 138 138
-0.060498 -0.451735 0.019830 138 138 138
-0.055051 -0.452665 0.021389 138 138 138
-0.047827 -0.452876 0.023644 138 138 138
-0.039287 -0.452563 0.026413 138 138 138
-0.024509 -0.449725 0.031626 138 138 138
-0.014029 -0.448667 0.035148 138 138 138
-0.007837 -0.449368 0.036985 138 138 138
-0.001801 -0.450145 0.038760 138 138 138
0.004491 -0.450829 0.040632 139 139 139
0.011069 -0.451410 0.042615 146 146 146
0.018449 -0.451683 0.044908 156 156 156
0.026685 -0.451629 0.047533 162 162 162
0.063104 -0.440382 0.061159 185 185 185
0.076917 -0.438184 0.065948 155 155 155
0.085556 -0.438063 0.068713 143 143 143
0.097941 -0.436482 0.072936 143 143 143
-0.287946 0.323553 0.086369 100 100 100
-0.295395 0.313692 0.082209 138 138 138
-0.298421 0.307342 0.080091 138 138 138
-0.302412 0.300250 0.077532 138 138 138
-0.309236 0.290959 0.073674 138 138 138
-0.354607 0.251579 0.052116 138 138 138
-0.357173 0.245732 0.050236 138 138 138
-0.359140 0.240365 0.048632 138 138 138
-0.359797 0.236026 0.047631 138 138 138
-0.360224 0.231873 0.046737 138 138 138
-0.360541 0.227811 0.045894 138 138 138
-0.360548 0.223995 0.045195 138 138 138
-0.360559 0.220181 0.044495 138 138 138
-0.360501 0.216425 0.043827 138 138 138
-0.360395 0.212711 0.043181 138 138 138
-0.360271 0.209016 0.042545 138 138 138
-0.360113 0.205351 0.041925 138 138 138
-0.359976 0.201674 0.041297 138 138 138
-0.359955 0.197915 0.040617 138 138 138
-0.360002 0.194109 0.039906 138 138 138
-0.360231 0.190171 0.039114 138 138 138
-0.360460 0.186238 0.038323 138 138 138
-0.360731 0.182280 0.037514 138 138 138
-0.361095 0.178258 0.036664 138 138 138
-0.361456 0.174244 0.035816 138 138 138
-0.361716 0.170312 0.035015 138 138 138
-0.361960 0.166399 0.034222 138 138 138
-0.362280 0.162434 0.033396 138 138 138
-0.362798 0.158329 0.032482 138 138 138
-0.363343 0.154210 0.031557 138 138 138
-0.364550 0.149609 0.030334 138 138 138
-0.366129 0.144743 0.028945 138 138 138
-0.368920 0.138994 0.027011 138 138 138
-0.373329 0.132073 0.024351 138 138 138
-0.377581 0.125286 0.021765 138 138 138
-0.381061 0.119082 0.019530 138 138 138
-0.383081 0.113959 0.017954 138 138 138
-0.384991 0.108928 0.016430 138 138 138
-0.386261 0.104373 0.015196 138 138 138
-0.387452 0.099883 0.013998 138 138 138
-0.388308 0.095645 0.012953 138 138 138
-0.389107 0.091455 0.011934 138 138 138
-0.389789 0.087357 0.010969 138 138 138
-0.390483 0.083257 0.010000 138 138 138
-0.390959 0.079320 0.009130 138 138 138
-0.391380 0.075429 0.008286 138 138 138
-0.391900 0.071474 0.007398 138 138 138
-0.392437 0.067512 0.006505 138 138 138
-0.393511 0.063177 0.005372 138 138 138
-0.395134 0.058461 0.003997 138 138 138
-0.396469 0.053958 0.002751 138 138 138
-0.397720 0.049524 0.001545 138 138 138
-0.398815 0.045208 0.000410 138 138 138
-0.399793 0.040982 -0.000672 138 138 138
-0.400628 0.036865 -0.001689 138 138 138
-0.401518 0.032716 -0.002729 138 138 138
-0.401995 0.028863 -0.003584 138 138 138
-0.402432 0.025043 -0.004420 138 138 138
-0.402877 0.021225 -0.005259 138 138 138
-0.403260 0.017454 -0.006069 138 138 138
-0.403643 0.013690 -0.006878 138 138 138
-0.403911 0.010011 -0.007635 138 138 138
-0.403936 0.006504 -0.008284 138 138 138
-0.404005 0.002971 -0.008952 138 138 138
-0.404028 -0.000524 -0.009598 138 138 138
-0.403582 -0.003696 -0.010036 138 138 138
-0.403134 -0.006863 -0.010473 138 138 138
-0.402601 -0.009969 -0.010872 138 138 138
-0.402215 -0.013172 -0.011335 138 138 138
-0.401876 -0.016403 -0.011818 138 138 138
-0.401387 -0.019530 -0.012235 138 138 138
-0.400966 -0.022699 -0.012681 138 138 138
-0.400626 -0.025920 -0.013162 138 138 138
-0.400118 -0.029024 -0.013568 138 138 138
-0.399610 -0.032126 -0.013975 138 138 138
-0.399231 -0.035311 -0.014437 138 138 138
-0.398854 -0.038494 -0.014899 138 138 138
-0.398478 -0.041674 -0.015361 138 138 138
-0.398333 -0.045004 -0.015924 138 138 138
-0.398457 -0.048507 -0.016603 138 138 138
-0.398590 -0.052011 -0.017286 138 138 138
-0.398695 -0.055493 -0.017955 138 138 138
-0.398671 -0.058884 -0.018567 138 138 138
-0.398647 -0.062272 -0.019179 138 138 138
-0.398618 -0.065652 -0.019787 138 138 138
-0.398545 -0.068998 -0.020376 138 138 138
-0.398422 -0.072309 -0.020942 138 138 138
-0.398301 -0.075616 -0.021508 138 138 138
-0.398332 -0.079018 -0.022139 138 138 138
-0.398378 -0.082425 -0.022777 138 138 138
-0.398425 -0.085828 -0.023413 138 138 138
-0.399213 -0.089702 -0.024371 138 138 138
-0.400137 -0.093656 -0.025386 138 138 138
-0.401205 -0.097695 -0.026462 138 138 138
-0.403821 -0.102712 -0.028207 138 138 138
-0.406480 -0.107745 -0.029968 138 138 138
-0.409334 -0.112888 -0.031811 138 138 138
-0.412089 -0.117956 -0.033610 138 138 138
-0.413823 -0.122368 -0.034965 138 138 138
-0.414658 -0.126204 -0.035930 138 138 138
-0.415536 -0.130059 -0.036912 138 138 138
-0.414711 -0.132842 -0.037160 138 138 138
-0.413625 -0.135460 -0.037294 138 138 138
-0.412539 -0.138077 -0.037429 138 138 138
-0.411454 -0.140693 -0.037564 138 138 138
-0.409651 -0.142864 -0.037390 138 138 138
-0.407144 -0.144600 -0.036914 138 138 138
-0.404448 -0.146222 -0.036357 138 138 138
-0.401582 -0.147744 -0.035728 138 138 138
-0.397852 -0.148739 -0.034729 138 138 138
-0.393438 -0.149322 -0.033438 138 138 138
-0.389613 -0.150275 -0.032402 138 138 138
-0.386095 -0.151422 -0.031498 138 138 138
-0.383329 -0.153032 -0.030916 138 138 138
-0.381878 -0.155444 -0.030898 138 138 138
-0.380648 -0.157991 -0.030974 138 138 138
-0.379418 -0.160536 -0.031050 138 138 138
-0.378111 -0.163035 -0.031093 138 138 138
-0.376780 -0.165519 -0.031125 138 138 138
-0.375449 -0.168003 -0.031158 138 138 138
-0.374118 -0.170487 -0.031191 138 138 138
-0.373485 -0.173387 -0.031520 138 138 138
-0.372735 -0.176215 -0.031800 138 138 138
-0.371985 -0.179041 -0.032079 138 138 138
-0.371250 -0.181874 -0.032364 138 138 138
-0.370626 -0.184771 -0.032696 138 138 138
-0.369579 -0.187416 -0.032848 138 138 138
-0.368140 -0.189829 -0.032833 138 138 138
-0.366700 -0.192242 -0.032818 138 138 138
-0.365192 -0.194616 -0.032775 138 138 138
-0.363522 -0.196895 -0.032663 138 138 138
-0.361895 -0.199200 -0.032569 138 138 138
-0.360336 -0.201545 -0.032504 138 138 138
-0.358792 -0.203899 -0.032445 138 138 138
-0.357594 -0.206454 -0.032533 138 138 138
-0.356131 -0.208855 -0.032509 138 138 138
-0.354179 -0.210976 -0.032278 138 138 138
-0.352226 -0.213097 -0.032048 138 138 138
-0.350274 -0.215221 -0.031818 138 138 138
-0.348049 -0.217191 -0.031474 138 138 138
-0.345383 -0.218912 -0.030945 138 138 138
-0.342803 -0.220686 -0.030452 138 138 138
-0.340055 -0.222368 -0.029890 138 138 138
-0.336908 -0.223829 -0.029161 138 138 138
-0.333849 -0.225344 -0.028469 138 138 138
-0.331128 -0.227053 -0.027920 138 138 138
-0.328395 -0.228760 -0.027367 138 138 138
-0.325657 -0.230468 -0.026813 138 138 138
-0.322943 -0.232192 -0.026269 138 138 138
-0.320649 -0.234155 -0.025901 138 138 138
-0.319317 -0.236653 -0.025936 138 138 138
-0.318487 -0.239428 -0.026181 138 138 138
-0.317413 -0.242066 -0.026323 138 138 138
-0.316339 -0.244704 -0.026465 138 138 138
-0.315342 -0.247384 -0.026639 138 138 138
-0.314482 -0.250136 -0.026870 138 138 138
-0.313632 -0.252893 -0.027105 138 138 138
-0.312899 -0.255712 -0.027388 138 138 138
-0.311786 -0.258323 -0.027513 138 138 138
-0.310615 -0.260901 -0.027613 138 138 138
-0.309472 -0.263494 -0.027725 138 138 138
-0.308350 -0.266098 -0.027846 138 138 138
-0.307250 -0.268712 -0.027975 138 138 138
-0.306189 -0.271346 -0.028121 138 138 138
-0.305137 -0.273985 -0.028270 138 138 138
-0.304086 -0.276623 -0.028420 138 138 138
-0.303052 -0.279269 -0.028576 138 138 138
-0.301988 -0.281897 -0.028719 138 138 138
