ply
format ascii 1.0
element vertex 1148
property float x
property float y
property float z
property uchar red
property uchar green
property uchar blue
end_header
0.061442 -0.325042 -0.196667 138 138 138
0.066004 -0.323542 -0.195651 138 138 138
0.070311 -0.322425 -0.194764 138 138 138
0.074589 -0.321362 -0.193895 138 138 138
0.078559 -0.320753 -0.193182 138 138 138
0.082101 -0.320770 -0.192683 138 138 138
0.085717 -0.320687 -0.192149 138 138 138
0.089347 -0.320591 -0.191610 138 138 138
0.093073 -0.320366 -0.191025 138 138 138
0.096833 -0.320099 -0.190426 138 138 138
0.100599 -0.319831 -0.189825 138 138 138
0.104683 -0.319120 -0.189070 138 138 138
0.108623 -0.318622 -0.188388 138 138 138
0.112592 -0.318092 -0.187694 138 138 138
0.116586 -0.317536 -0.186990 138 138 138
0.121285 -0.315997 -0.185944 138 138 138
0.126184 -0.314191 -0.184804 138 138 138
0.130836 -0.312746 -0.183788 138 138 138
0.135533 -0.311250 -0.182753 138 138 138
0.140310 -0.309656 -0.181683 138 138 138
0.144942 -0.308278 -0.180686 138 138 138
0.149619 -0.306850 -0.179671 138 138 138
0.154360 -0.305346 -0.178628 138 138 138
0.160023 -0.302580 -0.177143 138 138 138
0.165727 -0.299778 -0.175644 138 138 138
0.171278 -0.297204 -0.174222 138 138 138
0.176337 -0.295326 -0.173042 138 138 138
0.181433 -0.293409 -0.171847 138 138 138
0.186592 -0.291423 -0.170626 138 138 138
0.191787 -0.289403 -0.169391 138 138 138
0.197174 -0.287137 -0.168069 138 138 138
0.202969 -0.284333 -0.166556 138 138 138
0.208756 -0.281560 -0.165052 138 138 138
0.215067 -0.278096 -0.163304 138 138 138
0.222135 -0.273634 -0.161203 139 139 139
0.236483 -0.259400 -0.155664 140 140 140
0.248157 -0.248825 -0.151405 138 138 138
0.256746 -0.242437 -0.148614 138 138 138
0.263659 -0.238325 -0.146621 138 138 138
0.269235 -0.236022 -0.145262 138 138 138
0.275214 -0.233198 -0.143719 138 138 138
0.281632 -0.229811 -0.141974 138 138 138
0.288366 -0.226028 -0.140088 138 138 138
0.296023 -0.221044 -0.137774 138 138 138
0.310982 -0.206454 -0.132061 138 138 138
0.322802 -0.196067 -0.127828 138 138 138
0.337458 -0.182006 -0.122288 100 100 100
-0.308239 0.162872 -0.132443 138 138 138
-0.308869 0.153491 -0.134830 138 138 138
-0.308997 0.145312 -0.136852 138 138 138
-0.308809 0.137898 -0.138642 138 138 138
-0.308382 0.131064 -0.140256 138 138 138
-0.307990 0.124182 -0.141887 138 138 138
-0.307934 0.116562 -0.143746 138 138 138
-0.307950 0.108816 -0.145646 138 138 138
-0.308201 0.100571 -0.147702 138 138 138
-0.307692 0.094080 -0.149220 138 138 138
-0.307289 0.087380 -0.150805 138 138 138
-0.306736 0.081044 -0.152279 138 138 138
-0.306691 0.073599 -0.154097 138 138 138
-0.307752 0.063715 -0.156669 138 138 138
-0.311526 0.047836 -0.161093 138 138 138
-0.314289 0.034280 -0.164805 138 138 138
-0.314955 0.025441 -0.167065 138 138 138
-0.314617 0.018859 -0.168630 138 138 138
-0.314108 0.012681 -0.170072 138 138 138
-0.313498 0.006752 -0.171438 138 138 138
-0.312979 0.000648 -0.172860 138 138 138
-0.312395 -0.005288 -0.174232 138 138 138
-0.312121 -0.011875 -0.175807 138 138 138
-0.311977 -0.018717 -0.177463 138 138 138
-0.312103 -0.026113 -0.179293 138 138 138
-0.313019 -0.035183 -0.181645 138 138 138
-0.315417 -0.047406 -0.184979 138 138 138
-0.317288 -0.058435 -0.187946 138 138 138
-0.320642 -0.072593 -0.191889 138 138 138
-0.321886 -0.082170 -0.194412 138 138 138
-0.321906 -0.089093 -0.196111 138 138 138
-0.320577 -0.093122 -0.196910 138 138 138
-0.319082 -0.096785 -0.197596 138 138 138
-0.317567 -0.100392 -0.198265 138 138 138
-0.315453 -0.102725 -0.198538 138 138 138
-0.313170 -0.104700 -0.198699 138 138 138
-0.310848 -0.106588 -0.198833 138 138 138
-0.308526 -0.108475 -0.198967 138 138 138
-0.306150 -0.110248 -0.199065 138 138 138
-0.303627 -0.111712 -0.199067 138 138 138
-0.301094 -0.113155 -0.199062 138 138 138
-0.298764 -0.115019 -0.199189 138 138 138
-0.296459 -0.116933 -0.199332 138 138 138
-0.294164 -0.118864 -0.199481 138 138 138
-0.292175 -0.121420 -0.199826 138 138 138
-0.290258 -0.124119 -0.200216 138 138 138
-0.288428 -0.126986 -0.200660 138 138 138
-0.286816 -0.130291 -0.201241 138 138 138
-0.285072 -0.133317 -0.201736 138 138 138
-0.283330 -0.136340 -0.202230 138 138 138
-0.281571 -0.139322 -0.202712 138 138 138
-0.279598 -0.141863 -0.203056 138 138 138
-0.277642 -0.144430 -0.203408 138 138 138
-0.275686 -0.146996 -0.203760 138 138 138
-0.273415 -0.148922 -0.203910 138 138 138
-0.270842 -0.150248 -0.203871 138 138 138
-0.268267 -0.151568 -0.203831 138 138 138
-0.265700 -0.152906 -0.203795 138 138 138
-0.263615 -0.155195 -0.204061 138 138 138
-0.261383 -0.157192 -0.204235 138 138 138
-0.258923 -0.158738 -0.204265 138 138 138
-0.256737 -0.160821 -0.204467 138 138 138
-0.254553 -0.162903 -0.204668 138 138 138
-0.252273 -0.164795 -0.204809 138 138 138
-0.249853 -0.166412 -0.204863 138 138 138
-0.247546 -0.168248 -0.204986 138 138 138
-0.245344 -0.170285 -0.205174 138 138 138
-0.243182 -0.172397 -0.205385 138 138 138
-0.241329 -0.175100 -0.205786 138 138 138
-0.239434 -0.177715 -0.206158 138 138 138
-0.237398 -0.180054 -0.206443 138 138 138
-0.235443 -0.182544 -0.206777 138 138 138
-0.233490 -0.185033 -0.207110 138 138 138
-0.231522 -0.187485 -0.207433 138 138 138
-0.229690 -0.190192 -0.207837 138 138 138
-0.227859 -0.192896 -0.208240 138 138 138
-0.226101 -0.195728 -0.208686 138 138 138
-0.224373 -0.198612 -0.209148 138 138 138
-0.222535 -0.201281 -0.209542 138 138 138
-0.220695 -0.203939 -0.209933 138 138 138
-0.218856 -0.206594 -0.210323 138 138 138
-0.216946 -0.209110 -0.210669 138 138 138
-0.214917 -0.211399 -0.210943 138 138 138
-0.212929 -0.213760 -0.211240 138 138 138
-0.210942 -0.216119 -0.211537 138 138 138
-0.208900 -0.218371 -0.211800 138 138 138
-0.206815 -0.220540 -0.212037 138 138 138
-0.204742 -0.222728 -0.212279 138 138 138
-0.202671 -0.224914 -0.212522 138 138 138
-0.200600 -0.227099 -0.212765 138 138 138
-0.198494 -0.229214 -0.212985 138 138 138
-0.196388 -0.231327 -0.213205 138 138 138
-0.194284 -0.233440 -0.213425 138 138 138
-0.192181 -0.235550 -0.213644 138 138 138
-0.190011 -0.237537 -0.213824 138 138 138
-0.187810 -0.239466 -0.213986 138 138 138
-0.185608 -0.241390 -0.214145 138 138 138
-0.183394 -0.243291 -0.214298 138 138 138
-0.181229 -0.245276 -0.214478 138 138 138
-0.179250 -0.247591 -0.214765 138 138 138
-0.177392 -0.250114 -0.215120 138 138 138
-0.175496 -0.252565 -0.215453 138 138 138
-0.173655 -0.255109 -0.215816 138 138 138
-0.171899 -0.257797 -0.216226 138 138 138
-0.170180 -0.260544 -0.216656 138 138 138
-0.168440 -0.263246 -0.217072 138 138 138
-0.166659 -0.265872 -0.217463 138 138 138
-0.165314 -0.269251 -0.218101 138 138 138
-0.163811 -0.272347 -0.218647 138 138 138
-0.162310 -0.275438 -0.219192 138 138 138
-0.160892 -0.278664 -0.219782 138 138 138
-0.159563 -0.282034 -0.220419 138 138 138
-0.158378 -0.285644 -0.221136 138 138 138
-0.156764 -0.288506 -0.221609 138 138 138
-0.154969 -0.291049 -0.221978 138 138 138
-0.153175 -0.293591 -0.222347 138 138 138
-0.151377 -0.296118 -0.222712 138 138 138
-0.149242 -0.298066 -0.222887 138 138 138
-0.147080 -0.299966 -0.223047 138 138 138
-0.144867 -0.301778 -0.223178 138 138 138
-0.142649 -0.303580 -0.223306 138 138 138
-0.140433 -0.305382 -0.223434 138 138 138
-0.138140 -0.307054 -0.223519 138 138 138
-0.135792 -0.308631 -0.223574 138 138 138
-0.133304 -0.309973 -0.223550 138 138 138
-0.130931 -0.311509 -0.223591 138 138 138
-0.128563 -0.313050 -0.223634 138 138 138
-0.126196 -0.314593 -0.223677 138 138 138
-0.123930 -0.316305 -0.223776 138 138 138
-0.121715 -0.318098 -0.223902 138 138 138
-0.119459 -0.319821 -0.224005 138 138 138
-0.116982 -0.321179 -0.223987 138 138 138
-0.114853 -0.323111 -0.224159 138 138 138
-0.112653 -0.324923 -0.224292 138 138 138
-0.110154 -0.326243 -0.224262 138 138 138
-0.107724 -0.327677 -0.224270 138 138 138
-0.105426 -0.329325 -0.224348 138 138 138
-0.103128 -0.330972 -0.224427 138 138 138
-0.100490 -0.332068 -0.224322 138 138 138
-0.097785 -0.333058 -0.224182 138 138 138
-0.095018 -0.333948 -0.224009 138 138 138
-0.092327 -0.334964 -0.223877 138 138 138
-0.089671 -0.336038 -0.223764 138 138 138
-0.087039 -0.337153 -0.223665 138 138 138
-0.084063 -0.337718 -0.223383 138 138 138
-0.078944 -0.334876 -0.221962 139 139 139
-0.073310 -0.331236 -0.220273 139 139 139
-0.067536 -0.327397 -0.218516 138 138 138
-0.063348 -0.326092 -0.217604 138 138 138
-0.059172 -0.324817 -0.216701 138 138 138
-0.055264 -0.323978 -0.215942 138 138 138
-0.051349 -0.323137 -0.215183 138 138 138
-0.047889 -0.323019 -0.214664 138 138 138
-0.044650 -0.323256 -0.214264 138 138 138
-0.041521 -0.323669 -0.213922 138 138 138
-0.038389 -0.324082 -0.213581 138 138 138
-0.035255 -0.324494 -0.213238 138 138 138
-0.032147 -0.324955 -0.212912 138 138 138
-0.029312 -0.325839 -0.212727 138 138 138
-0.026475 -0.326724 -0.212543 138 138 138
-0.023646 -0.327625 -0.212363 138 138 138
-0.020818 -0.328528 -0.212184 138 138 138
-0.017988 -0.329431 -0.212005 138 138 138
-0.015197 -0.330397 -0.211847 138 138 138
-0.012376 -0.331318 -0.211674 138 138 138
-0.009552 -0.332238 -0.211500 138 138 138
-0.006566 -0.332913 -0.211243 138 138 138
-0.003548 -0.333545 -0.210971 138 138 138
-0.000518 -0.334162 -0.210693 138 138 138
0.002562 -0.334707 -0.210391 138 138 138
0.005591 -0.335334 -0.210116 138 138 138
0.008544 -0.336076 -0.209880 138 138 138
0.011639 -0.336612 -0.209574 138 138 138
0.014956 -0.336818 -0.209155 138 138 138
0.018297 -0.336996 -0.208726 138 138 138
0.021776 -0.336974 -0.208228 138 138 138
0.025397 -0.336748 -0.207661 138 138 138
0.030068 -0.334977 -0.206566 138 138 138
0.034585 -0.333449 -0.205553 138 138 138
0.039672 -0.331096 -0.204257 138 138 138
0.045375 -0.327853 -0.202656 138 138 138
0.050022 -0.326180 -0.201588 138 138 138
0.054524 -0.324734 -0.200597 138 138 138
0.059179 -0.323077 -0.199533 138 138 138
0.063823 -0.321451 -0.198477 138 138 138
0.068194 -0.320233 -0.197561 138 138 138
0.072634 -0.318929 -0.196613 138 138 138
0.076622 -0.318290 -0.195892 138 138 138
0.080127 -0.318358 -0.195413 138 138 138
0.083678 -0.318365 -0.194913 138 138 138
0.087289 -0.318293 -0.194384 138 138 138
0.090942 -0.318167 -0.193837 138 138 138
0.094619 -0.318016 -0.193279 138 138 138
0.098301 -0.317863 -0.192721 138 138 138
0.102012 -0.317677 -0.192151 138 138 138
0.105955 -0.317169 -0.191468 138 138 138
0.109937 -0.316614 -0.190769 138 138 138
0.113927 -0.316057 -0.190068 138 138 138
0.118185 -0.315131 -0.189239 138 138 138
0.122891 -0.313585 -0.188195 138 138 138
0.127824 -0.311736 -0.187044 138 138 138
0.132523 -0.310228 -0.186009 138 138 138
0.137211 -0.308747 -0.184983 138 138 138
0.141809 -0.307406 -0.184004 138 138 138
0.146462 -0.306002 -0.183002 138 138 138
0.151127 -0.304595 -0.181998 138 138 138
0.156108 -0.302760 -0.180843 138 138 138
0.161539 -0.300320 -0.179477 138 138 138
0.167241 -0.297523 -0.177985 138 138 138
0.172669 -0.295122 -0.176629 138 138 138
0.177980 -0.292899 -0.175333 138 138 138
0.183104 -0.290948 -0.174131 138 138 138
0.188241 -0.288995 -0.172925 138 138 138
0.193641 -0.286699 -0.171599 138 138 138
0.199144 -0.284279 -0.170228 138 138 138
0.204784 -0.281690 -0.168795 138 138 138
0.210581 -0.278907 -0.167293 138 138 138
0.216951 -0.275366 -0.165525 138 138 138
0.224283 -0.270552 -0.163308 141 141 141
0.240375 -0.253973 -0.156970 142 142 142
0.251918 -0.243583 -0.152791 138 138 138
0.260503 -0.237209 -0.150015 138 138 138
0.266297 -0.234604 -0.148557 138 138 138
0.272171 -0.231909 -0.147066 138 138 138
0.278464 -0.228674 -0.145383 138 138 138
0.284870 -0.225311 -0.143653 138 138 138
0.291989 -0.221023 -0.141595 138 138 138
0.309727 -0.202714 -0.134600 138 138 138
0.320312 -0.193933 -0.130951 138 138 138
0.332903 -0.182555 -0.126382 138 138 138
-0.304243 0.171841 -0.132978 138 138 138
-0.305599 0.160760 -0.135873 138 138 138
-0.305682 0.152668 -0.137860 138 138 138
-0.305680 0.144807 -0.139778 138 138 138
-0.305461 0.137481 -0.141535 138 138 138
-0.305375 0.129884 -0.143377 138 138 138
-0.305762 0.121241 -0.145541 138 138 138
-0.306062 0.112840 -0.147633 138 138 138
-0.306674 0.103767 -0.149934 138 138 138
-0.306341 0.096874 -0.151569 138 138 138
-0.306043 0.089931 -0.153222 138 138 138
-0.305520 0.083526 -0.154711 138 138 138
-0.305394 0.076256 -0.156468 138 138 138
-0.305955 0.067487 -0.158687 138 138 138
-0.308646 0.054012 -0.162355 138 138 138
-0.311962 0.039216 -0.166433 138 138 138
-0.312932 0.029688 -0.168895 138 138 138
-0.312783 0.022681 -0.170585 138 138 138
-0.312393 0.016233 -0.172103 138 138 138
-0.311786 0.010291 -0.173468 138 138 138
-0.311312 0.004082 -0.174917 138 138 138
-0.310766 -0.001945 -0.176310 138 138 138
-0.310423 -0.008388 -0.177835 138 138 138
-0.310206 -0.015077 -0.179436 138 138 138
-0.309987 -0.021733 -0.181030 138 138 138
-0.309924 -0.028700 -0.182722 138 138 138
-0.310993 -0.038072 -0.185160 138 138 138
-0.313470 -0.050428 -0.188524 138 138 138
-0.317099 -0.065192 -0.192639 138 138 138
-0.319749 -0.077791 -0.196087 138 138 138
-0.320139 -0.085512 -0.198027 138 138 138
-0.319521 -0.091059 -0.199293 138 138 138
-0.318038 -0.094750 -0.199985 138 138 138
-0.316522 -0.098360 -0.200652 138 138 138
-0.314511 -0.100914 -0.200992 138 138 138
-0.312321 -0.103085 -0.201214 138 138 138
-0.310091 -0.105170 -0.201408 138 138 138
-0.307770 -0.107060 -0.201543 138 138 138
-0.305421 -0.108891 -0.201658 138 138 138
-0.302870 -0.110298 -0.201642 138 138 138
-0.300358 -0.111787 -0.201652 138 138 138
-0.298082 -0.113763 -0.201813 138 138 138
-0.295874 -0.115878 -0.202018 138 138 138
-0.293555 -0.117760 -0.202151 138 138 138
-0.291605 -0.120397 -0.202520 138 138 138
-0.289773 -0.123269 -0.202963 138 138 138
-0.288096 -0.126451 -0.203503 138 138 138
-0.286476 -0.129738 -0.204077 138 138 138
-0.284732 -0.132765 -0.204570 138 138 138
-0.283042 -0.135893 -0.205095 138 138 138
-0.281288 -0.138882 -0.205577 138 138 138
-0.279342 -0.141476 -0.205937 138 138 138
-0.277388 -0.144048 -0.206289 138 138 138
-0.275434 -0.146613 -0.206640 138 138 138
-0.273112 -0.148439 -0.206758 138 138 138
-0.270537 -0.149759 -0.206717 138 138 138
-0.268029 -0.151212 -0.206718 138 138 138
-0.265440 -0.152506 -0.206669 138 138 138
-0.262351 -0.152810 -0.206308 138 138 138
-0.259930 -0.154439 -0.206365 138 138 138
-0.257500 -0.156046 -0.206415 138 138 138
-0.254851 -0.157226 -0.206329 138 138 138
-0.252633 -0.159249 -0.206511 138 138 138
-0.250258 -0.160964 -0.206594 138 138 138
-0.248083 -0.163067 -0.206801 138 138 138
-0.245910 -0.165169 -0.207008 138 138 138
-0.243775 -0.167342 -0.207237 138 138 138
-0.241858 -0.169931 -0.207599 138 138 138
-0.240111 -0.172842 -0.208064 138 138 138
-0.238199 -0.175430 -0.208426 138 138 138
-0.236206 -0.177855 -0.208737 138 138 138
-0.234251 -0.180348 -0.209070 138 138 138
-0.232297 -0.182838 -0.209402 138 138 138
-0.230409 -0.185447 -0.209773 138 138 138
-0.228637 -0.188271 -0.210212 138 138 138
-0.226902 -0.191158 -0.210673 138 138 138
-0.225169 -0.194041 -0.211132 138 138 138
-0.223475 -0.196990 -0.211613 138 138 138
-0.221727 -0.199830 -0.212060 138 138 138
-0.219910 -0.202533 -0.212463 138 138 138
-0.218071 -0.205189 -0.212853 138 138 138
-0.216175 -0.207734 -0.213207 138 138 138
-0.214242 -0.210202 -0.213537 138 138 138
-0.212266 -0.212586 -0.213840 138 138 138
-0.210234 -0.214863 -0.214109 138 138 138
-0.208142 -0.217025 -0.214342 138 138 138
-0.206067 -0.219213 -0.214584 138 138 138
-0.203993 -0.221399 -0.214825 138 138 138
-0.201920 -0.223585 -0.215066 138 138 138
-0.199880 -0.225826 -0.215326 138 138 138
-0.197864 -0.228108 -0.215599 138 138 138
-0.195812 -0.230319 -0.215849 138 138 138
-0.193725 -0.232463 -0.216079 138 138 138
-0.191640 -0.234607 -0.216308 138 138 138
-0.189529 -0.236701 -0.216522 138 138 138
-0.187331 -0.238635 -0.216684 138 138 138
-0.185133 -0.240566 -0.216846 138 138 138
-0.182916 -0.242461 -0.216996 138 138 138
-0.180667 -0.244296 -0.217127 138 138 138
-0.178666 -0.246573 -0.217400 138 138 138
-0.176759 -0.249010 -0.217727 138 138 138
-0.174898 -0.251524 -0.218078 138 138 138
-0.173089 -0.254125 -0.218458 138 138 138
-0.171375 -0.256886 -0.218890 138 138 138
-0.169664 -0.259649 -0.219323 138 138 138
-0.167879 -0.262272 -0.219712 138 138 138
-0.166086 -0.264878 -0.220095 138 138 138
-0.164416 -0.267691 -0.220547 138 138 138
-0.162914 -0.270789 -0.221091 138 138 138
-0.161414 -0.273883 -0.221635 138 138 138
-0.160052 -0.277209 -0.222255 138 138 138
-0.158553 -0.280288 -0.222795 138 138 138
-0.157240 -0.283680 -0.223438 138 138 138
-0.155742 -0.286743 -0.223974 138 138 138
-0.153946 -0.289289 -0.224342 138 138 138
-0.152153 -0.291832 -0.224710 138 138 138
-0.150347 -0.294349 -0.225070 138 138 138
-0.148341 -0.296520 -0.225317 138 138 138
-0.146121 -0.298323 -0.225444 138 138 138
-0.143902 -0.300126 -0.225572 138 138 138
-0.141684 -0.301930 -0.225700 138 138 138
-0.139467 -0.303732 -0.225827 138 138 138
-0.137201 -0.305452 -0.225928 138 138 138
-0.134880 -0.307076 -0.225997 138 138 138
-0.132555 -0.308693 -0.226064 138 138 138
-0.130209 -0.310275 -0.226120 138 138 138
-0.127841 -0.311819 -0.226163 138 138 138
-0.125474 -0.313362 -0.226206 138 138 138
-0.123196 -0.315055 -0.226298 138 138 138
-0.120981 -0.316849 -0.226423 138 138 138
-0.118766 -0.318642 -0.226549 138 138 138
-0.116552 -0.320434 -0.226675 138 138 138
-0.114368 -0.322274 -0.226816 138 138 138
-0.112129 -0.324021 -0.226927 138 138 138
-0.109726 -0.325500 -0.226949 138 138 138
-0.107268 -0.326888 -0.226941 138 138 138
-0.104969 -0.328535 -0.227020 138 138 138
-0.102672 -0.330183 -0.227098 138 138 138
-0.100374 -0.331830 -0.227176 138 138 138
-0.097820 -0.333062 -0.227117 138 138 138
-0.095131 -0.334077 -0.226986 138 138 138
-0.092442 -0.335093 -0.226855 138 138 138
-0.089772 -0.336142 -0.226735 138 138 138
-0.087141 -0.337256 -0.226636 138 138 138
-0.084384 -0.338169 -0.226470 138 138 138
-0.080076 -0.336616 -0.225484 138 138 138
-0.074462 -0.333001 -0.223811 138 138 138
-0.067284 -0.326932 -0.221318 138 138 138
-0.061907 -0.323745 -0.219783 138 138 138
-0.057965 -0.322844 -0.219007 138 138 138
-0.054055 -0.322003 -0.218251 138 138 138
-0.050139 -0.321164 -0.217494 138 138 138
-0.046430 -0.320660 -0.216849 138 138 138
-0.043306 -0.321079 -0.216511 138 138 138
-0.040183 -0.321503 -0.216175 138 138 138
-0.037056 -0.321928 -0.215838 138 138 138
-0.033975 -0.322427 -0.215525 138 138 138
-0.031094 -0.323241 -0.215318 138 138 138
-0.028239 -0.324098 -0.215125 138 138 138
-0.025379 -0.324950 -0.214930 138 138 138
-0.022543 -0.325841 -0.214748 138 138 138
-0.019731 -0.326771 -0.214578 138 138 138
-0.017053 -0.327909 -0.214479 138 138 138
-0.014248 -0.328854 -0.214314 138 138 138
-0.011436 -0.329791 -0.214147 138 138 138
-0.008612 -0.330712 -0.213973 138 138 138
-0.005605 -0.331359 -0.213708 138 138 138
-0.002575 -0.331974 -0.213431 138 138 138
0.000458 -0.332588 -0.213153 138 138 138
0.003493 -0.333202 -0.212875 138 138 138
0.006559 -0.333774 -0.212583 138 138 138
0.009670 -0.334283 -0.212269 138 138 138
0.012987 -0.334488 -0.211852 138 138 138
0.016307 -0.334694 -0.211434 138 138 138
0.019631 -0.334899 -0.211016 138 138 138
0.023084 -0.334918 -0.210534 138 138 138
0.027751 -0.333145 -0.209444 138 138 138
0.032387 -0.331434 -0.208373 138 138 138
0.037444 -0.329114 -0.207094 138 138 138
0.042990 -0.326092 -0.205575 138 138 138
0.048016 -0.323854 -0.204320 138 138 138
0.052609 -0.322267 -0.203286 138 138 138
0.056956 -0.321055 -0.202378 138 138 138
0.061558 -0.319481 -0.201345 138 138 138
0.066013 -0.318135 -0.200389 138 138 138
0.070389 -0.316917 -0.199475 138 138 138
0.074609 -0.315937 -0.198641 138 138 138
0.078189 -0.315892 -0.198126 138 138 138
0.081697 -0.315959 -0.197648 138 138 138
0.085257 -0.315957 -0.197146 138 138 138
0.088697 -0.316134 -0.196704 138 138 138
0.092110 -0.316356 -0.196277 138 138 138
0.095772 -0.316226 -0.195730 138 138 138
0.099460 -0.316068 -0.195171 138 138 138
0.103308 -0.315689 -0.194537 138 138 138
0.107274 -0.315150 -0.193846 138 138 138
0.111269 -0.314579 -0.193144 138 138 138
0.115386 -0.313846 -0.192385 138 138 138
0.119870 -0.312604 -0.191450 138 138 138
0.124793 -0.310757 -0.190306 138 138 138
0.129826 -0.308771 -0.189112 138 138 138
0.134558 -0.307221 -0.188067 138 138 138
0.139112 -0.305934 -0.187111 138 138 138
0.143412 -0.305012 -0.186280 138 138 138
0.147946 -0.303777 -0.185340 138 138 138
0.152812 -0.302092 -0.184243 138 138 138
0.157905 -0.300107 -0.183041 138 138 138
0.163059 -0.298053 -0.181813 138 138 138
0.168628 -0.295443 -0.180391 138 138 138
0.174226 -0.292811 -0.178960 138 138 138
0.179548 -0.290575 -0.177665 138 138 138
0.184703 -0.288586 -0.176453 138 138 138
0.189999 -0.286418 -0.175178 138 138 138
0.195459 -0.284043 -0.173829 138 138 138
0.200878 -0.281742 -0.172503 138 138 138
0.206572 -0.279083 -0.171052 138 138 138
0.212426 -0.276226 -0.169530 138 138 138
0.218792 -0.272695 -0.167771 138 138 138
0.228137 -0.265167 -0.164617 141 141 141
0.243264 -0.249897 -0.158759 143 143 143
0.256302 -0.237505 -0.153897 138 138 138
0.263324 -0.233237 -0.151866 138 138 138
0.269178 -0.230556 -0.150387 138 138 138
0.275447 -0.227341 -0.148719 138 138 138
0.281773 -0.224071 -0.147030 138 138 138
0.288243 -0.220629 -0.145278 138 138 138
0.299871 -0.210372 -0.141136 138 138 138
0.319543 -0.189525 -0.133276 138 138 138
0.329696 -0.181340 -0.129848 138 138 138
-0.296630 0.189195 -0.130985 100 100 100
-0.302571 0.167469 -0.137101 138 138 138
-0.302769 0.159096 -0.139164 138 138 138
-0.302495 0.151846 -0.140888 138 138 138
-0.302314 0.144415 -0.142669 138 138 138
-0.302113 0.137064 -0.144428 138 138 138
-0.302355 0.128734 -0.146487 138 138 138
-0.303054 0.119406 -0.148853 138 138 138
-0.304834 0.107674 -0.151955 138 138 138
-0.304987 0.099673 -0.153922 138 138 138
-0.304796 0.092486 -0.155642 138 138 138
-0.304301 0.086011 -0.157147 138 138 138
-0.304096 0.078916 -0.158842 138 138 138
-0.304359 0.070806 -0.160851 138 138 138
-0.306095 0.059452 -0.163855 138 138 138
-0.309412 0.044643 -0.167920 138 138 138
-0.310683 0.034439 -0.170580 138 138 138
-0.311032 0.026319 -0.172602 138 138 138
-0.310645 0.019860 -0.174118 138 138 138
-0.310070 0.013838 -0.175502 138 138 138
-0.309501 0.007830 -0.176882 138 138 138
-0.309156 0.001356 -0.178408 138 138 138
-0.308721 -0.004894 -0.179866 138 138 138
-0.308529 -0.011643 -0.181480 138 138 138
-0.308307 -0.018301 -0.183067 138 138 138
-0.307995 -0.024736 -0.184588 138 138 138
-0.308086 -0.032009 -0.186369 138 138 138
-0.309553 -0.042209 -0.189054 138 138 138
-0.311984 -0.054425 -0.192365 138 138 138
-0.316627 -0.071309 -0.197122 138 138 138
-0.318359 -0.081906 -0.199941 138 138 138
-0.318318 -0.088686 -0.201583 138 138 138
-0.316993 -0.092716 -0.202377 138 138 138
-0.315458 -0.096287 -0.203030 138 138 138
-0.313569 -0.099101 -0.203449 138 138 138
-0.311377 -0.101273 -0.203669 138 138 138
-0.309188 -0.103444 -0.203890 138 138 138
-0.306999 -0.105614 -0.204110 138 138 138
-0.304636 -0.107417 -0.204217 138 138 138
-0.302075 -0.108805 -0.204195 138 138 138
-0.299651 -0.110479 -0.204261 138 138 138
-0.297372 -0.112451 -0.204421 138 138 138
-0.295250 -0.114744 -0.204680 138 138 138
-0.292985 -0.116737 -0.204847 138 138 138
-0.291108 -0.119526 -0.205262 138 138 138
-0.289287 -0.122420 -0.205709 138 138 138
-0.287802 -0.125993 -0.206370 138 138 138
-0.286194 -0.129303 -0.206949 138 138 138
-0.284507 -0.132445 -0.207476 138 138 138
-0.282822 -0.135582 -0.208002 138 138 138
-0.281008 -0.138446 -0.208444 138 138 138
-0.279062 -0.141041 -0.208801 138 138 138
-0.277119 -0.143634 -0.209159 138 138 138
-0.275177 -0.146224 -0.209516 138 138 138
-0.272912 -0.148162 -0.209669 138 138 138
-0.270500 -0.149804 -0.209730 138 138 138
-0.268081 -0.151432 -0.209786 138 138 138
-0.264994 -0.151736 -0.209427 138 138 138
-0.261905 -0.152040 -0.209067 138 138 138
-0.258812 -0.152344 -0.208707 138 138 138
-0.256188 -0.153575 -0.208638 138 138 138
-0.253471 -0.154626 -0.208512 138 138 138
-0.251113 -0.156379 -0.208607 138 138 138
-0.248982 -0.158575 -0.208842 138 138 138
-0.246815 -0.160697 -0.209054 138 138 138
-0.244649 -0.162818 -0.209265 138 138 138
-0.242485 -0.164938 -0.209477 138 138 138
-0.240638 -0.167666 -0.209881 138 138 138
-0.238891 -0.170581 -0.210344 138 138 138
-0.236957 -0.173129 -0.210692 138 138 138
-0.235014 -0.175656 -0.211034 138 138 138
-0.233181 -0.178385 -0.211440 138 138 138
-0.231349 -0.181111 -0.211846 138 138 138
-0.229519 -0.183833 -0.212251 138 138 138
-0.227731 -0.186628 -0.212679 138 138 138
-0.225978 -0.189483 -0.213127 138 138 138
-0.224237 -0.192353 -0.213581 138 138 138
-0.222514 -0.195250 -0.214043 138 138 138
-0.220853 -0.198256 -0.214540 138 138 138
-0.219082 -0.201047 -0.214971 138 138 138
-0.217285 -0.203784 -0.215384 138 138 138
-0.215399 -0.206348 -0.215742 138 138 138
-0.213466 -0.208818 -0.216071 138 138 138
-0.211504 -0.211230 -0.216382 138 138 138
-0.209539 -0.213632 -0.216690 138 138 138
-0.207442 -0.215784 -0.216919 138 138 138
-0.205315 -0.217878 -0.217130 138 138 138
-0.203240 -0.220066 -0.217371 138 138 138
-0.201167 -0.222252 -0.217611 138 138 138
-0.199153 -0.224542 -0.217885 138 138 138
-0.197138 -0.226825 -0.218157 138 138 138
-0.195123 -0.229106 -0.218429 138 138 138
-0.193115 -0.231393 -0.218703 138 138 138
-0.191038 -0.233554 -0.218937 138 138 138
-0.188966 -0.235718 -0.219172 138 138 138
-0.186827 -0.237759 -0.219368 138 138 138
-0.184654 -0.239735 -0.219544 138 138 138
-0.182457 -0.241667 -0.219705 138 138 138
-0.180225 -0.243531 -0.219845 138 138 138
-0.178126 -0.245632 -0.220061 138 138 138
-0.176154 -0.247956 -0.220349 138 138 138
-0.174372 -0.250611 -0.220744 138 138 138
-0.172593 -0.253263 -0.221139 138 138 138
-0.170886 -0.256038 -0.221574 138 138 138
-0.169103 -0.258673 -0.221965 138 138 138
-0.167311 -0.261286 -0.222348 138 138 138
-0.165499 -0.263858 -0.222719 138 138 138
-0.163772 -0.266573 -0.223137 138 138 138
-0.162048 -0.269287 -0.223555 138 138 138
-0.160516 -0.272327 -0.224079 138 138 138
-0.159129 -0.275611 -0.224683 138 138 138
-0.157713 -0.278834 -0.225267 138 138 138
-0.156216 -0.281911 -0.225805 138 138 138
-0.154719 -0.284979 -0.226341 138 138 138
-0.152903 -0.287491 -0.226697 138 138 138
-0.151044 -0.289926 -0.227028 138 138 138
-0.149187 -0.292358 -0.227358 138 138 138
-0.147272 -0.294686 -0.227656 138 138 138
-0.145182 -0.296714 -0.227855 138 138 138
-0.142964 -0.298520 -0.227983 138 138 138
-0.140730 -0.300298 -0.228102 138 138 138
-0.138500 -0.302082 -0.228222 138 138 138
-0.136262 -0.303849 -0.228338 138 138 138
-0.133912 -0.305428 -0.228392 138 138 138
-0.131583 -0.307041 -0.228457 138 138 138
-0.129394 -0.308885 -0.228598 138 138 138
-0.127119 -0.310586 -0.228692 138 138 138
-0.124751 -0.312130 -0.228735 138 138 138
-0.122462 -0.313804 -0.228821 138 138 138
-0.120246 -0.315598 -0.228946 138 138 138
-0.118025 -0.317383 -0.229068 138 138 138
-0.115810 -0.319174 -0.229193 138 138 138
-0.113711 -0.321155 -0.229380 138 138 138
-0.111586 -0.323090 -0.229552 138 138 138
-0.109269 -0.324710 -0.229621 138 138 138
-0.106812 -0.326099 -0.229613 138 138 138
-0.104513 -0.327747 -0.229691 138 138 138
-0.102215 -0.329394 -0.229769 138 138 138
-0.099731 -0.330739 -0.229748 138 138 138
-0.097355 -0.332258 -0.229783 138 138 138
-0.095237 -0.334193 -0.229957 138 138 138
-0.092556 -0.335222 -0.229830 138 138 138
-0.089872 -0.336246 -0.229703 138 138 138
-0.087243 -0.337360 -0.229604 138 138 138
-0.083886 -0.337314 -0.229122 138 138 138
-0.080278 -0.336875 -0.228509 138 138 138
-0.075909 -0.335236 -0.227497 138 138 138
-0.066814 -0.326121 -0.224005 138 138 138
-0.060813 -0.321947 -0.222148 138 138 138
-0.056768 -0.320886 -0.221322 138 138 138
-0.052857 -0.320046 -0.220569 138 138 138
-0.049077 -0.319423 -0.219887 138 138 138
-0.045521 -0.319161 -0.219324 138 138 138
-0.042003 -0.318966 -0.218783 138 138 138
-0.038877 -0.319389 -0.218447 138 138 138
-0.035827 -0.319935 -0.218152 138 138 138
-0.032921 -0.320711 -0.217932 138 138 138
-0.030048 -0.321539 -0.217731 138 138 138
-0.027206 -0.322417 -0.217545 138 138 138
-0.024350 -0.323278 -0.217354 138 138 138
-0.021508 -0.324160 -0.217169 138 138 138
-0.018873 -0.325365 -0.217092 138 138 138
-0.016097 -0.326355 -0.216943 138 138 138
-0.013291 -0.327300 -0.216779 138 138 138
-0.010483 -0.328245 -0.216615 138 138 138
-0.007662 -0.329173 -0.216444 138 138 138
-0.004633 -0.329788 -0.216169 138 138 138
-0.001602 -0.330401 -0.215892 138 138 138
0.001432 -0.331016 -0.215616 138 138 138
0.004501 -0.331582 -0.215323 138 138 138
0.007644 -0.332040 -0.214993 138 138 138
0.010911 -0.332316 -0.214602 138 138 138
0.014202 -0.332563 -0.214200 138 138 138
0.017496 -0.332810 -0.213798 138 138 138
0.020798 -0.333051 -0.213393 138 138 138
0.025000 -0.331960 -0.212538 138 138 138
0.029503 -0.330435 -0.211535 138 138 138
0.034704 -0.327891 -0.210186 138 138 138
0.040550 -0.324415 -0.208521 138 138 138
0.046010 -0.321527 -0.207053 138 138 138
0.050601 -0.319937 -0.206022 138 138 138
0.055191 -0.318362 -0.204994 138 138 138
0.059478 -0.317243 -0.204121 138 138 138
0.063836 -0.316031 -0.203215 138 138 138
0.068381 -0.314561 -0.202219 138 138 138
0.072278 -0.314044 -0.201547 138 138 138
0.075894 -0.313944 -0.201015 138 138 138
0.079654 -0.313642 -0.200414 138 138 138
0.083206 -0.313648 -0.199916 138 138 138
0.086535 -0.313982 -0.199530 138 138 138
0.090003 -0.314122 -0.199078 138 138 138
0.093474 -0.314262 -0.198625 138 138 138
0.096927 -0.314435 -0.198182 138 138 138
0.100755 -0.314079 -0.197558 138 138 138
0.104607 -0.313697 -0.196925 138 138 138
0.108593 -0.313132 -0.196228 138 138 138
0.112693 -0.312416 -0.195478 138 138 138
0.116875 -0.311592 -0.194691 138 138 138
0.121868 -0.309637 -0.193515 138 138 138
0.126932 -0.307596 -0.192308 138 138 138
0.131831 -0.305801 -0.191184 138 138 138
0.136505 -0.304339 -0.190173 138 138 138
0.140801 -0.303416 -0.189345 138 138 138
0.145107 -0.302491 -0.188516 138 138 138
0.149564 -0.301365 -0.187617 138 138 138
0.154716 -0.299287 -0.186389 138 138 138
0.159883 -0.297203 -0.185157 138 138 138
0.165023 -0.295172 -0.183941 138 138 138
0.170321 -0.292940 -0.182655 138 138 138
0.175764 -0.290525 -0.181304 138 138 138
0.181049 -0.288343 -0.180032 138 138 138
0.186355 -0.286149 -0.178754 138 138 138
0.191705 -0.283911 -0.177459 138 138 138
0.197034 -0.281719 -0.176178 138 138 138
0.202653 -0.279148 -0.174764 138 138 138
0.208376 -0.276453 -0.173306 138 138 138
0.214405 -0.273363 -0.171709 138 138 138
0.220522 -0.270173 -0.170075 138 138 138
0.232193 -0.259510 -0.165844 140 140 140
0.247266 -0.244321 -0.160036 142 142 142
0.260016 -0.232325 -0.155330 138 138 138
0.266444 -0.228862 -0.153586 138 138 138
0.272492 -0.225930 -0.152025 138 138 138
0.278751 -0.222736 -0.150370 138 138 138
0.285041 -0.219521 -0.148705 138 138 138
0.293210 -0.213830 -0.146175 138 138 138
0.318713 -0.185188 -0.135633 138 138 138
0.327827 -0.178359 -0.132693 138 138 138
0.343507 -0.162900 -0.126734 100 100 100
-0.298974 0.175493 -0.137945 138 138 138
-0.299971 0.165257 -0.140563 138 138 138
-0.299627 0.158153 -0.142235 138 138 138
-0.299181 0.151314 -0.143829 138 138 138
-0.298943 0.144031 -0.145559 138 138 138
-0.298943 0.136238 -0.147446 138 138 138
-0.299547 0.127106 -0.149742 138 138 138
-0.302069 0.113675 -0.153347 138 138 138
-0.303368 0.103071 -0.156096 138 138 138
-0.303541 0.095056 -0.158061 138 138 138
-0.303082 0.088499 -0.159585 138 138 138
-0.302826 0.081513 -0.161240 138 138 138
-0.302971 0.073662 -0.163162 138 138 138
-0.304240 0.063344 -0.165838 138 138 138
-0.306853 0.050090 -0.169413 138 138 138
-0.308510 0.039019 -0.172325 138 138 138
-0.309274 0.029974 -0.174622 138 138 138
-0.309123 0.022986 -0.176293 138 138 138
-0.308664 0.016703 -0.177750 138 138 138
-0.307978 0.010945 -0.179049 138 138 138
-0.307476 0.004811 -0.180464 138 138 138
-0.307027 -0.001415 -0.181909 138 138 138
-0.306842 -0.008190 -0.183524 138 138 138
-0.306585 -0.014778 -0.185083 138 138 138
-0.306137 -0.020925 -0.186509 138 138 138
-0.306110 -0.027954 -0.188207 138 138 138
-0.306622 -0.036108 -0.190253 138 138 138
-0.308341 -0.046814 -0.193086 138 138 138
-0.311673 -0.060914 -0.196966 138 138 138
-0.316064 -0.077201 -0.201524 138 138 138
-0.316631 -0.085284 -0.203560 138 138 138
-0.315948 -0.090680 -0.204772 138 138 138
-0.314393 -0.094213 -0.205410 138 138 138
-0.312625 -0.097286 -0.205907 138 138 138
-0.310434 -0.099460 -0.206127 138 138 138
-0.308209 -0.101560 -0.206324 138 138 138
-0.305957 -0.103601 -0.206504 138 138 138
-0.303708 -0.105645 -0.206684 138 138 138
-0.301368 -0.107496 -0.206805 138 138 138
-0.298944 -0.109169 -0.206872 138 138 138
-0.296663 -0.111139 -0.207030 138 138 138
-0.294540 -0.113432 -0.207288 138 138 138
-0.292419 -0.115724 -0.207547 138 138 138
-0.290521 -0.118469 -0.207946 138 138 138
-0.288754 -0.121473 -0.208426 138 138 138
-0.287436 -0.125388 -0.209190 138 138 138
-0.285925 -0.128896 -0.209828 138 138 138
-0.284286 -0.132134 -0.210383 138 138 138
-0.282602 -0.135270 -0.210907 138 138 138
-0.280727 -0.138011 -0.211309 138 138 138
-0.278782 -0.140606 -0.211665 138 138 138
-0.277041 -0.143605 -0.212148 138 138 138
-0.275258 -0.146509 -0.212602 138 138 138
-0.272910 -0.148279 -0.212702 138 138 138
-0.270558 -0.150039 -0.212800 138 138 138
-0.267635 -0.150663 -0.212542 138 138 138
-0.264566 -0.151001 -0.212195 138 138 138
-0.261501 -0.151354 -0.211852 138 138 138
-0.258434 -0.151708 -0.211509 138 138 138
-0.255352 -0.152039 -0.211158 138 138 138
-0.252479 -0.152786 -0.210937 138 138 138
-0.249957 -0.154222 -0.210932 138 138 138
-0.247841 -0.156450 -0.211176 138 138 138
-0.245732 -0.158688 -0.211423 138 138 138
-0.243625 -0.160925 -0.211670 138 138 138
-0.241494 -0.163112 -0.211902 138 138 138
-0.239526 -0.165612 -0.212232 138 138 138
-0.237721 -0.168417 -0.212659 138 138 138
-0.235898 -0.171182 -0.213074 138 138 138
-0.234075 -0.173941 -0.213487 138 138 138
-0.232281 -0.176747 -0.213916 138 138 138
-0.230459 -0.179494 -0.214326 138 138 138
-0.228629 -0.182218 -0.214730 138 138 138
-0.226829 -0.184992 -0.215150 138 138 138
-0.225075 -0.187848 -0.215597 138 138 138
-0.223324 -0.190702 -0.216043 138 138 138
-0.221576 -0.193552 -0.216488 138 138 138
-0.219979 -0.196681 -0.217023 138 138 138
-0.218208 -0.199474 -0.217452 138 138 138
-0.216440 -0.202267 -0.217881 138 138 138
-0.214600 -0.204918 -0.218265 138 138 138
-0.212634 -0.207330 -0.218575 138 138 138
-0.210671 -0.209741 -0.218884 138 138 138
-0.208709 -0.212150 -0.219193 138 138 138
-0.206710 -0.214486 -0.219479 138 138 138
-0.204598 -0.216609 -0.219698 138 138 138
-0.202488 -0.218732 -0.219917 138 138 138
-0.200430 -0.220947 -0.220166 138 138 138
-0.198425 -0.223256 -0.220445 138 138 138
-0.196414 -0.225548 -0.220718 138 138 138
-0.194405 -0.227840 -0.220993 138 138 138
-0.192398 -0.230131 -0.221267 138 138 138
-0.190393 -0.232422 -0.221541 138 138 138
-0.188365 -0.234666 -0.221801 138 138 138
-0.186297 -0.236835 -0.222037 138 138 138
-0.184125 -0.238815 -0.222213 138 138 138
-0.181955 -0.240794 -0.222389 138 138 138
-0.179782 -0.242766 -0.222563 138 138 138
-0.177805 -0.245083 -0.222847 138 138 138
-0.175879 -0.247487 -0.223160 138 138 138
-0.173955 -0.249888 -0.223473 138 138 138
-0.172096 -0.252401 -0.223821 138 138 138
-0.170327 -0.255066 -0.224219 138 138 138
-0.168533 -0.257682 -0.224602 138 138 138
-0.166741 -0.260295 -0.224984 138 138 138
-0.164915 -0.262844 -0.225346 138 138 138
-0.163189 -0.265562 -0.225763 138 138 138
-0.161465 -0.268276 -0.226179 138 138 138
-0.159743 -0.270987 -0.226595 138 138 138
-0.158205 -0.274010 -0.227112 138 138 138
-0.156819 -0.277288 -0.227712 138 138 138
-0.155221 -0.280192 -0.228192 138 138 138
-0.153608 -0.283062 -0.228661 138 138 138
-0.151729 -0.285470 -0.228981 138 138 138
-0.149869 -0.287906 -0.229311 138 138 138
-0.148012 -0.290341 -0.229641 138 138 138
-0.146156 -0.292773 -0.229971 138 138 138
-0.144078 -0.294823 -0.230177 138 138 138
-0.141989 -0.296852 -0.230376 138 138 138
-0.139820 -0.298742 -0.230530 138 138 138
-0.137570 -0.300494 -0.230640 138 138 138
-0.135266 -0.302151 -0.230719 138 138 138
-0.132907 -0.303716 -0.230768 138 138 138
-0.130611 -0.305387 -0.230852 138 138 138
-0.128421 -0.307232 -0.230993 138 138 138
-0.126231 -0.309076 -0.231133 138 138 138
-0.124025 -0.310892 -0.231264 138 138 138
-0.121727 -0.312553 -0.231345 138 138 138
-0.119500 -0.314329 -0.231464 138 138 138
-0.117283 -0.316122 -0.231588 138 138 138
-0.115067 -0.317913 -0.231712 138 138 138
-0.112972 -0.319900 -0.231900 138 138 138
-0.110846 -0.321836 -0.232072 138 138 138
-0.108679 -0.323701 -0.232221 138 138 138
-0.106370 -0.325334 -0.232293 138 138 138
-0.104031 -0.326915 -0.232349 138 138 138
-0.101530 -0.328232 -0.232318 138 138 138
-0.099028 -0.329550 -0.232288 138 138 138
-0.096629 -0.331033 -0.232311 138 138 138
-0.094510 -0.332968 -0.232484 138 138 138
-0.092393 -0.334904 -0.232656 138 138 138
-0.089983 -0.336366 -0.232673 138 138 138
-0.086992 -0.336899 -0.232384 138 138 138
-0.083388 -0.336459 -0.231774 138 138 138
-0.079779 -0.336019 -0.231163 138 138 138
-0.076177 -0.335597 -0.230557 138 138 138
-0.066343 -0.325308 -0.226691 138 138 138
-0.060097 -0.320748 -0.224714 138 138 138
-0.055572 -0.318929 -0.223640 138 138 138
-0.051721 -0.318188 -0.222923 138 138 138
-0.048169 -0.317924 -0.222362 138 138 138
-0.044611 -0.317661 -0.221801 138 138 138
-0.041036 -0.317378 -0.221233 138 138 138
-0.037678 -0.317442 -0.220779 138 138 138
-0.034773 -0.318217 -0.220560 138 138 138
-0.031867 -0.318992 -0.220342 138 138 138
-0.029002 -0.319835 -0.220145 138 138 138
-0.026158 -0.320714 -0.219960 138 138 138
-0.023376 -0.321689 -0.219807 138 138 138
-0.020671 -0.322786 -0.219695 138 138 138
-0.017947 -0.323855 -0.219573 138 138 138
-0.015141 -0.324800 -0.219409 138 138 138
-0.012374 -0.325807 -0.219267 138 138 138
-0.009606 -0.326815 -0.219124 138 138 138
-0.006831 -0.327813 -0.218977 138 138 138
-0.003662 -0.328216 -0.218632 138 138 138
-0.000628 -0.328829 -0.218356 138 138 138
0.002407 -0.329443 -0.218081 138 138 138
0.005505 -0.329968 -0.217775 138 138 138
0.008603 -0.330494 -0.217469 138 138 138
0.012014 -0.330558 -0.217007 138 138 138
0.015307 -0.330802 -0.216606 138 138 138
0.018605 -0.331046 -0.216204 138 138 138
0.022738 -0.330052 -0.215386 138 138 138
0.026903 -0.329021 -0.214554 138 138 138
0.031871 -0.326811 -0.213324 138 138 138
0.037756 -0.323263 -0.211642 138 138 138
0.043601 -0.319794 -0.209985 138 138 138
0.048759 -0.317362 -0.208675 138 138 138
0.053317 -0.315827 -0.207666 138 138 138
0.057611 -0.314692 -0.206791 138 138 138
0.061819 -0.313695 -0.205961 138 138 138
0.066463 -0.312073 -0.204919 138 138 138
0.070286 -0.311661 -0.204285 138 138 138
0.073777 -0.311738 -0.203816 138 138 138
0.077423 -0.311597 -0.203272 138 138 138
0.081086 -0.311440 -0.202721 138 138 138
0.084361 -0.311848 -0.202363 138 138 138
0.087622 -0.312282 -0.202012 138 138 138
0.090972 -0.312593 -0.201619 138 138 138
0.094445 -0.312732 -0.201167 138 138 138
0.098191 -0.312488 -0.200584 138 138 138
0.102051 -0.312087 -0.199947 138 138 138
0.105912 -0.311695 -0.199312 138 138 138
0.109979 -0.311019 -0.198580 138 138 138
0.114169 -0.310178 -0.197791 138 138 138
0.118985 -0.308461 -0.196702 138 138 138
0.124106 -0.306330 -0.195470 138 138 138
0.129015 -0.304512 -0.194343 138 138 138
0.133921 -0.302713 -0.193222 138 138 138
0.138225 -0.301772 -0.192392 138 138 138
0.142539 -0.300829 -0.191561 138 138 138
0.146935 -0.299782 -0.190693 138 138 138
0.151788 -0.298110 -0.189609 138 138 138
0.156755 -0.296293 -0.188475 138 138 138
0.161978 -0.294137 -0.187222 138 138 138
0.167139 -0.292083 -0.186004 138 138 138
0.172041 -0.290401 -0.184911 138 138 138
0.177482 -0.287991 -0.183567 138 138 138
0.182942 -0.285573 -0.182218 138 138 138
0.188029 -0.283683 -0.181049 138 138 138
0.193285 -0.281576 -0.179804 138 138 138
0.198796 -0.279139 -0.178443 138 138 138
0.204445 -0.276530 -0.177022 138 138 138
0.210315 -0.273640 -0.175501 138 138 138
0.216556 -0.270266 -0.173812 138 138 138
0.223571 -0.265867 -0.171766 139 139 139
0.236911 -0.252958 -0.166775 141 141 141
0.252473 -0.237121 -0.160765 138 138 138
0.263711 -0.227169 -0.156784 138 138 138
0.269702 -0.224302 -0.155252 138 138 138
0.275820 -0.221285 -0.153666 138 138 138
0.281971 -0.218242 -0.152069 138 138 138
0.288970 -0.214090 -0.150085 138 138 138
0.317664 -0.181133 -0.138093 138 138 138
0.327053 -0.173924 -0.135035 138 138 138
-0.294516 0.185502 -0.138207 100 100 100
-0.297149 0.171473 -0.141957 138 138 138
-0.296895 0.164147 -0.143689 138 138 138
-0.296413 0.157378 -0.145255 138 138 138
-0.295867 0.150782 -0.146770 138 138 138
-0.295570 0.143650 -0.148448 138 138 138
-0.295797 0.135357 -0.150480 138 138 138
-0.298054 0.122506 -0.153894 138 138 138
-0.300707 0.108824 -0.157564 138 138 138
-0.301805 0.098713 -0.160155 138 138 138
-0.301798 0.091130 -0.161983 138 138 138
-0.301527 0.084173 -0.163624 138 138 138
-0.301673 0.076316 -0.165539 138 138 138
-0.302657 0.066629 -0.168013 138 138 138
-0.304875 0.054246 -0.171308 138 138 138
-0.306272 0.043743 -0.174036 138 138 138
-0.307228 0.034263 -0.176456 138 138 138
-0.307407 0.026538 -0.178344 138 138 138
-0.307187 0.019725 -0.179956 138 138 138
-0.306677 0.013576 -0.181369 138 138 138
-0.306139 0.007514 -0.182756 138 138 138
-0.305675 0.001315 -0.184186 138 138 138
-0.305345 -0.005147 -0.185699 138 138 138
-0.304985 -0.011516 -0.187185 138 138 138
-0.304435 -0.017451 -0.188540 138 138 138
-0.304130 -0.023887 -0.190050 138 138 138
-0.303976 -0.030621 -0.191652 138 138 138
-0.305466 -0.040848 -0.194327 138 138 138
-0.307297 -0.051754 -0.197212 138 138 138
-0.311424 -0.067501 -0.201585 138 138 138
-0.314452 -0.080835 -0.205223 138 138 138
-0.314655 -0.088118 -0.207008 138 138 138
-0.313327 -0.092137 -0.207792 138 138 138
-0.311661 -0.095427 -0.208354 138 138 138
-0.309422 -0.097504 -0.208543 138 138 138
-0.307178 -0.099569 -0.208729 138 138 138
-0.304957 -0.101676 -0.208927 138 138 138
-0.302795 -0.103904 -0.209164 138 138 138
-0.300567 -0.105990 -0.209357 138 138 138
-0.298236 -0.107860 -0.209483 138 138 138
-0.295952 -0.109825 -0.209639 138 138 138
-0.293840 -0.112140 -0.209903 138 138 138
-0.291737 -0.114471 -0.210173 138 138 138
-0.289833 -0.117204 -0.210567 138 138 138
-0.288145 -0.120373 -0.211096 138 138 138
-0.286798 -0.124229 -0.211839 138 138 138
-0.285285 -0.127733 -0.212473 138 138 138
-0.283878 -0.131441 -0.213171 138 138 138
-0.282382 -0.134959 -0.213811 138 138 138
-0.280645 -0.137977 -0.214298 138 138 138
-0.279015 -0.141203 -0.214849 138 138 138
-0.277387 -0.144424 -0.215399 138 138 138
-0.275210 -0.146537 -0.215605 138 138 138
-0.273132 -0.148843 -0.215872 138 138 138
-0.271624 -0.152282 -0.216492 139 139 139
-0.268492 -0.152483 -0.216104 139 139 139
-0.264337 -0.150662 -0.215086 138 138 138
-0.261273 -0.151015 -0.214745 138 138 138
-0.258206 -0.151368 -0.214403 138 138 138
-0.255091 -0.151634 -0.214033 138 138 138
-0.251968 -0.151887 -0.213659 138 138 138
-0.248963 -0.152381 -0.213360 138 138 138
-0.246677 -0.154281 -0.213500 138 138 138
-0.244568 -0.156521 -0.213747 138 138 138
-0.242479 -0.158797 -0.214004 138 138 138
-0.240541 -0.161361 -0.214353 138 138 138
-0.238612 -0.163938 -0.214706 138 138 138
-0.236758 -0.166652 -0.215102 138 138 138
-0.234963 -0.169472 -0.215533 138 138 138
-0.233130 -0.172213 -0.215939 138 138 138
-0.231273 -0.174902 -0.216329 138 138 138
-0.229517 -0.177778 -0.216778 138 138 138
-0.227738 -0.180602 -0.217211 138 138 138
-0.225926 -0.183355 -0.217623 138 138 138
-0.224172 -0.186213 -0.218068 138 138 138
-0.222450 -0.189123 -0.218530 138 138 138
-0.220779 -0.192121 -0.219020 138 138 138
-0.219088 -0.195074 -0.219497 138 138 138
-0.217377 -0.197983 -0.219960 138 138 138
-0.215633 -0.200822 -0.220402 138 138 138
-0.213819 -0.203523 -0.220801 138 138 138
-0.211830 -0.205894 -0.221096 138 138 138
-0.209853 -0.208280 -0.221396 138 138 138
-0.207890 -0.210690 -0.221704 138 138 138
-0.205907 -0.213057 -0.221999 138 138 138
-0.203825 -0.215237 -0.222235 138 138 138
-0.201745 -0.217415 -0.222471 138 138 138
-0.199706 -0.219667 -0.222730 138 138 138
-0.197711 -0.221994 -0.223013 138 138 138
-0.195704 -0.224295 -0.223289 138 138 138
-0.193696 -0.226590 -0.223563 138 138 138
-0.191732 -0.228961 -0.223861 138 138 138
-0.189813 -0.231408 -0.224184 138 138 138
-0.187784 -0.233651 -0.224443 138 138 138
-0.185698 -0.235789 -0.224668 138 138 138
-0.183595 -0.237892 -0.224882 138 138 138
-0.181430 -0.239880 -0.225060 138 138 138
-0.179290 -0.241911 -0.225252 138 138 138
-0.177374 -0.244338 -0.225571 138 138 138
-0.175460 -0.246763 -0.225889 138 138 138
-0.173539 -0.249170 -0.226202 138 138 138
-0.171570 -0.251488 -0.226487 138 138 138
-0.169760 -0.254082 -0.226861 138 138 138
-0.167962 -0.256691 -0.227239 138 138 138
-0.166170 -0.259305 -0.227620 138 138 138
-0.164332 -0.261832 -0.227974 138 138 138
-0.162606 -0.264550 -0.228389 138 138 138
-0.160875 -0.267251 -0.228800 138 138 138
-0.159037 -0.269763 -0.229150 138 138 138
-0.157317 -0.272472 -0.229563 138 138 138
-0.155845 -0.275603 -0.230114 138 138 138
-0.154071 -0.278206 -0.230494 138 138 138
-0.152399 -0.280978 -0.230930 138 138 138
-0.150592 -0.283512 -0.231290 138 138 138
-0.148714 -0.285919 -0.231609 138 138 138
-0.146837 -0.288325 -0.231928 138 138 138
-0.144979 -0.290756 -0.232255 138 138 138
-0.142973 -0.292931 -0.232501 138 138 138
-0.140879 -0.294954 -0.232697 138 138 138
-0.138692 -0.296816 -0.232842 138 138 138
-0.136546 -0.298745 -0.233008 138 138 138
-0.134240 -0.300403 -0.233087 138 138 138
-0.131900 -0.302003 -0.233147 138 138 138
-0.129638 -0.303733 -0.233249 138 138 138
-0.127447 -0.305578 -0.233389 138 138 138
-0.125256 -0.307423 -0.233529 138 138 138
-0.123083 -0.309295 -0.233678 138 138 138
-0.120955 -0.311239 -0.233850 138 138 138
-0.118758 -0.313067 -0.233985 138 138 138
-0.116541 -0.314859 -0.234109 138 138 138
-0.114324 -0.316651 -0.234232 138 138 138
-0.112222 -0.318630 -0.234417 138 138 138
-0.110087 -0.320551 -0.234583 138 138 138
-0.107920 -0.322418 -0.234732 138 138 138
-0.105669 -0.324145 -0.234835 138 138 138
-0.103329 -0.325725 -0.234890 138 138 138
-0.100827 -0.327043 -0.234859 138 138 138
-0.098325 -0.328361 -0.234829 138 138 138
-0.095902 -0.329807 -0.234840 138 138 138
-0.093783 -0.331744 -0.235012 138 138 138
-0.091666 -0.333679 -0.235184 138 138 138
-0.089278 -0.335179 -0.235213 138 138 138
-0.086550 -0.336133 -0.235064 138 138 138
-0.082964 -0.335721 -0.234465 138 138 138
-0.079372 -0.335308 -0.233865 138 138 138
-0.073638 -0.331499 -0.232148 138 138 138
-0.065336 -0.323646 -0.229098 138 138 138
-0.059382 -0.319549 -0.227280 138 138 138
-0.054841 -0.317706 -0.226203 138 138 138
-0.050605 -0.316360 -0.225289 138 138 138
-0.046989 -0.315999 -0.224698 138 138 138
-0.043368 -0.315638 -0.224107 138 138 138
-0.039877 -0.315490 -0.223585 138 138 138
-0.036719 -0.315869 -0.223237 138 138 138
-0.033720 -0.316498 -0.222971 138 138 138
-0.030812 -0.317273 -0.222753 138 138 138
-0.027954 -0.318130 -0.222562 138 138 138
-0.025197 -0.319143 -0.222422 138 138 138
-0.022499 -0.320251 -0.222313 138 138 138
-0.019833 -0.321409 -0.222222 138 138 138
-0.017091 -0.322452 -0.222091 138 138 138
-0.014325 -0.323459 -0.221949 138 138 138
-0.011560 -0.324471 -0.221808 138 138 138
-0.008821 -0.325525 -0.221681 138 138 138
-0.006033 -0.326504 -0.221529 138 138 138
-0.002832 -0.326859 -0.221169 138 138 138
0.000345 -0.327257 -0.220822 138 138 138
0.003401 -0.327842 -0.220538 138 138 138
0.006443 -0.328451 -0.220261 138 138 138
0.009563 -0.328948 -0.219947 138 138 138
0.012975 -0.329010 -0.219486 138 138 138
0.016392 -0.329072 -0.219026 138 138 138
0.020337 -0.328352 -0.218302 138 138 138
0.024384 -0.327489 -0.217531 138 138 138
0.028805 -0.326083 -0.216576 138 138 138
0.035021 -0.322029 -0.214732 138 138 138
0.040924 -0.318461 -0.213050 138 138 138
0.046170 -0.315887 -0.211699 138 138 138
0.051340 -0.313442 -0.210389 138 138 138
0.055796 -0.312064 -0.209436 138 138 138
0.059880 -0.311244 -0.208669 138 138 138
0.064343 -0.309880 -0.207719 138 138 138
0.068243 -0.309351 -0.207048 138 138 138
0.071784 -0.309352 -0.206556 138 138 138
0.075293 -0.309406 -0.206080 138 138 138
0.078954 -0.309247 -0.205532 138 138 138
0.082095 -0.309848 -0.205239 138 138 138
