ply
format ascii 1.0
element vertex 1178
property float x
property float y
property float z
property uchar red
property uchar green
property uchar blue
end_header
0.047069 -0.377000 0.265557 178 178 178
0.050028 -0.376115 0.265977 179 179 179
0.052991 -0.375161 0.266429 181 181 181
0.055968 -0.373651 0.267146 181 181 181
0.058948 -0.372138 0.267863 181 181 181
0.061930 -0.370678 0.268556 181 181 181
0.064908 -0.369520 0.269106 182 182 182
0.067892 -0.368259 0.269704 183 183 183
0.070875 -0.367115 0.270246 184 184 184
0.073872 -0.365565 0.270982 185 185 185
0.076872 -0.364047 0.271702 185 185 185
0.079869 -0.362709 0.272337 186 186 186
0.082870 -0.361370 0.272972 186 186 186
0.085900 -0.359209 0.273997 188 188 188
0.088952 -0.356574 0.275248 189 189 189
0.092023 -0.353545 0.276684 190 190 190
0.095174 -0.348480 0.279088 192 192 192
0.098366 -0.342618 0.281869 195 195 195
0.101443 -0.340100 0.283063 195 195 195
0.104506 -0.338089 0.284017 143 143 143
0.107565 -0.336295 0.284869 144 144 144
-0.198282 -0.280088 0.308184 141 141 141
-0.194692 -0.287575 0.304641 138 138 138
-0.191458 -0.290292 0.303356 187 187 187
-0.188239 -0.292879 0.302131 184 184 184
-0.185087 -0.294569 0.301332 182 182 182
-0.181924 -0.296485 0.300425 181 181 181
-0.178768 -0.298346 0.299544 181 181 181
-0.175617 -0.300205 0.298665 181 181 181
-0.172395 -0.303242 0.297228 180 180 180
-0.169228 -0.305499 0.296160 180 180 180
-0.165991 -0.308985 0.294510 179 179 179
-0.162773 -0.312286 0.292948 178 178 178
-0.159568 -0.315477 0.291438 178 178 178
-0.156356 -0.318930 0.289804 182 182 182
-0.153028 -0.324529 0.287155 183 183 183
-0.149667 -0.330938 0.284122 182 182 182
-0.146396 -0.335987 0.281733 182 182 182
-0.143189 -0.340060 0.279805 183 183 183
-0.140030 -0.343396 0.278227 183 183 183
-0.136828 -0.347704 0.276188 183 183 183
-0.133659 -0.351533 0.274376 183 183 183
-0.130603 -0.353281 0.273549 182 182 182
-0.127569 -0.354646 0.272903 183 183 183
-0.124553 -0.355684 0.272412 183 183 183
-0.121550 -0.356516 0.272018 183 183 183
-0.118548 -0.357347 0.271625 183 183 183
-0.115509 -0.359063 0.270813 183 183 183
-0.112467 -0.360957 0.269917 178 178 178
-0.108513 -0.384859 0.258606 168 168 168
-0.105450 -0.388074 0.257085 164 164 164
-0.102375 -0.391784 0.255329 157 157 157
-0.099390 -0.393373 0.254578 158 158 158
-0.096414 -0.394805 0.253900 160 160 160
-0.093442 -0.396202 0.253239 162 162 162
-0.090487 -0.397214 0.252760 162 162 162
-0.087550 -0.397772 0.252496 164 164 164
-0.084644 -0.397404 0.252670 165 165 165
-0.081737 -0.397036 0.252844 165 165 165
-0.078829 -0.396667 0.253019 164 164 164
-0.075905 -0.396820 0.252946 161 161 161
-0.073092 -0.393067 0.254722 153 153 153
-0.070238 -0.390507 0.255934 147 147 147
-0.067395 -0.387261 0.257470 140 140 140
-0.064458 -0.387586 0.257316 142 142 142
-0.061489 -0.389224 0.256541 155 155 155
-0.058605 -0.387316 0.257444 163 163 163
-0.055769 -0.382927 0.259521 151 151 151
-0.052837 -0.382780 0.259590 138 138 138
-0.049882 -0.383839 0.259089 138 138 138
-0.046931 -0.384807 0.258631 138 138 138
-0.043985 -0.385591 0.258260 138 138 138
-0.041011 -0.388309 0.256974 138 138 138
-0.038020 -0.392570 0.254957 138 138 138
-0.035066 -0.394749 0.253926 138 138 138
-0.032112 -0.397376 0.252683 138 138 138
-0.029162 -0.400192 0.251351 138 138 138
-0.026226 -0.402312 0.250348 138 138 138
-0.023309 -0.402765 0.250133 138 138 138
-0.020396 -0.402748 0.250141 138 138 138
-0.017485 -0.402601 0.250211 138 138 138
-0.014573 -0.402455 0.250280 138 138 138
-0.011663 -0.401891 0.250547 138 138 138
-0.008752 -0.401298 0.250827 138 138 138
-0.005837 -0.401534 0.250715 138 138 138
-0.002925 -0.400149 0.251371 138 138 138
-0.000010 -0.399426 0.251713 138 138 138
0.002909 -0.397483 0.252633 138 138 138
0.005831 -0.395612 0.253518 145 145 145
0.008758 -0.393785 0.254383 154 154 154
0.011689 -0.391965 0.255244 161 161 161
0.014626 -0.389746 0.256293 167 167 167
0.017574 -0.386502 0.257829 174 174 174
0.020525 -0.383969 0.259027 176 176 176
0.023475 -0.382169 0.259879 176 176 176
0.026412 -0.382000 0.259959 177 177 177
0.029350 -0.381830 0.260039 177 177 177
0.032286 -0.381786 0.260060 178 178 178
0.035220 -0.381963 0.259977 178 178 178
0.038163 -0.381445 0.260222 178 178 178
0.041108 -0.380916 0.260472 179 179 179
0.044051 -0.380535 0.260653 179 179 179
0.046995 -0.380152 0.260833 180 180 180
0.049950 -0.379286 0.261243 180 180 180
0.052909 -0.378294 0.261713 180 180 180
0.055875 -0.377040 0.262306 181 181 181
0.058851 -0.375507 0.263032 181 181 181
0.061826 -0.374145 0.263676 182 182 182
0.064796 -0.373145 0.264149 182 182 182
0.067766 -0.372181 0.264605 182 182 182
0.070748 -0.370886 0.265218 182 182 182
0.073729 -0.369710 0.265774 183 183 183
0.076715 -0.368471 0.266361 183 183 183
0.079704 -0.367231 0.266948 183 183 183
0.082698 -0.365897 0.267579 183 183 183
0.085700 -0.364425 0.268275 184 184 184
0.088709 -0.362830 0.269030 185 185 185
0.091747 -0.360503 0.270131 186 186 186
0.094796 -0.358031 0.271301 187 187 187
0.097831 -0.356094 0.272218 188 188 188
0.100849 -0.354703 0.272876 188 188 188
0.103912 -0.352237 0.274043 189 189 189
0.107000 -0.349304 0.275431 191 191 191
0.110041 -0.347663 0.276207 191 191 191
0.113082 -0.346104 0.276945 192 192 192
0.116104 -0.345057 0.277440 192 192 192
0.119128 -0.344008 0.277937 193 193 193
0.122426 -0.337085 0.281213 143 143 143
-0.206990 -0.284919 0.302555 138 138 138
-0.203578 -0.289799 0.300252 183 183 183
-0.200345 -0.292423 0.299013 183 183 183
-0.197184 -0.294148 0.298199 180 180 180
-0.194031 -0.295810 0.297415 178 178 178
-0.190907 -0.297108 0.296802 178 178 178
-0.187771 -0.298628 0.296085 178 178 178
-0.184629 -0.300288 0.295302 177 177 177
-0.181491 -0.301946 0.294519 176 176 176
-0.178339 -0.303854 0.293619 177 177 177
-0.175179 -0.305968 0.292621 177 177 177
-0.172016 -0.308192 0.291571 177 177 177
-0.168793 -0.311463 0.290027 175 175 175
-0.165595 -0.314438 0.288623 176 176 176
-0.162402 -0.317437 0.287208 178 178 178
-0.159097 -0.322439 0.284847 179 179 179
-0.155703 -0.329141 0.281684 180 180 180
-0.152372 -0.335033 0.278903 181 181 181
-0.149099 -0.340113 0.276506 182 182 182
-0.145684 -0.347968 0.272798 182 182 182
-0.142488 -0.352097 0.270849 184 184 184
-0.139328 -0.355738 0.269131 182 182 182
-0.136279 -0.357366 0.268362 182 182 182
-0.133237 -0.358941 0.267619 181 181 181
-0.130212 -0.360239 0.267007 181 181 181
-0.127195 -0.361444 0.266438 182 182 182
-0.124180 -0.362653 0.265867 185 185 185
-0.121162 -0.363999 0.265232 182 182 182
-0.118040 -0.367714 0.263479 192 192 192
-0.114459 -0.382071 0.256703 175 175 175
-0.111374 -0.385607 0.255033 163 163 163
-0.108321 -0.388553 0.253643 159 159 159
-0.105276 -0.391449 0.252277 154 154 154
-0.102291 -0.393005 0.251542 150 150 150
-0.099304 -0.394700 0.250742 155 155 155
-0.096330 -0.396131 0.250067 156 156 156
-0.093360 -0.397560 0.249392 157 157 157
-0.090396 -0.398915 0.248753 157 157 157
-0.087470 -0.399212 0.248613 158 158 158
-0.084561 -0.399007 0.248709 165 165 165
-0.081657 -0.398633 0.248886 164 164 164
-0.078753 -0.398259 0.249062 164 164 164
-0.075960 -0.394024 0.251061 162 162 162
-0.073143 -0.390307 0.252816 150 150 150
-0.070271 -0.388357 0.253736 143 143 143
-0.067391 -0.386487 0.254619 154 154 154
-0.064440 -0.387385 0.254194 138 138 138
-0.061556 -0.385476 0.255095 144 144 144
-0.058668 -0.383563 0.255998 152 152 152
-0.055829 -0.379175 0.258070 144 144 144
-0.052894 -0.379044 0.258131 138 138 138
-0.049939 -0.379926 0.257715 138 138 138
-0.046974 -0.381460 0.256991 138 138 138
-0.044018 -0.382738 0.256388 138 138 138
-0.041047 -0.385056 0.255294 138 138 138
-0.038069 -0.388266 0.253779 138 138 138
-0.035093 -0.391874 0.252076 138 138 138
-0.032139 -0.394286 0.250937 138 138 138
-0.029183 -0.397473 0.249433 138 138 138
-0.026234 -0.400580 0.247967 138 138 138
-0.023317 -0.400896 0.247818 138 138 138
-0.020400 -0.401329 0.247613 138 138 138
-0.017488 -0.401182 0.247683 138 138 138
-0.014576 -0.401036 0.247752 138 138 138
-0.011669 -0.399654 0.248404 138 138 138
-0.008756 -0.399206 0.248615 138 138 138
-0.005841 -0.399046 0.248691 138 138 138
-0.002925 -0.399294 0.248574 138 138 138
-0.000010 -0.398673 0.248867 138 138 138
0.002909 -0.396706 0.249795 138 138 138
0.005831 -0.394811 0.250690 138 138 138
0.008757 -0.392983 0.251552 143 143 143
0.011684 -0.392110 0.251964 150 150 150
0.014607 -0.392080 0.251978 156 156 156
0.017537 -0.391061 0.252459 167 167 167
0.020486 -0.388041 0.253885 171 171 171
0.023433 -0.385873 0.254908 174 174 174
0.026363 -0.385905 0.254893 176 176 176
0.029294 -0.385824 0.254931 177 177 177
0.032226 -0.385744 0.254969 178 178 178
0.035161 -0.385411 0.255126 179 179 179
0.038090 -0.385534 0.255068 180 180 180
0.041021 -0.385469 0.255099 181 181 181
0.043953 -0.385405 0.255129 181 181 181
0.046892 -0.384952 0.255342 182 182 182
0.049844 -0.383900 0.255839 182 182 182
0.052801 -0.382679 0.256415 182 182 182
0.055767 -0.381161 0.257132 182 182 182
0.058753 -0.378923 0.258188 181 181 181
0.061717 -0.377852 0.258694 182 182 182
0.064679 -0.376926 0.259131 182 182 182
0.067643 -0.375999 0.259568 182 182 182
0.070613 -0.374965 0.260056 182 182 182
0.073593 -0.373636 0.260683 182 182 182
0.076575 -0.372314 0.261307 182 182 182
0.079558 -0.371080 0.261890 182 182 182
0.082544 -0.369845 0.262473 182 182 182
0.085546 -0.368215 0.263242 182 182 182
0.088544 -0.366787 0.263916 183 183 183
0.091545 -0.365363 0.264588 183 183 183
0.094550 -0.363934 0.265262 184 184 184
0.097570 -0.362184 0.266088 184 184 184
0.100587 -0.360623 0.266825 185 185 185
0.103605 -0.359104 0.267542 186 186 186
0.106622 -0.357717 0.268197 186 186 186
0.109623 -0.356773 0.268642 186 186 186
0.112634 -0.355651 0.269171 187 187 187
0.115658 -0.354285 0.269816 188 188 188
0.118692 -0.352784 0.270525 185 185 185
0.121832 -0.349029 0.272297 190 190 190
0.125030 -0.344245 0.274555 191 191 191
0.128212 -0.340009 0.276554 193 193 193
0.131557 -0.332651 0.280027 196 196 196
0.135139 -0.320954 0.285547 148 148 148
-0.216263 -0.282182 0.300503 135 135 135
-0.212679 -0.289019 0.297284 184 184 184
-0.209434 -0.291687 0.296029 182 182 182
-0.206188 -0.294451 0.294727 178 178 178
-0.203037 -0.296029 0.293984 176 176 176
-0.199894 -0.297545 0.293271 176 176 176
-0.196755 -0.299058 0.292559 177 177 177
-0.193630 -0.300425 0.291915 177 177 177
-0.190510 -0.301763 0.291285 177 177 177
-0.187375 -0.303363 0.290532 175 175 175
-0.184268 -0.304597 0.289951 173 173 173
-0.181154 -0.305977 0.289302 175 175 175
-0.177983 -0.308271 0.288222 175 175 175
-0.174808 -0.310701 0.287078 175 175 175
-0.171620 -0.313427 0.285795 175 175 175
-0.168427 -0.316323 0.284432 175 175 175
-0.165239 -0.319246 0.283056 176 176 176
-0.161869 -0.325274 0.280218 179 179 179
-0.158389 -0.333382 0.276401 181 181 181
-0.155070 -0.339039 0.273738 183 183 183
-0.151481 -0.349625 0.268755 183 183 183
-0.148127 -0.356453 0.265541 177 177 177
-0.145061 -0.358340 0.264653 176 176 176
-0.142003 -0.360151 0.263800 175 175 175
-0.138950 -0.361959 0.262949 175 175 175
-0.135900 -0.363764 0.262100 176 176 176
-0.132854 -0.365578 0.261246 177 177 177
-0.129855 -0.366536 0.260794 172 172 172
-0.126864 -0.367360 0.260407 173 173 173
-0.123875 -0.368183 0.260019 175 175 175
-0.120713 -0.372810 0.257841 168 168 168
-0.117471 -0.379421 0.254729 164 164 164
-0.114362 -0.383376 0.252867 158 158 158
-0.111269 -0.387144 0.251094 153 153 153
-0.108204 -0.390423 0.249550 150 150 150
-0.105198 -0.392460 0.248591 142 142 142
-0.102204 -0.394280 0.247734 146 146 146
-0.099219 -0.395981 0.246934 150 150 150
-0.096247 -0.397455 0.246240 152 152 152
-0.093286 -0.398683 0.245662 153 153 153
-0.090347 -0.399374 0.245336 155 155 155
-0.087429 -0.399490 0.245282 157 157 157
-0.084512 -0.399605 0.245228 160 160 160
-0.081594 -0.399720 0.245174 163 163 163
-0.078691 -0.399379 0.245334 163 163 163
-0.075873 -0.396077 0.246889 161 161 161
-0.073195 -0.387541 0.250907 147 147 147
-0.070320 -0.385588 0.251826 139 139 139
-0.067385 -0.385824 0.251715 138 138 138
-0.064508 -0.383713 0.252709 138 138 138
-0.061627 -0.381549 0.253727 138 138 138
-0.058733 -0.379754 0.254572 144 144 144
-0.055888 -0.375488 0.256580 143 143 143
-0.052945 -0.375610 0.256523 138 138 138
-0.050001 -0.375730 0.256466 138 138 138
-0.047036 -0.377095 0.255824 138 138 138
-0.044072 -0.378594 0.255118 138 138 138
-0.041098 -0.380884 0.254040 138 138 138
-0.038118 -0.384018 0.252565 138 138 138
-0.035132 -0.388038 0.250673 138 138 138
-0.032166 -0.391189 0.249189 138 138 138
-0.029202 -0.394810 0.247485 138 138 138
-0.026260 -0.397031 0.246439 138 138 138
-0.023334 -0.398103 0.245935 138 138 138
-0.020415 -0.398588 0.245706 138 138 138
-0.017493 -0.399519 0.245268 138 138 138
-0.014584 -0.398752 0.245629 138 138 138
-0.011674 -0.397561 0.246190 138 138 138
-0.008760 -0.397112 0.246401 138 138 138
-0.005844 -0.396664 0.246612 138 138 138
-0.002927 -0.396670 0.246609 138 138 138
-0.000010 -0.396218 0.246822 138 138 138
0.002909 -0.395765 0.247035 138 138 138
0.005831 -0.394010 0.247862 138 138 138
0.008756 -0.392593 0.248528 138 138 138
0.011679 -0.392316 0.248659 138 138 138
0.014601 -0.392287 0.248673 142 142 142
0.017523 -0.392257 0.248686 150 150 150
0.020448 -0.391935 0.248838 159 159 159
0.023381 -0.390750 0.249396 172 172 172
0.026310 -0.390256 0.249629 173 173 173
0.029233 -0.390317 0.249600 176 176 176
0.032157 -0.390377 0.249572 178 178 178
0.035080 -0.390445 0.249539 180 180 180
0.038002 -0.390591 0.249471 181 181 181
0.040924 -0.390731 0.249405 182 182 182
0.043846 -0.390872 0.249339 183 183 183
0.046785 -0.390011 0.249744 183 183 183
0.049736 -0.388611 0.250403 183 183 183
0.052684 -0.387537 0.250908 184 184 184
0.055634 -0.386467 0.251412 183 183 183
0.058601 -0.384772 0.252210 183 183 183
0.061575 -0.382938 0.253073 184 184 184
0.064544 -0.381465 0.253767 184 184 184
0.067506 -0.380390 0.254273 184 184 184
0.070471 -0.379307 0.254783 184 184 184
0.073452 -0.377705 0.255537 183 183 183
0.076430 -0.376367 0.256167 184 184 184
0.079410 -0.375027 0.256797 183 183 183
0.082396 -0.373630 0.257455 182 182 182
0.085400 -0.371752 0.258339 182 182 182
0.088394 -0.370314 0.259016 182 182 182
0.091390 -0.368887 0.259688 182 182 182
0.094389 -0.367476 0.260352 183 183 183
0.097381 -0.366357 0.260878 182 182 182
0.100375 -0.365238 0.261405 182 182 182
0.103374 -0.364058 0.261961 183 183 183
0.106375 -0.362873 0.262519 184 184 184
0.109378 -0.361720 0.263061 184 184 184
0.112384 -0.360567 0.263604 184 184 184
0.115390 -0.359476 0.264118 184 184 184
0.118403 -0.358274 0.264683 185 185 185
0.121494 -0.355433 0.266021 186 186 186
0.124618 -0.352018 0.267628 187 187 187
0.127758 -0.348447 0.269309 189 189 189
0.130952 -0.343956 0.271423 190 190 190
0.134158 -0.339401 0.273568 191 191 191
0.137400 -0.334369 0.275936 193 193 193
0.140671 -0.328992 0.278467 194 194 194
0.144018 -0.322425 0.281558 143 143 143
-0.225997 -0.274035 0.300986 138 138 138
-0.221797 -0.288010 0.294425 182 182 182
-0.218489 -0.291347 0.292858 180 180 180
-0.215245 -0.293981 0.291622 178 178 178
-0.212058 -0.295954 0.290695 177 177 177
-0.208925 -0.297300 0.290063 176 176 176
-0.205794 -0.298645 0.289432 175 175 175
-0.202657 -0.300119 0.288740 175 175 175
-0.199522 -0.301605 0.288042 175 175 175
-0.196394 -0.303052 0.287363 174 174 174
-0.193269 -0.304490 0.286687 173 173 173
-0.190157 -0.305798 0.286073 173 173 173
-0.187053 -0.307022 0.285499 174 174 174
-0.183955 -0.308215 0.284938 175 175 175
-0.180800 -0.310276 0.283971 174 174 174
-0.177629 -0.312661 0.282851 175 175 175
-0.174442 -0.315363 0.281583 175 175 175
-0.171259 -0.318116 0.280290 175 175 175
-0.167959 -0.322812 0.278085 177 177 177
-0.164562 -0.329254 0.275061 180 180 180
-0.160989 -0.338837 0.270562 184 184 184
-0.157328 -0.350252 0.265202 178 178 178
-0.153985 -0.356663 0.262192 170 170 170
-0.150895 -0.358920 0.261132 171 171 171
-0.147826 -0.360880 0.260212 172 172 172
-0.144770 -0.362685 0.259365 172 172 172
-0.141739 -0.364110 0.258696 171 171 171
-0.138704 -0.365667 0.257965 168 168 168
-0.135696 -0.366775 0.257444 169 169 169
-0.132668 -0.368333 0.256713 168 168 168
-0.129628 -0.370181 0.255845 166 166 166
-0.126594 -0.372018 0.254983 165 165 165
-0.123567 -0.373786 0.254153 164 164 164
-0.120492 -0.376662 0.252803 162 162 162
-0.117362 -0.380924 0.250802 153 153 153
-0.114267 -0.384599 0.249076 149 149 149
-0.111202 -0.387783 0.247581 147 147 147
-0.108167 -0.390390 0.246357 141 141 141
-0.105152 -0.392677 0.245284 141 141 141
-0.102146 -0.394840 0.244268 144 144 144
-0.099145 -0.396998 0.243255 146 146 146
-0.096176 -0.398451 0.242573 148 148 148
-0.093226 -0.399454 0.242102 150 150 150
-0.090306 -0.399652 0.242009 152 152 152
-0.087389 -0.399768 0.241955 155 155 155
-0.084477 -0.399757 0.241959 158 158 158
-0.081565 -0.399729 0.241973 161 161 161
-0.078699 -0.398173 0.242703 168 168 168
-0.075856 -0.395739 0.243846 165 165 165
-0.073247 -0.384772 0.248995 141 141 141
-0.070418 -0.381038 0.250748 138 138 138
-0.067452 -0.382297 0.250157 138 138 138
-0.064574 -0.380112 0.251183 138 138 138
-0.061690 -0.377925 0.252210 138 138 138
-0.058798 -0.375950 0.253137 138 138 138
-0.055875 -0.375178 0.253499 138 138 138
-0.052936 -0.375125 0.253524 139 139 139
-0.049996 -0.375071 0.253550 138 138 138
-0.047057 -0.375017 0.253575 143 143 143
-0.044125 -0.374479 0.253827 138 138 138
-0.041146 -0.376935 0.252674 138 138 138
-0.038166 -0.379759 0.251348 138 138 138
-0.035178 -0.383680 0.249508 138 138 138
-0.032196 -0.387852 0.247549 138 138 138
-0.029241 -0.390414 0.246346 138 138 138
-0.026299 -0.392331 0.245446 138 138 138
-0.023365 -0.393776 0.244767 138 138 138
-0.020437 -0.394851 0.244263 138 138 138
-0.017513 -0.395745 0.243843 138 138 138
-0.014601 -0.394698 0.244335 138 138 138
-0.011689 -0.393455 0.244918 138 138 138
-0.008771 -0.392689 0.245278 138 138 138
-0.005855 -0.390616 0.246251 138 138 138
-0.002931 -0.392041 0.245582 138 138 138
-0.000010 -0.391749 0.245719 138 138 138
0.002913 -0.391204 0.245975 138 138 138
0.005834 -0.391629 0.245776 138 138 138
0.008752 -0.392692 0.245276 138 138 138
0.011674 -0.392522 0.245356 138 138 138
0.014593 -0.392824 0.245215 138 138 138
0.017509 -0.393377 0.244955 140 140 140
0.020427 -0.393671 0.244817 153 153 153
0.023350 -0.393286 0.244997 168 168 168
0.026260 -0.394269 0.244536 171 171 171
0.029166 -0.395376 0.244016 173 173 173
0.032079 -0.395768 0.243832 175 175 175
0.034995 -0.395840 0.243798 176 176 176
0.037911 -0.395892 0.243774 177 177 177
0.040828 -0.395944 0.243749 178 178 178
0.043743 -0.396035 0.243707 179 179 179
0.046667 -0.395639 0.243893 180 180 180
0.049602 -0.394702 0.244333 182 182 182
0.052544 -0.393521 0.244887 183 183 183
0.055493 -0.392167 0.245523 183 183 183
0.058443 -0.390879 0.246127 184 184 184
0.061395 -0.389617 0.246720 184 184 184
0.064371 -0.387533 0.247699 184 184 184
0.067353 -0.385373 0.248713 185 185 185
0.070324 -0.383805 0.249449 185 185 185
0.073302 -0.382133 0.250234 184 184 184
0.076283 -0.380458 0.251020 184 184 184
0.079259 -0.379094 0.251660 184 184 184
0.082249 -0.377357 0.252476 183 183 183
0.085245 -0.375591 0.253305 183 183 183
0.088241 -0.373917 0.254091 183 183 183
0.091235 -0.372423 0.254793 182 182 182
0.094225 -0.371127 0.255401 182 182 182
0.097210 -0.370030 0.255916 182 182 182
0.100198 -0.368938 0.256429 182 182 182
0.103188 -0.367845 0.256942 182 182 182
0.106188 -0.366577 0.257537 181 181 181
0.109189 -0.365341 0.258118 182 182 182
0.112192 -0.364133 0.258685 182 182 182
0.115198 -0.362924 0.259252 182 182 182
0.118224 -0.361317 0.260007 182 182 182
0.121274 -0.359277 0.260965 182 182 182
0.124335 -0.357084 0.261994 185 185 185
0.127448 -0.353929 0.263476 186 186 186
0.130602 -0.350100 0.265273 187 187 187
0.133725 -0.347040 0.266710 187 187 187
0.136925 -0.342617 0.268786 189 189 189
0.140072 -0.339390 0.270301 189 189 189
0.143224 -0.336208 0.271796 190 190 190
0.146458 -0.331675 0.273924 192 192 192
0.149623 -0.328541 0.275395 193 193 193
0.152806 -0.325215 0.276957 194 194 194
0.156130 -0.319610 0.279588 196 196 196
-0.235935 -0.264090 0.302294 138 138 138
-0.231614 -0.278828 0.295392 185 185 185
-0.227768 -0.288303 0.290956 180 180 180
-0.224446 -0.291737 0.289347 178 178 178
-0.221145 -0.295005 0.287817 175 175 175
-0.217970 -0.296813 0.286971 175 175 175
-0.214829 -0.298244 0.286301 175 175 175
-0.211690 -0.299676 0.285630 175 175 175
-0.208554 -0.301122 0.284953 175 175 175
-0.205419 -0.302598 0.284261 173 173 173
-0.202299 -0.303922 0.283642 173 173 173
-0.199182 -0.305237 0.283026 173 173 173
-0.196069 -0.306550 0.282411 173 173 173
-0.192958 -0.307860 0.281797 173 173 173
-0.189851 -0.309162 0.281188 173 173 173
-0.186746 -0.310478 0.280571 174 174 174
-0.183603 -0.312396 0.279674 174 174 174
-0.180455 -0.314444 0.278715 175 175 175
-0.177251 -0.317421 0.277321 175 175 175
-0.173967 -0.321717 0.275309 177 177 177
-0.170638 -0.326864 0.272898 179 179 179
-0.167061 -0.336141 0.268554 181 181 181
-0.163394 -0.347213 0.263370 177 177 177
-0.160019 -0.353893 0.260242 171 171 171
-0.156855 -0.357254 0.258668 166 166 166
-0.153757 -0.359634 0.257553 167 167 167
-0.150664 -0.362010 0.256441 165 165 165
-0.147596 -0.364042 0.255489 165 165 165
-0.144579 -0.365228 0.254934 165 165 165
-0.141569 -0.366337 0.254415 165 165 165
-0.138561 -0.367444 0.253896 165 165 165
-0.135551 -0.368659 0.253327 165 165 165
-0.132511 -0.370506 0.252462 163 163 163
-0.129501 -0.371832 0.251842 161 161 161
-0.126490 -0.373237 0.251184 161 161 161
-0.123435 -0.375654 0.250052 160 160 160
-0.120357 -0.378662 0.248643 148 148 148
-0.117279 -0.381852 0.247150 144 144 144
-0.114207 -0.385042 0.245656 143 143 143
-0.111143 -0.388224 0.244166 141 141 141
-0.108114 -0.390742 0.242987 138 138 138
-0.105105 -0.392906 0.241973 140 140 140
-0.102103 -0.395006 0.240990 142 142 142
-0.099111 -0.396988 0.240062 144 144 144
-0.096141 -0.398467 0.239369 145 145 145
-0.093193 -0.399439 0.238914 147 147 147
-0.090278 -0.399526 0.238873 150 150 150
-0.087367 -0.399498 0.238886 153 153 153
-0.084456 -0.399470 0.238899 156 156 156
-0.081558 -0.399021 0.239110 159 159 159
-0.078731 -0.396224 0.240420 173 173 173
-0.075877 -0.394107 0.241411 159 159 159
-0.073348 -0.380256 0.247897 138 138 138
-0.070397 -0.380879 0.247605 138 138 138
-0.067514 -0.378982 0.248493 138 138 138
-0.064624 -0.377157 0.249348 138 138 138
-0.061734 -0.375149 0.250288 138 138 138
-0.058852 -0.372613 0.251476 138 138 138
-0.055928 -0.371737 0.251886 138 138 138
-0.052996 -0.371187 0.252144 138 138 138
-0.050054 -0.371100 0.252184 138 138 138
-0.047112 -0.371027 0.252219 142 142 142
-0.044140 -0.372706 0.251432 140 140 140
-0.041202 -0.372418 0.251567 138 138 138
-0.038217 -0.375385 0.250177 138 138 138
-0.035233 -0.378678 0.248636 138 138 138
-0.032259 -0.381830 0.247160 138 138 138
-0.029286 -0.385506 0.245438 138 138 138
-0.026337 -0.387603 0.244456 138 138 138
-0.023395 -0.389438 0.243597 138 138 138
-0.020464 -0.390516 0.243092 138 138 138
-0.017548 -0.389579 0.243531 138 138 138
-0.014636 -0.387680 0.244420 138 138 138
-0.011719 -0.385778 0.245311 138 138 138
-0.008802 -0.382601 0.246798 138 138 138
-0.005871 -0.382691 0.246756 138 138 138
-0.002940 -0.383429 0.246411 138 138 138
-0.000010 -0.384736 0.245799 138 138 138
0.002918 -0.385302 0.245534 138 138 138
0.005843 -0.386585 0.244933 138 138 138
0.008760 -0.389584 0.243528 138 138 138
0.011666 -0.393377 0.241753 138 138 138
0.014575 -0.395020 0.240983 138 138 138
0.017488 -0.395572 0.240725 138 138 138
0.020404 -0.395663 0.240682 155 155 155
0.023314 -0.396362 0.240355 167 167 167
0.026218 -0.397468 0.239837 171 171 171
0.029118 -0.398774 0.239225 168 168 168
0.032021 -0.399559 0.238858 166 166 166
0.034927 -0.399983 0.238659 171 171 171
0.037834 -0.400302 0.238509 173 173 173
0.040746 -0.400243 0.238537 174 174 174
0.043658 -0.400184 0.238565 175 175 175
0.046574 -0.399907 0.238695 177 177 177
0.049496 -0.399326 0.238967 178 178 178
0.052426 -0.398441 0.239381 180 180 180
0.055356 -0.397662 0.239746 182 182 182
0.058289 -0.396822 0.240139 185 185 185
0.061234 -0.395557 0.240731 185 185 185
0.064182 -0.394262 0.241338 185 185 185
0.067132 -0.393004 0.241927 185 185 185
0.070110 -0.390819 0.242950 185 185 185
0.073095 -0.388561 0.244008 186 186 186
0.076087 -0.386236 0.245096 186 186 186
0.079090 -0.383735 0.246267 185 185 185
0.082084 -0.381680 0.247230 184 184 184
0.085070 -0.380013 0.248010 184 184 184
0.088060 -0.378343 0.248792 184 184 184
0.091054 -0.376672 0.249575 184 184 184
0.094049 -0.375080 0.250320 184 184 184
0.097028 -0.374006 0.250823 184 184 184
0.100010 -0.372931 0.251327 184 184 184
0.102994 -0.371855 0.251830 183 183 183
0.105994 -0.370434 0.252496 183 183 183
0.109000 -0.368952 0.253190 182 182 182
0.112010 -0.367465 0.253886 181 181 181
0.115015 -0.366167 0.254494 181 181 181
0.118048 -0.364295 0.255370 181 181 181
0.121088 -0.362373 0.256270 182 182 182
0.124140 -0.360296 0.257243 182 182 182
0.127197 -0.358188 0.258230 182 182 182
0.130299 -0.355278 0.259593 184 184 184
0.133463 -0.351274 0.261468 186 186 186
0.136580 -0.348353 0.262835 186 186 186
0.139705 -0.345405 0.264216 186 186 186
0.142825 -0.342677 0.265493 186 186 186
0.145979 -0.339435 0.267011 187 187 187
0.149119 -0.336573 0.268352 189 189 189
0.152260 -0.333796 0.269652 190 190 190
0.155464 -0.330057 0.271403 191 191 191
0.158633 -0.327054 0.272809 192 192 192
0.161789 -0.324367 0.274067 190 190 190
0.165126 -0.318856 0.276648 196 196 196
0.168506 -0.312851 0.279460 145 145 145
-0.242293 -0.260525 0.300599 139 139 139
-0.237868 -0.276041 0.293353 181 181 181
-0.233933 -0.286292 0.288566 178 178 178
-0.230577 -0.290019 0.286825 175 175 175
-0.227231 -0.293728 0.285092 172 172 172
-0.223972 -0.296489 0.283803 171 171 171
-0.220776 -0.298553 0.282839 172 172 172
-0.217597 -0.300471 0.281943 174 174 174
-0.214461 -0.301899 0.281276 174 174 174
-0.211322 -0.303412 0.280569 173 173 173
-0.208174 -0.305071 0.279795 174 174 174
-0.205068 -0.306243 0.279248 174 174 174
-0.201966 -0.307394 0.278710 174 174 174
-0.198861 -0.308612 0.278141 173 173 173
-0.195753 -0.309917 0.277532 173 173 173
-0.192642 -0.311312 0.276880 175 175 175
-0.189496 -0.313230 0.275984 176 176 176
-0.186354 -0.315166 0.275080 176 176 176
-0.183206 -0.317244 0.274110 177 177 177
-0.179962 -0.320813 0.272443 179 179 179
-0.176631 -0.325820 0.270104 180 180 180
-0.173077 -0.334437 0.266080 182 182 182
-0.169509 -0.343568 0.261815 181 181 181
-0.166120 -0.350161 0.258736 176 176 176
-0.162827 -0.355456 0.256263 168 168 168
-0.159722 -0.357844 0.255148 166 166 166
-0.156623 -0.360228 0.254034 165 165 165
-0.153530 -0.362596 0.252928 163 163 163
-0.150484 -0.364229 0.252166 161 161 161
-0.147477 -0.365236 0.251696 161 161 161
-0.144454 -0.366576 0.251070 161 161 161
-0.141434 -0.367914 0.250445 160 160 160
-0.138419 -0.369212 0.249838 161 161 161
-0.135412 -0.370415 0.249277 158 158 158
-0.132406 -0.371642 0.248704 156 156 156
-0.129400 -0.372949 0.248093 156 156 156
-0.126388 -0.374416 0.247408 156 156 156
-0.123325 -0.377048 0.246179 152 152 152
-0.120263 -0.379794 0.244896 141 141 141
-0.117197 -0.382758 0.243512 139 139 139
-0.114137 -0.385714 0.242131 138 138 138
-0.111089 -0.388568 0.240798 138 138 138
-0.108068 -0.390928 0.239696 138 138 138
-0.105064 -0.392995 0.238731 139 139 139
-0.102065 -0.395059 0.237767 141 141 141
-0.099083 -0.396782 0.236962 141 141 141
-0.096105 -0.398509 0.236156 145 145 145
-0.093186 -0.398723 0.236056 146 146 146
-0.090266 -0.398936 0.235956 148 148 148
-0.087348 -0.399150 0.235856 151 151 151
-0.084435 -0.399183 0.235841 152 152 152
-0.081591 -0.397073 0.236827 165 165 165
-0.078762 -0.394273 0.238134 178 178 178
-0.076215 -0.381584 0.244060 160 160 160
-0.073386 -0.377961 0.245752 138 138 138
-0.070442 -0.378297 0.245595 138 138 138
-0.067556 -0.376391 0.246485 138 138 138
-0.064681 -0.373889 0.247654 138 138 138
-0.061813 -0.370855 0.249071 138 138 138
-0.058897 -0.369684 0.249618 138 138 138
-0.055971 -0.368807 0.250028 138 138 138
-0.053043 -0.367929 0.250438 138 138 138
-0.050114 -0.367050 0.250848 138 138 138
-0.047146 -0.368200 0.250311 138 138 138
-0.044172 -0.369882 0.249525 146 146 146
-0.041251 -0.368414 0.250211 138 138 138
-0.038269 -0.370836 0.249080 138 138 138
-0.035284 -0.373993 0.247606 138 138 138
-0.032312 -0.376627 0.246375 138 138 138
-0.029345 -0.379304 0.245125 138 138 138
-0.026376 -0.382827 0.243480 138 138 138
-0.023428 -0.384830 0.242544 138 138 138
-0.020504 -0.384400 0.242745 138 138 138
-0.017591 -0.382222 0.243762 138 138 138
-0.014677 -0.379345 0.245106 138 138 138
-0.011752 -0.377379 0.246024 138 138 138
-0.008822 -0.375824 0.246750 138 138 138
-0.005884 -0.376086 0.246628 138 138 138
-0.002946 -0.376790 0.246299 138 138 138
-0.000010 -0.377712 0.245868 138 138 138
0.002924 -0.379449 0.245057 138 138 138
0.005849 -0.383015 0.243392 138 138 138
0.008768 -0.386054 0.241973 138 138 138
0.011668 -0.391983 0.239203 138 138 138
0.014575 -0.394187 0.238174 138 138 138
0.017473 -0.396929 0.236893 138 138 138
0.020374 -0.398579 0.236123 159 159 159
0.023278 -0.399429 0.235726 162 162 162
0.026181 -0.400201 0.235365 162 162 162
0.029083 -0.400972 0.235005 162 162 162
0.031986 -0.401471 0.234772 168 168 168
0.034886 -0.402074 0.234491 168 168 168
0.037786 -0.402676 0.234209 169 169 169
0.040683 -0.403278 0.233928 171 171 171
0.043584 -0.403662 0.233749 172 172 172
0.046495 -0.403347 0.233896 174 174 174
0.049408 -0.403031 0.234043 175 175 175
0.052321 -0.402715 0.234191 177 177 177
0.055244 -0.401988 0.234531 179 179 179
0.058167 -0.401310 0.234847 180 180 180
0.061092 -0.400626 0.235167 181 181 181
0.064023 -0.399780 0.235562 182 182 182
0.066966 -0.398538 0.236142 183 183 183
0.069911 -0.397279 0.236730 183 183 183
0.072860 -0.396020 0.237318 184 184 184
0.075823 -0.394359 0.238093 185 185 185
0.078790 -0.392697 0.238870 185 185 185
0.081780 -0.390422 0.239932 188 188 188
0.084792 -0.387630 0.241236 187 187 187
0.087788 -0.385508 0.242227 187 187 187
0.090788 -0.383383 0.243220 187 187 187
0.093810 -0.380810 0.244421 186 186 186
0.096822 -0.378639 0.245435 185 185 185
0.099820 -0.376980 0.246210 184 184 184
0.102804 -0.375752 0.246784 184 184 184
0.105801 -0.374272 0.247475 184 184 184
0.108802 -0.372791 0.248167 184 184 184
0.111806 -0.371311 0.248858 183 183 183
0.114824 -0.369599 0.249657 182 182 182
0.117873 -0.367254 0.250753 182 182 182
0.120908 -0.365348 0.251643 181 181 181
0.123948 -0.363414 0.252546 182 182 182
0.127009 -0.361148 0.253604 182 182 182
0.130097 -0.358429 0.254874 182 182 182
0.133190 -0.355742 0.256129 182 182 182
0.136315 -0.352554 0.257618 184 184 184
0.139451 -0.349288 0.259143 184 184 184
0.142574 -0.346388 0.260498 184 184 184
0.145670 -0.344114 0.261560 183 183 183
0.148781 -0.341646 0.262712 184 184 184
0.151918 -0.338827 0.264029 185 185 185
0.155048 -0.336249 0.265233 186 186 186
0.158183 -0.333666 0.266439 188 188 188
0.161319 -0.331171 0.267605 189 189 189
0.164503 -0.328000 0.269086 190 190 190
0.167698 -0.324750 0.270603 190 190 190
0.170926 -0.321106 0.272305 193 193 193
0.174273 -0.315758 0.274803 195 195 195
0.177637 -0.310336 0.277335 145 145 145
-0.248489 -0.258880 0.298004 141 141 141
-0.244296 -0.271411 0.292168 181 181 181
-0.240402 -0.280895 0.287750 174 174 174
-0.236823 -0.287020 0.284897 172 172 172
-0.233467 -0.290717 0.283175 170 170 170
-0.230118 -0.294442 0.281440 169 169 169
-0.226889 -0.296829 0.280328 169 169 169
-0.223615 -0.299821 0.278934 170 170 170
-0.220403 -0.302153 0.277847 173 173 173
-0.217211 -0.304295 0.276850 173 173 173
-0.214059 -0.305993 0.276059 173 173 173
-0.210914 -0.307649 0.275288 174 174 174
-0.207792 -0.309054 0.274633 174 174 174
-0.204693 -0.310203 0.274098 175 175 175
-0.201584 -0.311521 0.273484 175 175 175
-0.198458 -0.313108 0.272745 178 178 178
-0.195345 -0.314567 0.272065 177 177 177
-0.192227 -0.316134 0.271335 177 177 177
-0.189097 -0.317928 0.270500 178 178 178
-0.185837 -0.321642 0.268769 179 179 179
-0.182572 -0.325547 0.266950 180 180 180
-0.179014 -0.333951 0.263036 183 183 183
-0.175538 -0.341391 0.259570 182 182 182
-0.172171 -0.347406 0.256768 176 176 176
-0.168933 -0.351627 0.254802 173 173 173
-0.165715 -0.355681 0.252914 164 164 164
-0.162601 -0.358192 0.251744 164 164 164
-0.159493 -0.360698 0.250577 163 163 163
-0.156396 -0.363110 0.249453 161 161 161
-0.153375 -0.364310 0.248894 159 159 159
-0.150366 -0.365351 0.248410 158 158 158
-0.147364 -0.366306 0.247965 158 158 158
-0.144363 -0.367294 0.247504 158 158 158
-0.141345 -0.368631 0.246881 158 158 158
-0.138331 -0.369941 0.246272 156 156 156
-0.135318 -0.371310 0.245634 154 154 154
-0.132304 -0.372737 0.244969 152 152 152
-0.129299 -0.374065 0.244350 152 152 152
-0.126287 -0.375592 0.243639 153 153 153
-0.123238 -0.377977 0.242528 141 141 141
-0.120172 -0.380830 0.241199 138 138 138
-0.117112 -0.383706 0.239859 138 138 138
-0.114063 -0.386482 0.238566 138 138 138
-0.111016 -0.389354 0.237229 138 138 138
-0.108015 -0.391288 0.236328 138 138 138
-0.105022 -0.393105 0.235482 138 138 138
-0.102027 -0.395095 0.234554 139 139 139
-0.099041 -0.396965 0.233683 144 144 144
-0.096098 -0.397793 0.233298 145 145 145
-0.093178 -0.398006 0.233198 146 146 146
-0.090258 -0.398250 0.233085 149 149 149
-0.087332 -0.398689 0.232881 152 152 152
-0.084439 -0.398164 0.233125 157 157 157
-0.081623 -0.395122 0.234542 170 170 170
-0.078793 -0.392320 0.235847 184 184 184
-0.076277 -0.378549 0.242261 141 141 141
-0.073346 -0.378461 0.242303 142 142 142
-0.070482 -0.375866 0.243511 138 138 138
-0.067595 -0.373969 0.244395 138 138 138
-0.064765 -0.369594 0.246433 138 138 138
-0.061867 -0.367630 0.247348 138 138 138
-0.058940 -0.366841 0.247715 138 138 138
-0.056003 -0.366358 0.247940 138 138 138
-0.053066 -0.365874 0.248166 138 138 138
-0.050122 -0.365707 0.248244 138 138 138
-0.047164 -0.366258 0.247987 138 138 138
-0.044203 -0.367055 0.247616 145 145 145
-0.041231 -0.368738 0.246832 145 145 145
-0.038315 -0.366796 0.247736 138 138 138
-0.035341 -0.368816 0.246795 138 138 138
-0.032364 -0.371459 0.245564 138 138 138
-0.029393 -0.374096 0.244336 138 138 138
-0.026426 -0.376920 0.243021 138 138 138
-0.023472 -0.379101 0.242005 138 138 138
-0.020553 -0.377352 0.242819 138 138 138
-0.017631 -0.375362 0.243746 138 138 138
-0.014705 -0.373538 0.244596 138 138 138
-0.011769 -0.372699 0.244987 138 138 138
-0.008832 -0.372007 0.245309 138 138 138
-0.005893 -0.371297 0.245639 138 138 138
-0.002952 -0.370979 0.245788 138 138 138
-0.000010 -0.371325 0.245626 138 138 138
0.002927 -0.375235 0.243805 138 138 138
0.005856 -0.379198 0.241959 138 138 138
0.008777 -0.382516 0.240414 138 138 138
0.011670 -0.390589 0.236653 138 138 138
0.014577 -0.392794 0.235626 138 138 138
0.017467 -0.396965 0.233683 138 138 138
0.020365 -0.398759 0.232848 153 153 153
0.023261 -0.400467 0.232052 156 156 156
0.026152 -0.402172 0.231258 160 160 160
0.029050 -0.402957 0.230892 161 161 161
0.031948 -0.403585 0.230600 163 163 163
0.034843 -0.404365 0.230236 166 166 166
0.037733 -0.405392 0.229758 167 167 167
0.040621 -0.406315 0.229328 167 167 167
0.043519 -0.406558 0.229215 171 171 171
0.046421 -0.406570 0.229209 172 172 172
0.049324 -0.406498 0.229242 173 173 173
0.052235 -0.406047 0.229453 175 175 175
0.055151 -0.405449 0.229731 176 176 176
0.058070 -0.404737 0.230063 177 177 177
0.060988 -0.404130 0.230346 177 177 177
0.063908 -0.403523 0.230629 177 177 177
0.066829 -0.402907 0.230916 179 179 179
0.069755 -0.402177 0.231256 181 181 181
0.072686 -0.401294 0.231667 182 182 182
0.075623 -0.400288 0.232135 183 183 183
0.078573 -0.398940 0.232763 185 185 185
0.081536 -0.397271 0.233540 185 185 185
0.084501 -0.395655 0.234293 185 185 185
0.087470 -0.394037 0.235047 186 186 186
0.090464 -0.391789 0.236094 187 187 187
0.093476 -0.389174 0.237312 187 187 187
0.096496 -0.386514 0.238551 187 187 187
0.099518 -0.383963 0.239740 186 186 186
0.102549 -0.381318 0.240972 187 187 187
0.105591 -0.378566 0.242254 191 191 191
0.108603 -0.376656 0.243143 185 185 185
0.111603 -0.375141 0.243849 184 184 184
0.114623 -0.373263 0.244724 184 184 184
0.117670 -0.370853 0.245846 183 183 183
0.120723 -0.368439 0.246971 183 183 183
0.123771 -0.366240 0.247995 183 183 183
0.126823 -0.364066 0.249007 182 182 182
0.129907 -0.361355 0.250270 182 182 182
0.132996 -0.358652 0.251530 182 182 182
0.136090 -0.355966 0.252781 182 182 182
0.139196 -0.353180 0.254078 183 183 183
0.142339 -0.349821 0.255643 183 183 183
0.145439 -0.347371 0.256784 182 182 182
0.148545 -0.344913 0.257929 182 182 182
0.151657 -0.342451 0.259076 182 182 182
0.154766 -0.340136 0.260154 182 182 182
0.157900 -0.337494 0.261385 184 184 184
0.161025 -0.335090 0.262505 184 184 184
0.164146 -0.332828 0.263558 185 185 185
0.167273 -0.330562 0.264614 185 185 185
0.170422 -0.328046 0.265786 185 185 185
0.173625 -0.324766 0.267313 188 188 188
0.176853 -0.321224 0.268963 190 190 190
0.180110 -0.317382 0.270753 191 191 191
0.183461 -0.312278 0.273131 194 194 194
0.186776 -0.307865 0.275186 198 198 198
-0.255288 -0.250774 0.298410 138 138 138
-0.250749 -0.266691 0.291015 183 183 183
-0.246854 -0.275895 0.286739 175 175 175
-0.243298 -0.281564 0.284105 172 172 172
-0.239742 -0.287378 0.281404 168 168 168
-0.236348 -0.291485 0.279496 167 167 167
-0.233017 -0.294969 0.277878 168 168 168
-0.229735 -0.297978 0.276480 169 169 169
-0.226459 -0.300986 0.275082 170 170 170
-0.223174 -0.304186 0.273596 172 172 172
-0.219978 -0.306383 0.272575 173 173 173
-0.216817 -0.308219 0.271722 172 172 172
-0.213642 -0.310265 0.270771 175 175 175
-0.210441 -0.312715 0.269633 175 175 175
-0.207322 -0.314174 0.268955 178 178 178
-0.204197 -0.315756 0.268220 178 178 178
-0.201079 -0.317284 0.267511 179 179 179
-0.197969 -0.318756 0.266827 179 179 179
-0.194768 -0.321528 0.265538 180 180 180
-0.191558 -0.324505 0.264155 182 182 182
-0.188336 -0.327742 0.262652 181 181 181
-0.184810 -0.335466 0.259064 182 182 182
-0.181469 -0.340730 0.256618 182 182 182
-0.178117 -0.346338 0.254013 178 178 178
-0.174930 -0.349628 0.252484 174 174 174
-0.171740 -0.353091 0.250875 171 171 171
-0.168578 -0.356248 0.249409 165 165 165
-0.165459 -0.358809 0.248219 163 163 163
-0.162359 -0.361167 0.247123 162 162 162
-0.159305 -0.362859 0.246337 160 160 160
-0.156278 -0.364156 0.245735 157 157 157
-0.153244 -0.365632 0.245049 156 156 156
-0.150240 -0.366624 0.244588 156 156 156
-0.147244 -0.367525 0.244169 155 155 155
-0.144251 -0.368399 0.243763 155 155 155
-0.141256 -0.369348 0.243323 155 155 155
-0.138240 -0.370746 0.242673 153 153 153
-0.135225 -0.372177 0.242008 152 152 152
-0.132213 -0.373617 0.241339 150 150 150
-0.129204 -0.375055 0.240671 149 149 149
-0.126196 -0.376551 0.239976 145 145 145
-0.123154 -0.378823 0.238921 138 138 138
-0.120094 -0.381608 0.237627 138 138 138
-0.117040 -0.384388 0.236335 138 138 138
-0.113984 -0.387374 0.234948 138 138 138
-0.110952 -0.389936 0.233758 138 138 138
-0.107951 -0.391893 0.232849 138 138 138
-0.104961 -0.393708 0.232005 139 139 139
-0.101977 -0.395461 0.231191 140 140 140
-0.098999 -0.397157 0.230403 145 145 145
-0.096073 -0.397531 0.230229 148 148 148
-0.093147 -0.397970 0.230025 151 151 151
-0.090221 -0.398408 0.229822 154 154 154
-0.087296 -0.398848 0.229618 157 157 157
-0.084468 -0.396351 0.230777 168 168 168
-0.081652 -0.393281 0.232204 179 179 179
-0.078950 -0.386210 0.235489 162 162 162
-0.076206 -0.380037 0.238356 144 144 144
-0.073406 -0.375380 0.240520 138 138 138
-0.070519 -0.373564 0.241364 138 138 138
-0.067637 -0.371427 0.242356 138 138 138
-0.064803 -0.367102 0.244366 138 138 138
-0.061881 -0.366103 0.244830 138 138 138
-0.058949 -0.365483 0.245118 138 138 138
-0.056012 -0.364999 0.245343 138 138 138
-0.053075 -0.364515 0.245568 138 138 138
-0.050118 -0.364962 0.245360 139 139 139
-0.047161 -0.365513 0.245104 146 146 146
-0.044204 -0.366064 0.244848 151 151 151
-0.041250 -0.366614 0.244592 155 155 155
-0.038319 -0.365574 0.245076 138 138 138
-0.035348 -0.367350 0.244251 138 138 138
-0.032378 -0.369377 0.243309 138 138 138
-0.029413 -0.371401 0.242368 138 138 138
-0.026456 -0.373072 0.241592 138 138 138
-0.023519 -0.372858 0.241692 138 138 138
-0.020585 -0.372351 0.241927 138 138 138
-0.017658 -0.370451 0.242810 138 138 138
-0.014725 -0.369042 0.243464 138 138 138
-0.011778 -0.369897 0.243067 138 138 138
-0.008836 -0.369697 0.243160 138 138 138
-0.005896 -0.368983 0.243492 138 138 138
-0.002954 -0.368246 0.243835 138 138 138
-0.000010 -0.368658 0.243643 138 138 138
0.002932 -0.369909 0.243062 138 138 138
0.005863 -0.374810 0.240785 138 138 138
0.008786 -0.378947 0.238863 138 138 138
0.011672 -0.389194 0.234102 138 138 138
0.014571 -0.392937 0.232364 138 138 138
0.017460 -0.397001 0.230475 138 138 138
0.020358 -0.398739 0.229668 138 138 138
0.023252 -0.400447 0.228874 143 143 143
0.026138 -0.402627 0.227862 153 153 153
0.029023 -0.404494 0.226994 159 159 159
0.031905 -0.406173 0.226214 163 163 163
0.034794 -0.407115 0.225776 164 164 164
0.037682 -0.407929 0.225399 166 166 166
0.040570 -0.408663 0.225058 168 168 168
0.043468 -0.408706 0.225038 171 171 171
0.046366 -0.408714 0.225034 171 171 171
0.049265 -0.408692 0.225044 172 172 172
0.052164 -0.408694 0.225043 173 173 173
0.055070 -0.408307 0.225223 174 174 174
0.057989 -0.407422 0.225634 175 175 175
0.060905 -0.406739 0.225951 176 176 176
0.063821 -0.406133 0.226233 175 175 175
0.066739 -0.405473 0.226540 179 179 179
0.069660 -0.404782 0.226860 179 179 179
0.072582 -0.404090 0.227182 179 179 179
0.075507 -0.403351 0.227525 179 179 179
0.078442 -0.402366 0.227983 180 180 180
0.081384 -0.401189 0.228530 180 180 180
0.084329 -0.400011 0.229077 180 180 180
0.087277 -0.398832 0.229625 180 180 180
0.090228 -0.397641 0.230178 181 181 181
0.093195 -0.396088 0.230899 184 184 184
0.096193 -0.393779 0.231972 184 184 184
0.099201 -0.391345 0.233103 185 185 185
0.102203 -0.389197 0.234101 186 186 186
0.105224 -0.386724 0.235250 187 187 187
0.108285 -0.383389 0.236799 187 187 187
0.111333 -0.380562 0.238113 188 188 188
0.114369 -0.378141 0.239237 186 186 186
0.117424 -0.375400 0.240511 186 186 186
0.120479 -0.372820 0.241709 186 186 186
0.123532 -0.370396 0.242835 185 185 185
0.126640 -0.366943 0.244439 184 184 184
0.129727 -0.364071 0.245774 183 183 183
0.132802 -0.361562 0.246939 182 182 182
0.135893 -0.358851 0.248199 182 182 182
0.138995 -0.356061 0.249495 182 182 182
0.142103 -0.353264 0.250794 182 182 182
0.145214 -0.350528 0.252065 181 181 181
0.148323 -0.347929 0.253273 181 181 181
0.151440 -0.345300 0.254494 181 181 181
0.154546 -0.342971 0.255576 181 181 181
0.157652 -0.340716 0.256624 181 181 181
0.160758 -0.338555 0.257628 182 182 182
0.163876 -0.336267 0.258691 182 182 182
0.167000 -0.333969 0.259758 183 183 183
0.170127 -0.331706 0.260810 183 183 183
0.173246 -0.329644 0.261767 184 184 184
0.176386 -0.327330 0.262842 184 184 184
0.179572 -0.324419 0.264195 187 187 187
0.182826 -0.320606 0.265966 189 189 189
0.186040 -0.317493 0.267413 190 190 190
0.189269 -0.314259 0.268915 191 191 191
0.192572 -0.310103 0.270846 193 193 193
0.195953 -0.304999 0.273217 196 196 196
-0.257179 -0.262378 0.289664 178 178 178
-0.253286 -0.271319 0.285522 177 177 177
-0.249662 -0.277539 0.282639 172 172 172
-0.246150 -0.282690 0.280253 169 169 169
-0.242669 -0.287618 0.277969 167 167 167
-0.239283 -0.291604 0.276123 168 168 168
-0.235830 -0.296452 0.273876 168 168 168
-0.232551 -0.299409 0.272506 169 169 169
-0.229269 -0.302491 0.271078 170 170 170
-0.225932 -0.306295 0.269316 172 172 172
-0.222665 -0.309364 0.267893 175 175 175
-0.219435 -0.312063 0.266643 177 177 177
-0.216231 -0.314519 0.265505 177 177 177
-0.213033 -0.316969 0.264370 177 177 177
-0.209882 -0.318894 0.263478 177 177 177
-0.206770 -0.320354 0.262801 179 179 179
-0.203599 -0.322653 0.261736 179 179 179
-0.200420 -0.325111 0.260597 179 179 179
-0.197221 -0.327913 0.259299 181 181 181
-0.193901 -0.332467 0.257189 182 182 182
-0.190532 -0.337859 0.254690 181 181 181
-0.187258 -0.342053 0.252747 178 178 178
-0.184036 -0.345656 0.251078 175 175 175
-0.180857 -0.348729 0.249654 173 173 173
-0.177674 -0.351983 0.248146 170 170 170
-0.174545 -0.354514 0.246973 168 168 168
-0.171452 -0.356586 0.246013 167 167 167
-0.168327 -0.359230 0.244788 162 162 162
-0.165260 -0.361053 0.243943 161 161 161
-0.162211 -0.362648 0.243204 158 158 158
-0.159171 -0.364138 0.242514 157 157 157
-0.156135 -0.365626 0.241824 156 156 156
-0.153111 -0.366976 0.241199 156 156 156
-0.150110 -0.367967 0.240740 156 156 156
-0.147111 -0.368958 0.240281 156 156 156
-0.144121 -0.369826 0.239878 155 155 155
-0.141136 -0.370659 0.239492 155 155 155
-0.138128 -0.371933 0.238902 153 153 153
-0.135124 -0.373206 0.238312 152 152 152
-0.132114 -0.374639 0.237648 150 150 150
-0.129108 -0.376076 0.236982 148 148 148
-0.126078 -0.378061 0.236063 141 141 141
-0.123038 -0.380357 0.234999 141 141 141
-0.120003 -0.382649 0.233937 139 139 139
-0.116968 -0.385068 0.232816 138 138 138
-0.113899 -0.388398 0.231273 140 140 140
-0.110888 -0.390516 0.230291 139 139 139
-0.107888 -0.392497 0.229374 139 139 139
-0.104902 -0.394234 0.228569 140 140 140
-0.101920 -0.395972 0.227764 142 142 142
-0.098952 -0.397456 0.227076 145 145 145
-0.096017 -0.398133 0.226762 151 151 151
-0.093104 -0.398248 0.226709 156 156 156
-0.090183 -0.398568 0.226561 160 160 160
-0.087307 -0.397603 0.227008 166 166 166
-0.084495 -0.394593 0.228403 176 176 176
-0.081675 -0.391612 0.229784 182 182 182
-0.079112 -0.379945 0.235190 100 100 100
-0.076224 -0.378515 0.235852 144 144 144
-0.073446 -0.373050 0.238384 139 139 139
-0.070554 -0.371368 0.239163 139 139 139
-0.067678 -0.368883 0.240315 139 139 139
-0.064793 -0.366576 0.241384 138 138 138
-0.061872 -0.365578 0.241847 138 138 138
-0.058949 -0.364578 0.242310 138 138 138
-0.056022 -0.363641 0.242744 139 139 139
-0.053073 -0.363665 0.242733 145 145 145
-0.050110 -0.364458 0.242366 149 149 149
-0.047145 -0.365429 0.241915 150 150 150
-0.044183 -0.366401 0.241465 151 151 151
-0.041290 -0.363133 0.242979 144 144 144
-0.038322 -0.364417 0.242384 138 138 138
-0.035352 -0.366109 0.241601 138 138 138
-0.032385 -0.367939 0.240753 138 138 138
-0.029419 -0.369965 0.239814 138 138 138
-0.026476 -0.370174 0.239717 138 138 138
-0.023529 -0.370855 0.239402 138 138 138
-0.020591 -0.370558 0.239539 138 138 138
-0.017676 -0.366804 0.241278 138 138 138
-0.014736 -0.366101 0.241604 138 138 138
-0.011787 -0.366958 0.241207 138 138 138
-0.008841 -0.367383 0.241010 138 138 138
-0.005899 -0.366668 0.241341 138 138 138
-0.002954 -0.366773 0.241293 138 138 138
-0.000010 -0.367903 0.240769 138 138 138
0.002933 -0.368168 0.240646 138 138 138
0.005875 -0.368492 0.240496 138 138 138
0.008802 -0.373356 0.238243 138 138 138
0.011673 -0.388064 0.231428 138 138 138
0.014564 -0.393342 0.228982 138 138 138
0.017454 -0.397011 0.227282 138 138 138
0.020348 -0.399145 0.226293 138 138 138
0.023234 -0.401580 0.225165 141 141 141
0.026117 -0.403832 0.224121 153 153 153
0.028999 -0.405691 0.223260 159 159 159
0.031875 -0.407732 0.222314 163 163 163
0.034757 -0.408960 0.221745 165 165 165
0.037637 -0.410128 0.221204 166 166 166
0.040522 -0.410780 0.220902 168 168 168
0.043416 -0.410875 0.220858 170 170 170
0.046311 -0.410856 0.220867 171 171 171
0.049203 -0.411014 0.220793 172 172 172
0.052097 -0.411058 0.220773 173 173 173
0.055004 -0.410519 0.221023 173 173 173
0.057911 -0.409980 0.221273 174 174 174
0.060821 -0.409391 0.221546 175 175 175
0.063734 -0.408715 0.221859 176 176 176
0.066650 -0.408029 0.222177 177 177 177
0.069566 -0.407353 0.222490 177 177 177
0.072483 -0.406693 0.222796 177 177 177
0.075402 -0.406033 0.223101 177 177 177
0.078330 -0.405132 0.223519 178 178 178
0.081264 -0.404083 0.224005 178 178 178
0.084205 -0.402918 0.224545 178 178 178
0.087148 -0.401751 0.225085 179 179 179
0.090098 -0.400459 0.225684 179 179 179
0.093052 -0.399152 0.226290 181 181 181
0.096004 -0.397967 0.226839 183 183 183
0.098946 -0.397113 0.227234 183 183 183
0.101908 -0.395810 0.227838 185 185 185
0.104889 -0.394092 0.228634 186 186 186
0.107903 -0.391676 0.229754 186 186 186
0.110926 -0.389186 0.230907 187 187 187
