ply
format ascii 1.0
element vertex 1164
property float x
property float y
property float z
property uchar red
property uchar green
property uchar blue
end_header
0.195802 -0.043648 -0.418712 140 140 140
0.197456 -0.040391 -0.418324 141 141 141
0.198942 -0.036795 -0.417862 141 141 141
0.200578 -0.033485 -0.417462 142 142 142
0.202232 -0.030201 -0.417069 142 142 142
0.203711 -0.026560 -0.416599 142 142 142
0.205354 -0.023234 -0.416198 141 141 141
0.206981 -0.019868 -0.415788 140 140 140
0.208484 -0.016243 -0.415323 139 139 139
0.210010 -0.012653 -0.414866 138 138 138
0.211434 -0.008847 -0.414362 138 138 138
0.212904 -0.005123 -0.413877 138 138 138
0.214366 -0.001371 -0.413386 138 138 138
0.215891 0.002267 -0.412921 138 138 138
0.217408 0.005931 -0.412451 138 138 138
0.218745 0.009972 -0.411899 138 138 138
0.220025 0.014144 -0.411319 138 138 138
0.221302 0.018335 -0.410737 138 138 138
0.222180 0.023360 -0.409974 138 138 138
0.222996 0.028531 -0.409181 140 140 140
0.223536 0.034290 -0.408262 143 143 143
0.224060 0.040106 -0.407331 144 144 144
0.224328 0.046475 -0.406283 143 143 143
0.224572 0.052919 -0.405219 142 142 142
0.224864 0.059289 -0.404172 139 139 139
0.224353 0.067362 -0.402760 138 138 138
0.223663 0.075848 -0.401261 138 138 138
0.221969 0.086480 -0.399302 138 138 138
-0.165450 -0.091450 -0.394711 138 138 138
-0.150852 -0.107868 -0.398882 138 138 138
-0.102650 -0.175154 -0.414847 138 138 138
-0.095955 -0.179875 -0.416288 138 138 138
-0.091627 -0.181032 -0.416902 138 138 138
-0.087396 -0.182054 -0.417484 138 138 138
-0.083253 -0.182951 -0.418036 138 138 138
-0.079284 -0.183595 -0.418529 138 138 138
-0.075327 -0.184228 -0.419018 138 138 138
-0.071349 -0.184904 -0.419517 138 138 138
-0.067256 -0.185768 -0.420059 138 138 138
-0.063014 -0.186871 -0.420655 138 138 138
-0.058792 -0.187955 -0.421246 138 138 138
-0.054459 -0.189222 -0.421879 138 138 138
-0.050265 -0.190286 -0.422464 138 138 138
-0.046077 -0.191354 -0.423049 138 138 138
-0.042071 -0.192147 -0.423570 138 138 138
-0.038181 -0.192770 -0.424052 138 138 138
-0.034321 -0.193356 -0.424524 138 138 138
-0.030283 -0.194231 -0.425062 138 138 138
-0.026223 -0.195150 -0.425610 138 138 138
-0.022130 -0.196133 -0.426172 138 138 138
-0.018179 -0.196902 -0.426684 138 138 138
-0.014193 -0.197738 -0.427210 138 138 138
-0.010431 -0.198227 -0.427657 138 138 138
-0.006872 -0.198403 -0.428031 138 138 138
-0.003549 -0.198210 -0.428321 138 138 138
-0.000250 -0.197983 -0.428603 138 138 138
0.003049 -0.197763 -0.428886 138 138 138
0.005931 -0.196878 -0.429016 138 138 138
0.008756 -0.195905 -0.429127 138 138 138
0.011580 -0.194932 -0.429237 138 138 138
0.014402 -0.193957 -0.429347 138 138 138
0.017098 -0.192781 -0.429411 138 138 138
0.019791 -0.191600 -0.429473 138 138 138
0.022439 -0.190349 -0.429520 138 138 138
0.025126 -0.189162 -0.429581 138 138 138
0.028032 -0.188333 -0.429724 138 138 138
0.030933 -0.187500 -0.429865 138 138 138
0.033817 -0.186643 -0.430001 138 138 138
0.036741 -0.185854 -0.430152 138 138 138
0.039806 -0.185301 -0.430356 138 138 138
0.042851 -0.184718 -0.430553 138 138 138
0.045868 -0.184093 -0.430741 138 138 138
0.048886 -0.183475 -0.430929 138 138 138
0.051908 -0.182866 -0.431120 138 138 138
0.054928 -0.182258 -0.431311 138 138 138
0.057959 -0.181674 -0.431506 138 138 138
0.061150 -0.181361 -0.431763 138 138 138
0.064373 -0.181107 -0.432033 138 138 138
0.067442 -0.180599 -0.432245 138 138 138
0.070391 -0.179894 -0.432412 138 138 138
0.073356 -0.179218 -0.432586 138 138 138
0.076331 -0.178564 -0.432765 138 138 138
0.079304 -0.177909 -0.432943 138 138 138
0.082286 -0.177274 -0.433125 138 138 138
0.084995 -0.176175 -0.433203 138 138 138
0.087690 -0.175055 -0.433277 138 138 138
0.090362 -0.173896 -0.433341 138 138 138
0.092736 -0.172224 -0.433290 138 138 138
0.095064 -0.170473 -0.433222 138 138 138
0.097443 -0.168807 -0.433173 138 138 138
0.099869 -0.167223 -0.433142 138 138 138
0.102295 -0.165638 -0.433111 138 138 138
0.104458 -0.163593 -0.432978 138 138 138
0.106526 -0.161379 -0.432806 138 138 138
0.108595 -0.159165 -0.432635 138 138 138
0.110668 -0.156952 -0.432465 138 138 138
0.112737 -0.154729 -0.432292 138 138 138
0.114818 -0.152524 -0.432124 138 138 138
0.116811 -0.150159 -0.431920 138 138 138
0.118779 -0.147745 -0.431705 138 138 138
0.120739 -0.145313 -0.431487 138 138 138
0.122691 -0.142861 -0.431265 138 138 138
0.124553 -0.140245 -0.431006 138 138 138
0.126458 -0.137698 -0.430763 138 138 138
0.128385 -0.135186 -0.430528 139 139 139
0.130217 -0.132499 -0.430255 139 139 139
0.132037 -0.129782 -0.429975 138 138 138
0.133822 -0.126997 -0.429681 139 139 139
0.135814 -0.124582 -0.429468 139 139 139
0.137817 -0.122180 -0.429259 139 139 139
0.139698 -0.119552 -0.429000 139 139 139
0.141662 -0.117070 -0.428774 139 139 139
0.143891 -0.115068 -0.428654 138 138 138
0.146103 -0.113033 -0.428527 138 138 138
0.148292 -0.110954 -0.428390 138 138 138
0.150485 -0.108876 -0.428254 138 138 138
0.152693 -0.106824 -0.428123 138 138 138
0.154902 -0.104771 -0.427993 138 138 138
0.157112 -0.102718 -0.427862 138 138 138
0.159328 -0.100673 -0.427734 138 138 138
0.161509 -0.098559 -0.427590 138 138 138
0.163696 -0.096452 -0.427449 138 138 138
0.165761 -0.094114 -0.427256 138 138 138
0.167726 -0.091583 -0.427022 138 138 138
0.169640 -0.088952 -0.426766 138 138 138
0.171715 -0.086617 -0.426575 138 138 138
0.173570 -0.083861 -0.426292 138 138 138
0.175326 -0.080912 -0.425967 138 138 138
0.177084 -0.077959 -0.425642 139 139 139
0.178787 -0.074894 -0.425293 139 139 139
0.180415 -0.071676 -0.424910 139 139 139
0.182046 -0.068455 -0.424528 141 141 141
0.183674 -0.065220 -0.424142 141 141 141
0.185283 -0.061938 -0.423747 141 141 141
0.186944 -0.058749 -0.423373 140 140 140
0.188622 -0.055584 -0.423004 139 139 139
0.190305 -0.052419 -0.422636 138 138 138
0.191996 -0.049262 -0.422270 139 139 139
0.193673 -0.046069 -0.421897 140 140 140
0.195322 -0.042813 -0.421510 141 141 141
0.196973 -0.039552 -0.421123 143 143 143
0.198469 -0.035975 -0.420667 143 143 143
0.200008 -0.032473 -0.420229 143 143 143
0.201519 -0.028905 -0.419776 143 143 143
0.203018 -0.025304 -0.419317 143 143 143
0.204610 -0.021875 -0.418896 142 142 142
0.206110 -0.018254 -0.418433 141 141 141
0.207601 -0.014603 -0.417965 139 139 139
0.209073 -0.010904 -0.417487 138 138 138
0.210475 -0.007052 -0.416976 138 138 138
0.211942 -0.003317 -0.416491 138 138 138
0.213373 0.000500 -0.415989 138 138 138
0.214884 0.004168 -0.415520 138 138 138
0.216367 0.007904 -0.415037 138 138 138
0.217653 0.012053 -0.414465 138 138 138
0.218924 0.016246 -0.413884 138 138 138
0.220107 0.020633 -0.413263 138 138 138
0.220946 0.025742 -0.412486 138 138 138
0.221748 0.030944 -0.411691 139 139 139
0.222219 0.036851 -0.410745 142 142 142
0.222913 0.042318 -0.409895 144 144 144
0.223113 0.048832 -0.408821 142 142 142
0.223403 0.055182 -0.407783 140 140 140
0.223262 0.062460 -0.406548 138 138 138
0.222612 0.070831 -0.405080 138 138 138
0.221348 0.080524 -0.403330 138 138 138
0.218750 0.093064 -0.400973 100 100 100
-0.154522 -0.102225 -0.400692 138 138 138
-0.104880 -0.171679 -0.417072 138 138 138
-0.098043 -0.176610 -0.418554 138 138 138
-0.092772 -0.179193 -0.419493 138 138 138
-0.088368 -0.180475 -0.420132 138 138 138
-0.084280 -0.181288 -0.420662 138 138 138
-0.080306 -0.181937 -0.421153 138 138 138
-0.076346 -0.182575 -0.421641 138 138 138
-0.072329 -0.183308 -0.422151 138 138 138
-0.068226 -0.184185 -0.422693 138 138 138
-0.064064 -0.185163 -0.423257 138 138 138
-0.059804 -0.186303 -0.423858 138 138 138
-0.055439 -0.187618 -0.424498 138 138 138
-0.051206 -0.188741 -0.425094 138 138 138
-0.047080 -0.189710 -0.425653 138 138 138
-0.043103 -0.190457 -0.426161 138 138 138
-0.039187 -0.191119 -0.426649 138 138 138
-0.035315 -0.191721 -0.427123 138 138 138
-0.031246 -0.192642 -0.427669 138 138 138
-0.027184 -0.193564 -0.428214 138 138 138
-0.023130 -0.194483 -0.428759 138 138 138
-0.019091 -0.195390 -0.429299 138 138 138
-0.015106 -0.196223 -0.429823 138 138 138
-0.011256 -0.196851 -0.430298 138 138 138
-0.007798 -0.196864 -0.430634 138 138 138
-0.004450 -0.196709 -0.430931 138 138 138
-0.001149 -0.196484 -0.431211 138 138 138
0.002076 -0.196144 -0.431465 138 138 138
0.004863 -0.195105 -0.431561 138 138 138
0.007637 -0.194046 -0.431651 138 138 138
0.010466 -0.193079 -0.431762 138 138 138
0.013262 -0.192059 -0.431862 138 138 138
0.015937 -0.190847 -0.431917 138 138 138
0.018579 -0.189581 -0.431961 138 138 138
0.021220 -0.188316 -0.432004 138 138 138
0.023953 -0.187199 -0.432081 138 138 138
0.026862 -0.186374 -0.432224 138 138 138
0.029769 -0.185550 -0.432366 138 138 138
0.032675 -0.184725 -0.432509 138 138 138
0.035610 -0.183950 -0.432662 138 138 138
0.038637 -0.183332 -0.432850 138 138 138
0.041657 -0.182707 -0.433037 138 138 138
0.044676 -0.182082 -0.433224 138 138 138
0.047698 -0.181467 -0.433413 138 138 138
0.050722 -0.180860 -0.433603 138 138 138
0.053733 -0.180234 -0.433789 138 138 138
0.056679 -0.179503 -0.433950 138 138 138
0.059840 -0.179137 -0.434194 138 138 138
0.063058 -0.178872 -0.434460 138 138 138
0.066280 -0.178618 -0.434728 138 138 138
0.069273 -0.177985 -0.434911 138 138 138
0.072252 -0.177330 -0.435089 138 138 138
0.075296 -0.176791 -0.435292 138 138 138
0.078411 -0.176375 -0.435523 138 138 138
0.081417 -0.175779 -0.435713 138 138 138
0.084199 -0.174804 -0.435819 138 138 138
0.086981 -0.173830 -0.435924 138 138 138
0.089751 -0.172839 -0.436026 138 138 138
0.092254 -0.171390 -0.436025 138 138 138
0.094681 -0.169808 -0.435995 138 138 138
0.097108 -0.168228 -0.435965 138 138 138
0.099536 -0.166647 -0.435935 138 138 138
0.101958 -0.165056 -0.435903 138 138 138
0.104176 -0.163107 -0.435791 138 138 138
0.106246 -0.160897 -0.435622 138 138 138
0.108317 -0.158686 -0.435452 138 138 138
0.110356 -0.156416 -0.435270 138 138 138
0.112407 -0.154162 -0.435091 138 138 138
0.114464 -0.151914 -0.434914 138 138 138
0.116490 -0.149608 -0.434725 138 138 138
0.118530 -0.147323 -0.434540 138 138 138
0.120572 -0.145037 -0.434355 138 138 138
0.122473 -0.142496 -0.434114 138 138 138
0.124336 -0.139880 -0.433857 138 138 138
0.126223 -0.137304 -0.433609 138 138 138
0.128050 -0.134614 -0.433336 139 139 139
0.129867 -0.131900 -0.433058 139 139 139
0.131650 -0.129118 -0.432765 138 138 138
0.133434 -0.126332 -0.432472 139 139 139
0.135399 -0.123866 -0.432250 139 139 139
0.137287 -0.121257 -0.431996 139 139 139
0.139125 -0.118551 -0.431722 139 139 139
0.141026 -0.115953 -0.431471 139 139 139
0.143193 -0.113836 -0.431326 138 138 138
0.145398 -0.111786 -0.431197 138 138 138
0.147529 -0.109598 -0.431037 138 138 138
0.149624 -0.107340 -0.430862 138 138 138
0.151805 -0.105236 -0.430721 138 138 138
0.153997 -0.103150 -0.430584 138 138 138
0.156191 -0.101064 -0.430447 138 138 138
0.158393 -0.098991 -0.430313 138 138 138
0.160579 -0.096884 -0.430172 138 138 138
0.162766 -0.094777 -0.430031 138 138 138
0.164955 -0.092668 -0.429890 138 138 138
0.166921 -0.090137 -0.429657 138 138 138
0.168983 -0.087783 -0.429463 138 138 138
0.171040 -0.085414 -0.429266 138 138 138
0.172993 -0.082844 -0.429025 138 138 138
0.174749 -0.079893 -0.428701 138 138 138
0.176509 -0.076944 -0.428379 139 139 139
0.178229 -0.073909 -0.428038 138 138 138
0.179856 -0.070691 -0.427657 140 140 140
0.181487 -0.067468 -0.427276 141 141 141
0.183123 -0.064248 -0.426896 141 141 141
0.184793 -0.061086 -0.426530 141 141 141
0.186492 -0.057969 -0.426173 140 140 140
0.188156 -0.054777 -0.425801 139 139 139
0.189822 -0.051580 -0.425427 139 139 139
0.191523 -0.048442 -0.425067 140 140 140
0.193190 -0.045229 -0.424692 141 141 141
0.194840 -0.041974 -0.424307 143 143 143
0.196492 -0.038714 -0.423922 144 144 144
0.197994 -0.035151 -0.423472 145 145 145
0.199459 -0.031503 -0.423004 145 145 145
0.200793 -0.027585 -0.422479 144 144 144
0.202242 -0.023881 -0.422000 144 144 144
0.203739 -0.020264 -0.421541 143 143 143
0.205239 -0.016640 -0.421080 142 142 142
0.206717 -0.012961 -0.420609 140 140 140
0.208136 -0.009154 -0.420110 139 139 139
0.209538 -0.005299 -0.419601 139 139 139
0.210972 -0.001497 -0.419105 138 138 138
0.212403 0.002325 -0.418605 138 138 138
0.213876 0.006071 -0.418121 138 138 138
0.215283 0.009964 -0.417607 138 138 138
0.216548 0.014159 -0.417029 138 138 138
0.217808 0.018378 -0.416446 138 138 138
0.218861 0.023034 -0.415770 138 138 138
0.219710 0.028125 -0.415002 138 138 138
0.220404 0.033556 -0.414162 140 140 140
0.221102 0.038998 -0.413321 141 141 141
0.221662 0.044744 -0.412415 142 142 142
0.221937 0.051107 -0.411380 141 141 141
0.221966 0.058004 -0.410231 140 140 140
0.221537 0.065886 -0.408874 138 138 138
0.220485 0.075104 -0.407233 138 138 138
0.219091 0.085079 -0.405434 138 138 138
-0.161163 -0.092100 -0.401485 138 138 138
-0.109574 -0.164479 -0.418448 138 138 138
-0.100127 -0.173351 -0.420827 138 138 138
-0.094505 -0.176461 -0.421882 138 138 138
-0.089662 -0.178407 -0.422670 138 138 138
-0.085376 -0.179520 -0.423266 138 138 138
-0.081331 -0.180275 -0.423779 138 138 138
-0.077365 -0.180920 -0.424266 138 138 138
-0.073310 -0.181709 -0.424786 138 138 138
-0.069138 -0.182690 -0.425349 138 138 138
-0.064981 -0.183659 -0.425908 138 138 138
-0.060794 -0.184686 -0.426480 138 138 138
-0.056450 -0.185967 -0.427109 138 138 138
-0.052148 -0.187196 -0.427726 138 138 138
-0.048065 -0.188095 -0.428266 138 138 138
-0.044046 -0.188907 -0.428786 138 138 138
-0.040052 -0.189688 -0.429299 138 138 138
-0.036266 -0.190155 -0.429739 138 138 138
-0.032210 -0.191054 -0.430277 138 138 138
-0.028147 -0.191975 -0.430820 138 138 138
-0.024081 -0.192911 -0.431365 138 138 138
-0.019992 -0.193897 -0.431921 138 138 138
-0.016010 -0.194721 -0.432439 138 138 138
-0.012084 -0.195468 -0.432940 138 138 138
-0.008725 -0.195324 -0.433238 138 138 138
-0.005372 -0.195174 -0.433535 138 138 138
-0.002049 -0.194983 -0.433821 138 138 138
0.001076 -0.194481 -0.434038 138 138 138
0.003883 -0.193471 -0.434139 138 138 138
0.006652 -0.192404 -0.434227 138 138 138
0.009422 -0.191339 -0.434316 138 138 138
0.012080 -0.190094 -0.434364 138 138 138
0.014707 -0.188802 -0.434401 138 138 138
0.017357 -0.187546 -0.434447 138 138 138
0.020000 -0.186280 -0.434490 138 138 138
0.022779 -0.185238 -0.434583 138 138 138
0.025686 -0.184406 -0.434724 138 138 138
0.028531 -0.183475 -0.434842 138 138 138
0.031373 -0.182544 -0.434960 138 138 138
0.034339 -0.181817 -0.435124 138 138 138
0.037392 -0.181238 -0.435320 138 138 138
0.040442 -0.180659 -0.435516 138 138 138
0.043483 -0.180069 -0.435710 138 138 138
0.046473 -0.179397 -0.435885 138 138 138
0.049424 -0.178665 -0.436046 138 138 138
0.052374 -0.177933 -0.436208 138 138 138
0.055322 -0.177203 -0.436369 138 138 138
0.058542 -0.176932 -0.436633 138 138 138
0.061761 -0.176666 -0.436897 138 138 138
0.064977 -0.176399 -0.437161 138 138 138
0.068234 -0.176209 -0.437442 138 138 138
0.071405 -0.175877 -0.437691 138 138 138
0.074523 -0.175462 -0.437921 138 138 138
0.077639 -0.175047 -0.438151 138 138 138
0.080546 -0.174282 -0.438302 138 138 138
0.083330 -0.173308 -0.438407 138 138 138
0.086115 -0.172337 -0.438513 138 138 138
0.088910 -0.171387 -0.438623 138 138 138
0.091583 -0.170230 -0.438687 138 138 138
0.094196 -0.168969 -0.438729 138 138 138
0.096780 -0.167660 -0.438759 138 138 138
0.099208 -0.166079 -0.438729 138 138 138
0.101599 -0.164434 -0.438685 138 138 138
0.103898 -0.162628 -0.438606 138 138 138
0.105967 -0.160418 -0.438437 138 138 138
0.107987 -0.158117 -0.438249 138 138 138
0.109978 -0.155763 -0.438049 138 138 138
0.112044 -0.153536 -0.437877 138 138 138
0.114046 -0.151191 -0.437680 138 138 138
0.116067 -0.148876 -0.437489 138 138 138
0.118107 -0.146592 -0.437305 138 138 138
0.120116 -0.144247 -0.437108 138 138 138
0.122028 -0.141725 -0.436873 138 138 138
0.123939 -0.139196 -0.436636 138 138 138
0.125832 -0.136631 -0.436392 138 138 138
0.127660 -0.133943 -0.436121 138 138 138
0.129469 -0.131214 -0.435841 138 138 138
0.131263 -0.128453 -0.435555 138 138 138
0.133047 -0.125667 -0.435263 139 139 139
0.134884 -0.122970 -0.434991 139 139 139
0.136666 -0.120167 -0.434697 139 139 139
0.138553 -0.117550 -0.434443 139 139 139
0.140453 -0.114951 -0.434194 139 139 139
0.142495 -0.112604 -0.434000 138 138 138
0.144667 -0.110494 -0.433858 138 138 138
0.146724 -0.108168 -0.433669 138 138 138
0.148822 -0.105913 -0.433495 138 138 138
0.150940 -0.103691 -0.433329 138 138 138
0.153133 -0.101605 -0.433193 138 138 138
0.155327 -0.099518 -0.433057 138 138 138
0.157560 -0.097499 -0.432936 138 138 138
0.159740 -0.095380 -0.432793 138 138 138
0.161897 -0.093213 -0.432640 138 138 138
0.164055 -0.091046 -0.432487 138 138 138
0.166208 -0.088865 -0.432331 138 138 138
0.168326 -0.086615 -0.432161 138 138 138
0.170364 -0.084210 -0.431957 138 138 138
0.172335 -0.081672 -0.431724 138 138 138
0.174172 -0.078875 -0.431436 138 138 138
0.175934 -0.075929 -0.431116 138 138 138
0.177670 -0.072924 -0.430783 139 139 139
0.179297 -0.069705 -0.430405 140 140 140
0.180942 -0.066511 -0.430032 141 141 141
0.182604 -0.063340 -0.429665 141 141 141
0.184263 -0.060153 -0.429295 141 141 141
0.185968 -0.057050 -0.428943 139 139 139
0.187677 -0.053944 -0.428591 139 139 139
0.189381 -0.050822 -0.428236 140 140 140
0.191056 -0.047634 -0.427867 141 141 141
0.192703 -0.044382 -0.427485 142 142 142
0.194352 -0.041125 -0.427103 144 144 144
0.195985 -0.037829 -0.426712 146 146 146
0.197492 -0.034273 -0.426266 146 146 146
0.198902 -0.030516 -0.425777 146 146 146
0.200206 -0.026539 -0.425242 145 145 145
0.201554 -0.022636 -0.424723 144 144 144
0.202953 -0.018821 -0.424224 143 143 143
0.204443 -0.015176 -0.423761 142 142 142
0.205889 -0.011431 -0.423278 140 140 140
0.207278 -0.007562 -0.422769 140 140 140
0.208636 -0.003617 -0.422244 139 139 139
0.210018 0.000292 -0.421727 138 138 138
0.211445 0.004122 -0.421228 138 138 138
0.212820 0.008071 -0.420704 138 138 138
0.214135 0.012155 -0.420152 138 138 138
0.215397 0.016357 -0.419575 138 138 138
0.216662 0.020569 -0.418997 138 138 138
0.217571 0.025524 -0.418262 138 138 138
0.218417 0.030627 -0.417496 138 138 138
0.219171 0.035937 -0.416686 139 139 139
0.219866 0.041389 -0.415847 140 140 140
0.220300 0.047402 -0.414891 141 141 141
0.220508 0.053906 -0.413831 140 140 140
0.220054 0.061814 -0.412474 139 139 139
0.219416 0.070139 -0.411030 138 138 138
0.218288 0.079522 -0.409364 138 138 138
0.215927 0.091534 -0.407144 100 100 100
-0.153021 -0.098703 -0.406473 138 138 138
-0.102115 -0.170236 -0.423139 138 138 138
-0.096553 -0.173251 -0.424167 138 138 138
-0.091061 -0.176179 -0.425174 138 138 138
-0.086813 -0.177230 -0.425753 138 138 138
-0.082603 -0.178234 -0.426320 138 138 138
-0.078402 -0.179237 -0.426887 138 138 138
-0.074225 -0.180212 -0.427446 138 138 138
-0.070036 -0.181218 -0.428011 138 138 138
-0.065855 -0.182222 -0.428576 138 138 138
-0.061626 -0.183313 -0.429159 138 138 138
-0.057373 -0.184451 -0.429753 138 138 138
-0.053101 -0.185632 -0.430355 138 138 138
-0.049005 -0.186551 -0.430897 138 138 138
-0.044935 -0.187439 -0.431432 138 138 138
-0.040873 -0.188326 -0.431966 138 138 138
-0.036979 -0.188960 -0.432442 138 138 138
-0.033057 -0.189648 -0.432929 138 138 138
-0.029109 -0.190387 -0.433428 138 138 138
-0.025030 -0.191342 -0.433974 138 138 138
-0.020930 -0.192342 -0.434530 138 138 138
-0.016909 -0.193229 -0.435060 138 138 138
-0.013088 -0.193808 -0.435520 138 138 138
-0.009658 -0.193773 -0.435841 138 138 138
-0.006304 -0.193624 -0.436137 138 138 138
-0.002950 -0.193482 -0.436433 138 138 138
0.000075 -0.192817 -0.436611 138 138 138
0.002901 -0.191837 -0.436719 138 138 138
0.005651 -0.190735 -0.436799 138 138 138
0.008331 -0.189523 -0.436855 138 138 138
0.010964 -0.188237 -0.436893 138 138 138
0.013584 -0.186930 -0.436927 138 138 138
0.016204 -0.185623 -0.436961 138 138 138
0.018817 -0.184306 -0.436993 138 138 138
0.021540 -0.183169 -0.437065 138 138 138
0.024362 -0.182195 -0.437173 138 138 138
0.027209 -0.181264 -0.437291 138 138 138
0.030054 -0.180333 -0.437408 138 138 138
0.033067 -0.179681 -0.437588 138 138 138
0.036121 -0.179102 -0.437784 138 138 138
0.039170 -0.178518 -0.437978 138 138 138
0.042213 -0.177927 -0.438170 138 138 138
0.045153 -0.177170 -0.438326 138 138 138
0.048076 -0.176387 -0.438475 138 138 138
0.051013 -0.175631 -0.438630 138 138 138
0.054017 -0.174990 -0.438811 138 138 138
0.057244 -0.174729 -0.439075 138 138 138
0.060477 -0.174483 -0.439343 138 138 138
0.063707 -0.174237 -0.439610 138 138 138
0.066992 -0.174089 -0.439899 138 138 138
0.070320 -0.174022 -0.440205 138 138 138
0.073645 -0.173954 -0.440511 138 138 138
0.076866 -0.173718 -0.440779 138 138 138
0.079683 -0.172795 -0.440895 138 138 138
0.082481 -0.171844 -0.441005 138 138 138
0.085277 -0.170893 -0.441115 138 138 138
0.088073 -0.169942 -0.441224 138 138 138
0.090692 -0.168689 -0.441267 138 138 138
0.093306 -0.167429 -0.441308 138 138 138
0.095919 -0.166168 -0.441349 138 138 138
0.098585 -0.164999 -0.441410 138 138 138
0.101101 -0.163571 -0.441414 138 138 138
0.103594 -0.162103 -0.441409 138 138 138
0.105620 -0.159818 -0.441225 138 138 138
0.107609 -0.157464 -0.441026 138 138 138
0.109626 -0.155156 -0.440837 138 138 138
0.111626 -0.152812 -0.440641 138 138 138
0.113627 -0.150467 -0.440444 138 138 138
0.115643 -0.148144 -0.440253 138 138 138
0.117714 -0.145914 -0.440082 138 138 138
0.119654 -0.143446 -0.439860 138 138 138
0.121565 -0.140924 -0.439625 138 138 138
0.123478 -0.138398 -0.439391 138 138 138
0.125378 -0.135845 -0.439150 138 138 138
0.127202 -0.133150 -0.438879 138 138 138
0.129007 -0.130414 -0.438599 138 138 138
0.130808 -0.127665 -0.438317 138 138 138
0.132604 -0.124901 -0.438032 139 139 139
0.134374 -0.122082 -0.437735 139 139 139
0.136135 -0.119242 -0.437434 139 139 139
0.137990 -0.116565 -0.437169 139 139 139
0.139884 -0.113955 -0.436918 139 139 139
0.141797 -0.111372 -0.436674 139 139 139
0.143844 -0.109029 -0.436482 139 139 139
0.145922 -0.106741 -0.436303 138 138 138
0.148020 -0.104485 -0.436130 138 138 138
0.150120 -0.102228 -0.435958 138 138 138
0.152269 -0.100059 -0.435804 138 138 138
0.154473 -0.097989 -0.435673 138 138 138
0.156709 -0.095975 -0.435553 138 138 138
0.158941 -0.093950 -0.435432 138 138 138
0.161098 -0.091783 -0.435279 138 138 138
0.163256 -0.089614 -0.435127 138 138 138
0.165408 -0.087429 -0.434971 138 138 138
0.167598 -0.085313 -0.434831 138 138 138
0.169679 -0.082987 -0.434645 138 138 138
0.171652 -0.080454 -0.434415 138 138 138
0.173584 -0.077836 -0.434167 138 138 138
0.175359 -0.074914 -0.433853 138 138 138
0.177111 -0.071939 -0.433529 139 139 139
0.178765 -0.068771 -0.433164 141 141 141
0.180426 -0.065607 -0.432800 141 141 141
0.182075 -0.062410 -0.432429 141 141 141
0.183732 -0.059221 -0.432060 140 140 140
0.185438 -0.056118 -0.431710 138 138 138
0.187149 -0.053017 -0.431361 139 139 139
0.188869 -0.049924 -0.431015 141 141 141
0.190569 -0.046785 -0.430658 142 142 142
0.192215 -0.043532 -0.430278 143 143 143
0.193845 -0.040239 -0.429890 145 145 145
0.195478 -0.036941 -0.429501 146 146 146
0.196990 -0.033396 -0.429059 147 147 147
0.198323 -0.029487 -0.428541 147 147 147
0.199629 -0.025513 -0.428009 146 146 146
0.200978 -0.021610 -0.427493 145 145 145
0.202347 -0.017737 -0.426984 143 143 143
0.203720 -0.013856 -0.426474 142 142 142
0.205048 -0.009875 -0.425943 141 141 141
0.206364 -0.005857 -0.425406 140 140 140
0.207683 -0.001832 -0.424867 139 139 139
0.209089 0.002032 -0.424363 138 138 138
0.210436 0.006026 -0.423831 138 138 138
0.211682 0.010237 -0.423255 138 138 138
0.212827 0.014668 -0.422632 138 138 138
0.214086 0.018883 -0.422056 138 138 138
0.215240 0.023326 -0.421432 138 138 138
0.216082 0.028423 -0.420671 138 138 138
0.216948 0.033489 -0.419917 138 138 138
0.217727 0.038753 -0.419122 138 138 138
0.218420 0.044214 -0.418286 139 139 139
0.218727 0.050495 -0.417278 140 140 140
0.218691 0.057510 -0.416116 139 139 139
0.218085 0.065741 -0.414699 138 138 138
0.217289 0.074404 -0.413193 138 138 138
0.215991 0.084150 -0.411460 138 138 138
-0.161517 -0.085754 -0.406649 138 138 138
-0.104459 -0.166582 -0.425335 138 138 138
-0.098259 -0.170559 -0.426576 138 138 138
-0.092472 -0.173933 -0.427679 138 138 138
-0.088082 -0.175197 -0.428303 138 138 138
-0.083855 -0.176225 -0.428872 138 138 138
-0.079649 -0.177232 -0.429436 138 138 138
-0.075203 -0.178618 -0.430086 138 138 138
-0.070939 -0.179738 -0.430674 138 138 138
-0.066752 -0.180750 -0.431237 138 138 138
-0.062443 -0.181962 -0.431845 138 138 138
-0.058188 -0.183103 -0.432436 138 138 138
-0.053942 -0.184242 -0.433025 138 138 138
-0.049673 -0.185429 -0.433625 138 138 138
-0.045614 -0.186301 -0.434153 138 138 138
-0.041564 -0.187167 -0.434679 138 138 138
-0.037728 -0.187711 -0.435133 138 138 138
-0.033804 -0.188400 -0.435618 138 138 138
-0.029887 -0.189089 -0.436102 138 138 138
-0.025983 -0.189768 -0.436584 138 138 138
-0.021878 -0.190774 -0.437139 138 138 138
-0.017808 -0.191735 -0.437682 138 138 138
-0.014104 -0.192127 -0.438098 138 138 138
-0.010664 -0.192107 -0.438421 138 138 138
-0.007228 -0.192086 -0.438743 138 138 138
-0.003860 -0.191964 -0.439042 138 138 138
-0.000930 -0.191145 -0.439186 138 138 138
0.001865 -0.190114 -0.439282 138 138 138
0.004547 -0.188901 -0.439337 138 138 138
0.007226 -0.187685 -0.439391 138 138 138
0.009847 -0.186377 -0.439425 138 138 138
0.012457 -0.185050 -0.439454 138 138 138
0.015060 -0.183714 -0.439482 138 138 138
0.017663 -0.182377 -0.439509 138 138 138
0.020431 -0.181311 -0.439596 138 138 138
0.023206 -0.180258 -0.439686 138 138 138
0.025979 -0.179204 -0.439776 138 138 138
0.028760 -0.178165 -0.439869 138 138 138
0.031787 -0.177533 -0.440053 138 138 138
0.034839 -0.176947 -0.440246 138 138 138
0.037889 -0.176362 -0.440439 138 138 138
0.040915 -0.175740 -0.440624 138 138 138
0.043873 -0.175008 -0.440784 138 138 138
0.046797 -0.174225 -0.440933 138 138 138
0.049720 -0.173442 -0.441081 138 138 138
0.052744 -0.172832 -0.441268 138 138 138
0.055970 -0.172565 -0.441530 138 138 138
0.059206 -0.172320 -0.441797 138 138 138
0.062439 -0.172076 -0.442063 138 138 138
0.065748 -0.171966 -0.442359 138 138 138
0.069079 -0.171900 -0.442664 138 138 138
0.072411 -0.171843 -0.442970 138 138 138
0.075683 -0.171689 -0.443255 138 138 138
0.078653 -0.171026 -0.443428 138 138 138
0.081622 -0.170364 -0.443601 138 138 138
0.084440 -0.169448 -0.443718 138 138 138
0.087185 -0.168410 -0.443807 138 138 138
0.089813 -0.167171 -0.443853 138 138 138
0.092485 -0.166009 -0.443916 138 138 138
0.095156 -0.164847 -0.443978 138 138 138
0.097789 -0.163620 -0.444026 138 138 138
0.100287 -0.162158 -0.444023 138 138 138
0.102892 -0.160884 -0.444061 138 138 138
0.105037 -0.158806 -0.443923 138 138 138
0.107087 -0.156559 -0.443748 138 138 138
0.109169 -0.154364 -0.443585 138 138 138
0.111197 -0.152071 -0.443401 138 138 138
0.113209 -0.149744 -0.443209 138 138 138
0.115220 -0.147412 -0.443017 138 138 138
0.117281 -0.145165 -0.442844 138 138 138
0.119191 -0.142645 -0.442611 138 138 138
0.121103 -0.140123 -0.442378 138 138 138
0.123016 -0.137598 -0.442145 138 138 138
0.124924 -0.135059 -0.441909 138 138 138
0.126737 -0.132343 -0.441634 138 138 138
0.128541 -0.129607 -0.441356 138 138 138
0.130348 -0.126868 -0.441078 139 139 139
0.132149 -0.124113 -0.440796 139 139 139
0.133922 -0.121301 -0.440502 139 139 139
0.135694 -0.118480 -0.440207 139 139 139
0.137473 -0.115664 -0.439913 139 139 139
0.139344 -0.113011 -0.439655 139 139 139
0.141240 -0.110397 -0.439405 139 139 139
0.143212 -0.107919 -0.439185 139 139 139
0.145199 -0.105461 -0.438970 139 139 139
0.147260 -0.103135 -0.438783 138 138 138
0.149322 -0.100807 -0.438597 138 138 138
0.151418 -0.098539 -0.438423 138 138 138
0.153622 -0.096465 -0.438291 138 138 138
0.155858 -0.094450 -0.438172 138 138 138
0.158096 -0.092434 -0.438053 138 138 138
0.160299 -0.090351 -0.437920 138 138 138
0.162456 -0.088179 -0.437768 138 138 138
0.164652 -0.086075 -0.437631 138 138 138
0.166948 -0.084158 -0.437533 138 138 138
0.168983 -0.081746 -0.437330 138 138 138
0.171041 -0.079372 -0.437135 138 138 138
0.172928 -0.076668 -0.436870 138 138 138
0.174711 -0.073759 -0.436562 139 139 139
0.176610 -0.071066 -0.436299 140 140 140
0.178262 -0.067892 -0.435935 141 141 141
0.179920 -0.064722 -0.435571 141 141 141
0.181565 -0.061518 -0.435201 141 141 141
0.183209 -0.058304 -0.434829 139 139 139
0.184927 -0.055223 -0.434486 139 139 139
0.186647 -0.052139 -0.434143 140 140 140
0.188370 -0.049053 -0.433799 141 141 141
0.190081 -0.045935 -0.433449 143 143 143
0.191708 -0.042645 -0.433063 144 144 144
0.193338 -0.039351 -0.432677 146 146 146
0.194971 -0.036053 -0.432290 147 147 147
0.196439 -0.032422 -0.431833 148 148 148
0.197744 -0.028458 -0.431306 148 148 148
0.199052 -0.024486 -0.430777 147 147 147
0.200401 -0.020584 -0.430264 146 146 146
0.201714 -0.016598 -0.429734 144 144 144
0.202905 -0.012354 -0.429150 142 142 142
0.204130 -0.008166 -0.428578 141 141 141
0.205411 -0.004075 -0.428028 140 140 140
0.206734 -0.000056 -0.427493 139 139 139
0.208087 0.003917 -0.426969 138 138 138
0.209289 0.008205 -0.426379 138 138 138
0.210451 0.012591 -0.425769 138 138 138
0.211572 0.017075 -0.425139 138 138 138
0.212772 0.021413 -0.424540 138 138 138
0.213749 0.026223 -0.423842 138 138 138
0.214643 0.031217 -0.423107 138 138 138
0.215472 0.036366 -0.422340 138 138 138
0.216267 0.041602 -0.421555 138 138 138
0.216842 0.047311 -0.420672 138 138 138
0.217141 0.053613 -0.419666 138 138 138
0.216760 0.061351 -0.418359 138 138 138
0.215977 0.069957 -0.416871 138 138 138
0.215225 0.078535 -0.415391 138 138 138
0.213261 0.089684 -0.413374 138 138 138
-0.152848 -0.093169 -0.411801 138 138 138
-0.100201 -0.167509 -0.428908 138 138 138
-0.094204 -0.171199 -0.430076 138 138 138
-0.089361 -0.173149 -0.430852 138 138 138
-0.085101 -0.174225 -0.431429 138 138 138
-0.080837 -0.175318 -0.432010 138 138 138
-0.076278 -0.176875 -0.432694 138 138 138
-0.071980 -0.178046 -0.433290 138 138 138
-0.067649 -0.179278 -0.433900 138 138 138
-0.063280 -0.180581 -0.434525 138 138 138
-0.058997 -0.181764 -0.435122 138 138 138
-0.054681 -0.183011 -0.435733 138 138 138
-0.050250 -0.184449 -0.436385 138 138 138
-0.046184 -0.185331 -0.436913 138 138 138
-0.042142 -0.186185 -0.437434 138 138 138
-0.038379 -0.186613 -0.437859 138 138 138
-0.034576 -0.187113 -0.438299 138 138 138
-0.030658 -0.187803 -0.438781 138 138 138
-0.026883 -0.188276 -0.439214 138 138 138
-0.022832 -0.189196 -0.439747 138 138 138
-0.018730 -0.190206 -0.440298 138 138 138
-0.015120 -0.190447 -0.440678 138 138 138
-0.011671 -0.190438 -0.441002 138 138 138
-0.008227 -0.190429 -0.441325 138 138 138
-0.004935 -0.190184 -0.441596 138 138 138
-0.002075 -0.189250 -0.441713 138 138 138
0.000776 -0.188306 -0.441827 138 138 138
0.003453 -0.187083 -0.441880 138 138 138
0.006103 -0.185818 -0.441923 138 138 138
0.008694 -0.184458 -0.441946 138 138 138
0.011299 -0.183121 -0.441973 138 138 138
0.013903 -0.181784 -0.442000 138 138 138
0.016545 -0.180508 -0.442041 138 138 138
0.019321 -0.179453 -0.442130 138 138 138
0.022118 -0.178433 -0.442227 138 138 138
0.024934 -0.177447 -0.442332 138 138 138
0.027762 -0.176484 -0.442441 138 138 138
0.030614 -0.175562 -0.442560 138 138 138
0.033592 -0.174849 -0.442724 138 138 138
0.036607 -0.174203 -0.442903 138 138 138
0.039617 -0.173551 -0.443080 138 138 138
0.042577 -0.172822 -0.443240 138 138 138
0.045517 -0.172060 -0.443393 138 138 138
0.048440 -0.171275 -0.443541 138 138 138
0.051523 -0.170759 -0.443747 138 138 138
0.054699 -0.170406 -0.443989 138 138 138
0.057928 -0.170146 -0.444251 138 138 138
0.061167 -0.169909 -0.444518 138 138 138
0.064509 -0.169853 -0.444824 138 138 138
0.067849 -0.169798 -0.445130 138 138 138
0.071184 -0.169743 -0.445435 138 138 138
0.074382 -0.169460 -0.445690 138 138 138
0.077354 -0.168798 -0.445863 138 138 138
0.080325 -0.168136 -0.446035 138 138 138
0.083312 -0.167506 -0.446214 138 138 138
0.086242 -0.166783 -0.446372 138 138 138
0.089053 -0.165857 -0.446486 138 138 138
0.091726 -0.164695 -0.446548 138 138 138
0.094398 -0.163534 -0.446610 138 138 138
0.096974 -0.162207 -0.446636 138 138 138
0.099632 -0.161022 -0.446693 138 138 138
0.102177 -0.159643 -0.446708 138 138 138
0.104388 -0.157679 -0.446596 138 138 138
0.106450 -0.155452 -0.446427 138 138 138
0.108541 -0.153273 -0.446268 138 138 138
0.110634 -0.151092 -0.446109 138 138 138
0.112681 -0.148827 -0.445932 138 138 138
0.114743 -0.146585 -0.445760 138 138 138
0.116735 -0.144215 -0.445561 138 138 138
0.118663 -0.141728 -0.445337 138 138 138
0.120593 -0.139238 -0.445112 138 138 138
0.122518 -0.136733 -0.444884 138 138 138
0.124436 -0.134212 -0.444653 138 138 138
0.126268 -0.131530 -0.444388 138 138 138
0.128076 -0.128800 -0.444113 138 138 138
0.129882 -0.126061 -0.443836 139 139 139
0.131690 -0.123319 -0.443558 139 139 139
0.133477 -0.120530 -0.443271 138 138 138
0.135253 -0.117717 -0.442979 139 139 139
0.137031 -0.114901 -0.442687 139 139 139
0.138811 -0.112082 -0.442394 140 140 140
0.140699 -0.109453 -0.442143 140 140 140
0.142654 -0.106942 -0.441917 140 140 140
0.144592 -0.104394 -0.441684 139 139 139
0.146625 -0.102017 -0.441487 139 139 139
0.148688 -0.099688 -0.441302 139 139 139
0.150751 -0.097358 -0.441116 138 138 138
0.152904 -0.095190 -0.440964 138 138 138
0.155082 -0.093064 -0.440823 138 138 138
0.157261 -0.090938 -0.440681 138 138 138
0.159484 -0.088891 -0.440556 138 138 138
0.161705 -0.086837 -0.440430 138 138 138
0.164001 -0.084921 -0.440334 138 138 138
0.166297 -0.083003 -0.440237 138 138 138
0.168345 -0.080612 -0.440039 138 138 138
0.170499 -0.078420 -0.439885 138 138 138
0.172301 -0.075553 -0.439586 138 138 138
0.174211 -0.072888 -0.439331 139 139 139
0.176124 -0.070219 -0.439076 140 140 140
0.177764 -0.067023 -0.438708 141 141 141
0.179422 -0.063853 -0.438347 141 141 141
0.181079 -0.060673 -0.437983 140 140 140
0.182708 -0.057430 -0.437607 139 139 139
0.184408 -0.054315 -0.437259 140 140 140
0.186128 -0.051230 -0.436917 141 141 141
0.187820 -0.048083 -0.436563 142 142 142
0.189508 -0.044920 -0.436205 144 144 144
0.191141 -0.041640 -0.435824 144 144 144
0.192783 -0.038369 -0.435444 146 146 146
0.194427 -0.035093 -0.435064 147 147 147
0.195813 -0.031301 -0.434575 147 147 147
0.197128 -0.027354 -0.434055 143 143 143
0.198445 -0.023400 -0.433533 148 148 148
0.199671 -0.019253 -0.432971 146 146 146
0.200875 -0.015050 -0.432399 144 144 144
0.202002 -0.010678 -0.431791 141 141 141
0.203251 -0.006535 -0.431232 141 141 141
0.204503 -0.002384 -0.430672 140 140 140
0.205740 0.001810 -0.430103 139 139 139
0.206940 0.006094 -0.429517 138 138 138
0.208094 0.010485 -0.428908 138 138 138
0.209196 0.014995 -0.428276 138 138 138
0.210316 0.019484 -0.427648 138 138 138
0.211419 0.024025 -0.427010 138 138 138
0.212311 0.029011 -0.426280 138 138 138
0.213211 0.033999 -0.425550 138 138 138
0.213997 0.039240 -0.424768 138 138 138
0.214793 0.044478 -0.423988 138 138 138
0.215211 0.050518 -0.423041 138 138 138
0.215490 0.056867 -0.422030 138 138 138
0.214797 0.065256 -0.420595 138 138 138
0.214015 0.073869 -0.419114 138 138 138
0.212936 0.083137 -0.417498 138 138 138
-0.162110 -0.079030 -0.411745 138 138 138
-0.102146 -0.164455 -0.431245 138 138 138
-0.096226 -0.168022 -0.432380 138 138 138
-0.091249 -0.170171 -0.433195 138 138 138
-0.086415 -0.172120 -0.433965 138 138 138
-0.082026 -0.173402 -0.434585 138 138 138
-0.077463 -0.174963 -0.435267 138 138 138
-0.073053 -0.176303 -0.435898 138 138 138
-0.068684 -0.177592 -0.436517 138 138 138
-0.064205 -0.179064 -0.437176 138 138 138
-0.059815 -0.180412 -0.437807 138 138 138
-0.055417 -0.181784 -0.438442 138 138 138
-0.050890 -0.183371 -0.439125 138 138 138
-0.046760 -0.184352 -0.439671 138 138 138
-0.042738 -0.185175 -0.440182 138 138 138
-0.038942 -0.185655 -0.440616 138 138 138
-0.035292 -0.185913 -0.441000 138 138 138
-0.031455 -0.186474 -0.441451 138 138 138
-0.027691 -0.186930 -0.441878 138 138 138
-0.023789 -0.187612 -0.442355 138 138 138
-0.019685 -0.188624 -0.442904 138 138 138
-0.016159 -0.188730 -0.443252 138 138 138
-0.012652 -0.188811 -0.443594 138 138 138
-0.009200 -0.188814 -0.443919 138 138 138
-0.006057 -0.188327 -0.444134 138 138 138
-0.003227 -0.187345 -0.444240 138 138 138
-0.000363 -0.186417 -0.444358 138 138 138
0.002366 -0.185275 -0.444428 138 138 138
0.004994 -0.183973 -0.444463 138 138 138
0.007583 -0.182608 -0.444485 138 138 138
0.010173 -0.181245 -0.444506 138 138 138
0.012763 -0.179881 -0.444527 138 138 138
0.015467 -0.178705 -0.444590 138 138 138
0.018285 -0.177716 -0.444693 138 138 138
0.021104 -0.176730 -0.444798 138 138 138
0.023922 -0.175745 -0.444902 138 138 138
0.026765 -0.174803 -0.445016 138 138 138
0.029621 -0.173886 -0.445135 138 138 138
0.032469 -0.172957 -0.445251 138 138 138
0.035431 -0.172221 -0.445409 138 138 138
0.038380 -0.171465 -0.445563 138 138 138
0.041302 -0.170667 -0.445707 138 138 138
0.044235 -0.169893 -0.445856 138 138 138
0.047148 -0.169087 -0.445999 138 138 138
0.050300 -0.168684 -0.446229 138 138 138
0.053479 -0.168332 -0.446470 138 138 138
0.056655 -0.167981 -0.446711 138 138 138
0.059905 -0.167759 -0.446979 138 138 138
0.063260 -0.167722 -0.447288 138 138 138
0.066612 -0.167683 -0.447596 138 138 138
0.069956 -0.167640 -0.447903 138 138 138
0.073079 -0.167228 -0.448129 138 138 138
0.076085 -0.166619 -0.448312 138 138 138
0.079091 -0.166015 -0.448495 138 138 138
0.082096 -0.165412 -0.448679 138 138 138
0.084996 -0.164634 -0.448825 138 138 138
0.087872 -0.163818 -0.448962 138 138 138
0.090713 -0.162943 -0.449086 138 138 138
0.093531 -0.162032 -0.449203 138 138 138
0.096328 -0.161086 -0.449311 138 138 138
0.098991 -0.159911 -0.449370 138 138 138
0.101463 -0.158402 -0.449357 138 138 138
0.103739 -0.156552 -0.449270 138 138 138
0.105817 -0.154352 -0.449107 138 138 138
0.107908 -0.152172 -0.448949 138 138 138
0.110001 -0.149991 -0.448791 138 138 138
0.112096 -0.147809 -0.448633 138 138 138
0.114158 -0.145568 -0.448463 138 138 138
0.116092 -0.143094 -0.448242 138 138 138
0.118040 -0.140640 -0.448026 138 138 138
0.119989 -0.138184 -0.447810 138 138 138
0.121940 -0.135726 -0.447594 138 138 138
0.123800 -0.133100 -0.447342 138 138 138
0.125665 -0.130478 -0.447091 138 138 138
0.127502 -0.127798 -0.446828 138 138 138
0.129340 -0.125115 -0.446564 139 139 139
0.131179 -0.122429 -0.446301 139 139 139
0.133025 -0.119748 -0.446038 138 138 138
0.134851 -0.117026 -0.445767 139 139 139
0.136624 -0.114200 -0.445474 140 140 140
0.138380 -0.111339 -0.445174 140 140 140
0.140159 -0.108509 -0.444881 140 140 140
0.142096 -0.105965 -0.444650 140 140 140
0.144034 -0.103417 -0.444418 140 140 140
0.145991 -0.100898 -0.444192 140 140 140
0.148053 -0.098569 -0.444007 139 139 139
0.150133 -0.096269 -0.443829 139 139 139
0.152289 -0.094105 -0.443679 138 138 138
0.154467 -0.091980 -0.443539 138 138 138
0.156647 -0.089853 -0.443397 138 138 138
0.158798 -0.087671 -0.443245 138 138 138
0.161006 -0.085591 -0.443114 138 138 138
0.163325 -0.083719 -0.443027 138 138 138
0.165645 -0.081844 -0.442940 138 138 138
0.167885 -0.079816 -0.442821 138 138 138
0.169892 -0.077345 -0.442608 138 138 138
0.171801 -0.074682 -0.442354 139 139 139
0.173712 -0.072016 -0.442100 140 140 140
0.175624 -0.069347 -0.441846 141 141 141
0.177265 -0.066154 -0.441482 141 141 141
0.178924 -0.062985 -0.441122 141 141 141
0.180584 -0.059810 -0.440762 139 139 139
0.182223 -0.056585 -0.440392 139 139 139
0.183890 -0.053406 -0.440032 140 140 140
0.185606 -0.050315 -0.439691 142 142 142
0.187277 -0.047127 -0.439330 143 143 143
0.188946 -0.043927 -0.438967 144 144 144
0.190532 -0.040553 -0.438567 145 145 145
0.192173 -0.037281 -0.438190 146 146 146
0.193746 -0.033864 -0.437782 147 147 147
0.195059 -0.029926 -0.437266 147 147 147
0.196373 -0.025977 -0.436747 148 148 148
0.197695 -0.022032 -0.436231 147 147 147
0.198866 -0.017776 -0.435649 145 145 145
0.200061 -0.013552 -0.435075 143 143 143
0.201009 -0.008821 -0.434395 141 141 141
0.202258 -0.004675 -0.433839 140 140 140
0.203382 -0.000266 -0.433228 140 140 140
0.204481 0.004210 -0.432604 138 138 138
0.205688 0.008482 -0.432024 138 138 138
0.206790 0.012982 -0.431396 138 138 138
0.207907 0.017465 -0.430772 138 138 138
0.209027 0.021960 -0.430147 138 138 138
0.210108 0.026550 -0.429503 138 138 138
0.211028 0.031482 -0.428788 138 138 138
0.211855 0.036624 -0.428031 138 138 138
0.212552 0.042051 -0.427214 138 138 138
0.213285 0.047425 -0.426410 138 138 138
0.213491 0.053905 -0.425377 138 138 138
0.213498 0.060825 -0.424254 138 138 138
0.212823 0.069185 -0.422833 138 138 138
0.212090 0.077703 -0.421380 138 138 138
0.210578 0.087880 -0.419585 138 138 138
-0.175902 -0.058026 -0.410192 100 100 100
-0.107417 -0.156350 -0.432461 138 138 138
-0.098228 -0.164875 -0.434695 138 138 138
-0.093009 -0.167389 -0.435588 138 138 138
-0.087976 -0.169638 -0.436421 138 138 138
-0.083346 -0.171286 -0.437119 138 138 138
-0.078658 -0.173037 -0.437839 138 138 138
-0.074127 -0.174560 -0.438508 138 138 138
-0.069702 -0.175934 -0.439142 138 138 138
-0.065199 -0.177440 -0.439806 138 138 138
-0.060777 -0.178836 -0.440443 138 138 138
-0.056233 -0.180433 -0.441125 138 138 138
-0.051625 -0.182145 -0.441832 138 138 138
-0.047336 -0.183373 -0.442430 138 138 138
-0.043222 -0.184340 -0.442970 138 138 138
-0.039469 -0.184752 -0.443386 138 138 138
-0.035831 -0.184992 -0.443764 138 138 138
-0.032274 -0.185112 -0.444116 138 138 138
-0.028499 -0.185583 -0.444544 138 138 138
-0.024739 -0.186040 -0.444968 138 138 138
-0.020753 -0.186863 -0.445473 138 138 138
-0.017251 -0.186929 -0.445810 138 138 138
-0.013744 -0.187008 -0.446150 138 138 138
-0.010240 -0.187091 -0.446490 138 138 138
-0.007200 -0.186438 -0.446668 138 138 138
-0.004349 -0.185486 -0.446780 138 138 138
-0.001518 -0.184504 -0.446886 138 138 138
0.001277 -0.183466 -0.446979 138 138 138
0.003884 -0.182126 -0.447005 138 138 138
0.006485 -0.180778 -0.447030 138 138 138
0.009191 -0.179600 -0.447092 138 138 138
0.011896 -0.178423 -0.447155 138 138 138
0.014640 -0.177310 -0.447231 138 138 138
0.017393 -0.176213 -0.447310 138 138 138
0.020146 -0.175117 -0.447390 138 138 138
0.022909 -0.174041 -0.447474 138 138 138
0.025766 -0.173120 -0.447591 138 138 138
0.028628 -0.172210 -0.447711 138 138 138
0.031476 -0.171280 -0.447827 138 138 138
0.034314 -0.170335 -0.447939 138 138 138
0.037208 -0.169486 -0.448071 138 138 138
0.040139 -0.168702 -0.448218 138 138 138
0.043069 -0.167918 -0.448365 138 138 138
0.045879 -0.166937 -0.448468 138 138 138
0.048928 -0.166359 -0.448659 138 138 138
0.052070 -0.165942 -0.448885 138 138 138
0.055295 -0.165668 -0.449142 138 138 138
0.058650 -0.165621 -0.449447 138 138 138
0.062014 -0.165595 -0.449756 138 138 138
0.065369 -0.165560 -0.450064 138 138 138
0.068721 -0.165526 -0.450371 138 138 138
0.071825 -0.165078 -0.450588 138 138 138
0.074862 -0.164518 -0.450781 138 138 138
0.077872 -0.163918 -0.450965 138 138 138
0.080876 -0.163312 -0.451147 138 138 138
0.083749 -0.162484 -0.451281 138 138 138
0.086627 -0.161667 -0.451418 138 138 138
0.089503 -0.160851 -0.451554 138 138 138
0.092361 -0.160006 -0.451684 138 138 138
0.095233 -0.159187 -0.451819 138 138 138
0.098122 -0.158402 -0.451962 138 138 138
0.100693 -0.157065 -0.451986 138 138 138
0.103093 -0.155430 -0.451946 138 138 138
0.105216 -0.153309 -0.451801 138 138 138
0.107342 -0.151188 -0.451657 138 138 138
0.109469 -0.149067 -0.451512 138 138 138
0.111597 -0.146945 -0.451368 138 138 138
0.113697 -0.144769 -0.451212 138 138 138
0.115566 -0.142179 -0.450968 138 138 138
0.117513 -0.139725 -0.450754 138 138 138
0.119462 -0.137268 -0.450539 138 138 138
0.121413 -0.134810 -0.450323 138 138 138
0.123177 -0.132012 -0.450036 138 138 138
0.125100 -0.129493 -0.449808 138 138 138
0.126936 -0.126811 -0.449546 138 138 138
0.128774 -0.124128 -0.449284 138 138 138
0.130624 -0.121460 -0.449026 138 138 138
0.132607 -0.119029 -0.448818 138 138 138
0.134415 -0.116273 -0.448542 139 139 139
0.136224 -0.113514 -0.448265 139 139 139
0.138036 -0.110752 -0.447987 140 140 140
0.139819 -0.107932 -0.447698 140 140 140
0.141644 -0.105183 -0.447424 140 140 140
0.143492 -0.102470 -0.447159 140 140 140
0.145415 -0.099888 -0.446921 140 140 140
0.147418 -0.097450 -0.446714 139 139 139
0.149513 -0.095175 -0.446542 138 138 138
0.151675 -0.093022 -0.446395 138 138 138
0.153841 -0.090873 -0.446250 139 139 139
0.155982 -0.088676 -0.446095 138 138 138
0.158126 -0.086478 -0.445940 138 138 138
0.160272 -0.084281 -0.445785 138 138 138
0.162586 -0.082396 -0.445697 138 138 138
0.164903 -0.080515 -0.445609 138 138 138
0.167211 -0.078616 -0.445517 138 138 138
0.169272 -0.076245 -0.445327 138 138 138
0.171277 -0.073764 -0.445113 139 139 139
0.173201 -0.071123 -0.444866 140 140 140
0.175124 -0.068475 -0.444617 141 141 141
0.176768 -0.065285 -0.444255 141 141 141
0.178426 -0.062115 -0.443898 140 140 140
0.180086 -0.058941 -0.443540 140 140 140
0.181737 -0.055740 -0.443177 140 140 140
0.183371 -0.052497 -0.442805 141 141 141
0.185064 -0.049360 -0.442457 142 142 142
0.186735 -0.046172 -0.442097 143 143 143
0.188385 -0.042933 -0.441728 144 144 144
0.189933 -0.039487 -0.441316 145 145 145
0.191563 -0.036193 -0.440936 146 146 146
0.192993 -0.032494 -0.440471 147 147 147
0.194304 -0.028551 -0.439957 147 147 147
0.195623 -0.024611 -0.439443 147 147 147
0.196946 -0.020667 -0.438930 146 146 146
0.198062 -0.016298 -0.438328 144 144 144
0.198976 -0.011514 -0.437641 142 142 142
0.200015 -0.006963 -0.437002 140 140 140
0.201109 -0.002503 -0.436384 140 140 140
0.202021 0.002334 -0.435688 138 138 138
0.203225 0.006603 -0.435110 138 138 138
0.204436 0.010870 -0.434534 138 138 138
0.205499 0.015453 -0.433893 138 138 138
0.206616 0.019941 -0.433272 138 138 138
0.207735 0.024441 -0.432649 138 138 138
0.208782 0.029103 -0.431994 138 138 138
0.209744 0.033955 -0.431300 138 138 138
0.210469 0.039310 -0.430502 138 138 138
0.211105 0.044867 -0.429664 138 138 138
0.211588 0.050760 -0.428757 138 138 138
0.211769 0.057299 -0.427718 138 138 138
0.211486 0.064824 -0.426476 138 138 138
0.210881 0.073048 -0.425091 138 138 138
0.210138 0.081593 -0.423642 138 138 138
0.206302 0.096621 -0.420856 100 100 100
-0.163912 -0.070454 -0.416449 138 138 138
-0.100391 -0.161483 -0.436963 138 138 138
-0.094772 -0.164603 -0.437985 138 138 138
-0.089564 -0.167114 -0.438871 138 138 138
-0.084935 -0.168756 -0.439565 138 138 138
-0.080185 -0.170598 -0.440301 138 138 138
-0.075425 -0.172471 -0.441043 138 138 138
-0.070713 -0.174286 -0.441772 138 138 138
-0.066207 -0.175795 -0.442432 138 138 138
-0.061756 -0.177234 -0.443076 138 138 138
-0.057386 -0.178560 -0.443694 138 138 138
-0.052565 -0.180599 -0.444469 138 138 138
-0.047916 -0.182389 -0.445188 138 138 138
-0.043706 -0.183505 -0.445757 138 138 138
-0.039996 -0.183849 -0.446157 138 138 138
-0.036433 -0.183971 -0.446507 138 138 138
-0.033012 -0.183876 -0.446809 138 138 138
-0.029334 -0.184195 -0.447201 138 138 138
-0.025550 -0.184687 -0.447631 138 138 138
-0.021845 -0.185064 -0.448035 138 138 138
-0.018340 -0.185132 -0.448371 138 138 138
-0.014837 -0.185203 -0.448708 138 138 138
-0.011331 -0.185287 -0.449046 138 138 138
-0.008432 -0.184406 -0.449174 138 138 138
-0.005561 -0.183484 -0.449292 138 138 138
-0.002690 -0.182562 -0.449410 138 138 138
0.000193 -0.181663 -0.449533 138 138 138
0.002932 -0.180535 -0.449606 138 138 138
0.005640 -0.179357 -0.449668 138 138 138
0.008347 -0.178180 -0.449730 138 138 138
0.011058 -0.177011 -0.449793 138 138 138
0.013813 -0.175914 -0.449873 138 138 138
0.016567 -0.174817 -0.449952 138 138 138
0.019405 -0.173861 -0.450061 138 138 138
0.022233 -0.172889 -0.450168 138 138 138
0.024969 -0.171768 -0.450241 138 138 138
0.027700 -0.170643 -0.450314 138 138 138
0.030445 -0.169539 -0.450391 138 138 138
0.033267 -0.168566 -0.450497 138 138 138
0.036101 -0.167616 -0.450607 138 138 138
0.038989 -0.166756 -0.450737 138 138 138
0.041921 -0.165973 -0.450883 138 138 138
0.044810 -0.165123 -0.451014 138 138 138
0.047861 -0.164545 -0.451204 138 138 138
0.050909 -0.163968 -0.451394 138 138 138
0.053955 -0.163391 -0.451584 138 138 138
0.057250 -0.163238 -0.451865 138 138 138
0.060834 -0.163579 -0.452252 138 138 138
0.064186 -0.163538 -0.452556 138 138 138
0.067481 -0.163404 -0.452840 138 138 138
0.070529 -0.162856 -0.453035 138 138 138
0.073574 -0.162309 -0.453230 138 138 138
0.076618 -0.161762 -0.453424 138 138 138
0.079617 -0.161145 -0.453603 138 138 138
