ply
format ascii 1.0
element vertex 1201
property float x
property float y
property float z
property uchar red
property uchar green
property uchar blue
end_header
0.402075 -0.167030 0.047587 160 160 160
0.403145 -0.164382 0.047745 161 161 161
0.404286 -0.161777 0.047871 163 163 163
0.405495 -0.159212 0.047965 165 165 165
0.406607 -0.156588 0.048105 166 166 166
0.407756 -0.153985 0.048227 166 166 166
0.408905 -0.151381 0.048350 167 167 167
0.409985 -0.148735 0.048504 168 168 168
0.411062 -0.146085 0.048661 168 168 168
0.412139 -0.143434 0.048818 169 169 169
0.412988 -0.140640 0.049082 169 169 169
0.413888 -0.137876 0.049323 169 169 169
0.414787 -0.135111 0.049565 168 168 168
0.415686 -0.132344 0.049806 168 168 168
0.416647 -0.129613 0.050019 168 168 168
0.417634 -0.126898 0.050220 168 168 168
0.418430 -0.124062 0.050511 169 169 169
0.419201 -0.121207 0.050815 169 169 169
0.419783 -0.118230 0.051208 169 169 169
0.420379 -0.115260 0.051595 169 169 169
0.420644 -0.112077 0.052139 168 168 168
0.420915 -0.108893 0.052681 167 167 167
0.421199 -0.105714 0.053218 166 166 166
0.421401 -0.102480 0.053794 166 166 166
0.421644 -0.099267 0.054351 166 166 166
0.421888 -0.096052 0.054910 165 165 165
0.422194 -0.092873 0.055439 165 165 165
0.422725 -0.089837 0.055861 165 165 165
0.423375 -0.086875 0.056228 166 166 166
0.423841 -0.083791 0.056682 166 166 166
0.424231 -0.080654 0.057174 167 167 167
0.424579 -0.077486 0.057687 166 166 166
0.424926 -0.074315 0.058200 166 166 166
0.425208 -0.071097 0.058745 165 165 165
0.425501 -0.067883 0.059286 166 166 166
0.425781 -0.064658 0.059833 166 166 166
0.426050 -0.061421 0.060386 166 166 166
0.426465 -0.058277 0.060871 166 166 166
0.426976 -0.055194 0.061310 167 167 167
0.427488 -0.052108 0.061749 167 167 167
0.428050 -0.049054 0.062165 167 167 167
0.428589 -0.045981 0.062592 167 167 167
0.429120 -0.042900 0.063023 167 167 167
0.429553 -0.039750 0.063503 167 167 167
0.429828 -0.036490 0.064059 167 167 167
0.430137 -0.033250 0.064599 167 167 167
0.430446 -0.030006 0.065140 167 167 167
0.430751 -0.026755 0.065684 167 167 167
0.430850 -0.023361 0.066328 167 167 167
0.430896 -0.019926 0.066998 167 167 167
0.430943 -0.016487 0.067668 167 167 167
0.430847 -0.012946 0.068409 167 167 167
0.430990 -0.009564 0.069035 167 167 167
0.431062 -0.006129 0.069696 168 168 168
0.431054 -0.002634 0.070397 168 168 168
0.431071 0.000848 0.071086 168 168 168
0.431177 0.004272 0.071734 168 168 168
0.431178 0.007775 0.072433 168 168 168
0.431031 0.011385 0.073205 168 168 168
0.430754 0.015091 0.074041 168 168 168
0.430883 0.018519 0.074681 169 169 169
0.431039 0.021931 0.075308 169 169 169
0.431134 0.025391 0.075967 170 170 170
0.430942 0.029057 0.076765 169 169 169
0.430614 0.032826 0.077632 169 169 169
0.430263 0.036617 0.078510 170 170 170
0.429600 0.040635 0.079542 169 169 169
0.428878 0.044702 0.080604 169 169 169
0.428171 0.048766 0.081660 169 169 169
0.427424 0.052865 0.082738 170 170 170
0.426673 0.056975 0.083818 170 170 170
0.425972 0.061056 0.084876 171 171 171
0.425294 0.065127 0.085924 171 171 171
0.424703 0.069143 0.086930 171 171 171
0.424203 0.073100 0.087893 171 171 171
0.423699 0.077066 0.088860 171 171 171
0.422634 0.081446 0.090103 172 172 172
0.421394 0.085963 0.091434 172 172 172
0.419833 0.090723 0.092925 172 172 172
0.415867 0.097256 0.095602 173 173 173
0.411773 0.103900 0.098345 174 174 174
0.404079 0.113211 0.102867 173 173 173
0.397063 0.122052 0.107060 171 171 171
0.391914 0.129543 0.110337 169 169 169
0.387985 0.136153 0.113017 169 169 169
0.385520 0.141694 0.114976 169 169 169
0.382519 0.147646 0.117203 169 169 169
0.379252 0.153813 0.119565 168 168 168
0.374935 0.160780 0.122450 167 167 167
0.371000 0.167481 0.125150 163 163 163
0.366941 0.174294 0.127915 161 161 161
0.359241 0.183866 0.132490 160 160 160
0.352469 0.192769 0.136611 159 159 159
0.348479 0.199597 0.139355 163 163 163
0.343170 0.207444 0.142759 170 170 170
0.296954 0.246378 0.166524 190 190 190
0.294095 0.252477 0.168731 182 182 182
0.291657 0.258270 0.170731 181 181 181
0.289503 0.263859 0.172593 181 181 181
0.286847 0.269845 0.174707 181 181 181
0.284297 0.275764 0.176772 182 182 182
0.280083 0.282979 0.179671 183 183 183
0.273564 0.291992 0.183726 185 185 185
0.266912 0.301136 0.187854 187 187 187
0.261051 0.309694 0.191590 185 185 185
0.253846 0.319323 0.196006 187 187 187
-0.082999 -0.453229 0.154875 144 144 144
-0.035225 -0.468605 0.135335 185 185 185
-0.020281 -0.471211 0.129662 171 171 171
-0.014395 -0.470283 0.127816 173 173 173
-0.008648 -0.469312 0.126027 173 173 173
-0.003256 -0.468210 0.124387 173 173 173
0.002382 -0.467216 0.122640 170 170 170
0.007689 -0.466100 0.121032 168 168 168
0.011235 -0.464289 0.120170 168 168 168
0.014381 -0.462324 0.119476 168 168 168
0.017424 -0.460320 0.118825 170 170 170
0.020359 -0.458277 0.118220 166 166 166
0.023278 -0.456231 0.117620 164 164 164
0.026460 -0.454295 0.116908 162 162 162
0.029577 -0.452337 0.116223 159 159 159
0.032277 -0.450213 0.115715 158 158 158
0.035607 -0.448350 0.114937 155 155 155
0.038945 -0.446495 0.114155 150 150 150
0.041852 -0.444466 0.113557 144 144 144
0.045625 -0.442800 0.112587 139 139 139
0.050671 -0.441668 0.111072 138 138 138
0.055850 -0.440599 0.109499 138 138 138
0.063122 -0.440415 0.107027 138 138 138
0.071849 -0.440855 0.103929 138 138 138
0.082300 -0.442037 0.100089 146 146 146
0.091103 -0.442547 0.096951 153 153 153
0.097366 -0.442003 0.094899 152 152 152
0.102484 -0.440986 0.093337 153 153 153
0.106485 -0.439502 0.092252 153 153 153
0.110438 -0.438005 0.091187 155 155 155
0.114062 -0.436373 0.090262 156 156 156
0.117504 -0.434669 0.089414 156 156 156
0.120939 -0.432967 0.088568 157 157 157
0.124321 -0.431247 0.087744 160 160 160
0.127623 -0.429497 0.086954 162 162 162
0.130916 -0.427748 0.086166 163 163 163
0.134196 -0.425999 0.085383 164 164 164
0.137384 -0.424213 0.084639 165 165 165
0.140011 -0.422186 0.084137 166 166 166
0.142566 -0.420131 0.083665 166 166 166
0.145121 -0.418079 0.083192 166 166 166
0.147685 -0.416033 0.082715 166 166 166
0.150017 -0.413888 0.082338 167 167 167
0.151888 -0.411539 0.082160 168 168 168
0.154076 -0.409334 0.081845 169 169 169
0.156362 -0.407173 0.081487 169 169 169
0.158857 -0.405109 0.081037 169 169 169
0.161417 -0.403077 0.080559 169 169 169
0.164022 -0.401067 0.080061 169 169 169
0.166656 -0.399075 0.079549 169 169 169
0.169483 -0.397172 0.078953 168 168 168
0.172370 -0.395301 0.078329 168 168 168
0.175254 -0.393432 0.077707 168 168 168
0.178979 -0.391952 0.076717 168 168 168
0.182841 -0.390540 0.075666 168 168 168
0.186730 -0.389148 0.074602 167 167 167
0.190870 -0.387877 0.073427 167 167 167
0.194960 -0.386591 0.072272 168 168 168
0.198938 -0.385260 0.071165 168 168 168
0.202889 -0.383922 0.070069 169 169 169
0.207057 -0.382693 0.068876 169 169 169
0.211181 -0.381451 0.067701 169 169 169
0.215244 -0.380187 0.066551 170 170 170
0.218842 -0.378711 0.065604 170 170 170
0.222404 -0.377223 0.064672 171 171 171
0.226077 -0.375794 0.063690 172 172 172
0.228963 -0.373998 0.063052 173 173 173
0.232063 -0.372306 0.062319 174 174 174
0.234886 -0.370487 0.061708 175 175 175
0.237630 -0.368635 0.061130 175 175 175
0.240167 -0.366686 0.060643 175 175 175
0.242663 -0.364720 0.060174 176 176 176
0.245164 -0.362760 0.059702 176 176 176
0.247794 -0.360865 0.059172 176 176 176
0.250371 -0.358947 0.058665 176 176 176
0.252882 -0.357001 0.058187 175 175 175
0.255086 -0.354907 0.057843 176 176 176
0.257185 -0.352764 0.057546 175 175 175
0.259479 -0.350719 0.057162 175 175 175
0.261778 -0.348679 0.056775 177 177 177
0.264023 -0.346614 0.056412 171 171 171
0.266251 -0.344543 0.056056 172 172 172
0.268670 -0.342569 0.055615 172 172 172
0.271722 -0.340913 0.054892 171 171 171
0.274614 -0.339181 0.054239 170 170 170
0.277839 -0.337621 0.053438 169 169 169
0.281160 -0.336113 0.052592 168 168 168
0.283552 -0.334144 0.052160 168 168 168
0.285702 -0.332054 0.051834 168 168 168
0.287852 -0.329966 0.051508 168 168 168
0.289999 -0.327880 0.051183 168 168 168
0.291675 -0.325555 0.051068 166 166 166
0.293196 -0.323152 0.051022 166 166 166
0.294605 -0.320692 0.051026 166 166 166
0.296071 -0.318260 0.051005 165 165 165
0.297535 -0.315829 0.050984 165 165 165
0.299006 -0.313401 0.050960 165 165 165
0.300412 -0.310939 0.050965 164 164 164
0.301707 -0.308420 0.051020 163 163 163
0.303213 -0.306010 0.050980 163 163 163
0.304750 -0.303617 0.050927 162 162 162
0.306287 -0.301224 0.050873 161 161 161
0.307807 -0.298822 0.050827 161 161 161
0.309461 -0.296491 0.050721 161 161 161
0.311149 -0.294179 0.050599 160 160 160
0.312760 -0.291827 0.050512 160 160 160
0.314371 -0.289475 0.050425 159 159 159
0.316105 -0.287189 0.050282 159 159 159
0.317818 -0.284893 0.050149 158 158 158
0.319553 -0.282609 0.050005 158 158 158
0.321485 -0.280433 0.049772 157 157 157
0.323675 -0.278395 0.049422 158 158 158
0.326099 -0.276487 0.048966 158 158 158
0.328538 -0.274589 0.048503 158 158 158
0.330975 -0.272692 0.048040 159 159 159
0.333520 -0.270858 0.047527 159 159 159
0.336193 -0.269096 0.046956 159 159 159
0.338916 -0.267365 0.046362 160 160 160
0.341643 -0.265640 0.045765 160 160 160
0.344224 -0.263839 0.045233 160 160 160
0.346570 -0.261912 0.044808 161 161 161
0.348675 -0.259855 0.044491 161 161 161
0.350830 -0.257827 0.044152 161 161 161
0.352833 -0.255718 0.043881 161 161 161
0.354790 -0.253584 0.043631 161 161 161
0.356745 -0.251451 0.043381 161 161 161
0.358705 -0.249323 0.043129 161 161 161
0.360772 -0.247255 0.042828 161 161 161
0.362672 -0.245096 0.042603 161 161 161
0.364428 -0.242858 0.042443 161 161 161
0.366136 -0.240593 0.042305 161 161 161
0.367843 -0.238328 0.042167 161 161 161
0.369276 -0.235909 0.042154 160 160 160
0.370478 -0.233359 0.042247 160 160 160
0.371680 -0.230809 0.042341 160 160 160
0.372882 -0.228257 0.042434 160 160 160
0.374132 -0.225733 0.042506 159 159 159
0.375400 -0.223218 0.042569 159 159 159
0.376476 -0.220592 0.042721 159 159 159
0.377564 -0.217973 0.042867 158 158 158
0.378666 -0.215361 0.043007 158 158 158
0.379843 -0.212791 0.043113 157 157 157
0.381018 -0.210219 0.043220 156 156 156
0.382289 -0.207703 0.043283 156 156 156
0.383717 -0.205278 0.043273 157 157 157
0.385178 -0.202872 0.043248 158 158 158
0.386539 -0.200408 0.043270 158 158 158
0.387864 -0.197923 0.043308 158 158 158
0.389206 -0.195447 0.043338 158 158 158
0.390551 -0.192973 0.043366 159 159 159
0.391793 -0.190437 0.043443 160 160 160
0.393019 -0.187892 0.043527 161 161 161
0.394215 -0.185328 0.043625 161 161 161
0.395333 -0.182717 0.043759 162 162 162
0.396452 -0.180106 0.043894 162 162 162
0.397570 -0.177493 0.044028 163 163 163
0.398727 -0.174903 0.044145 162 162 162
0.399822 -0.172274 0.044291 162 162 162
0.400884 -0.169625 0.044452 162 162 162
0.401948 -0.166975 0.044613 162 162 162
0.403031 -0.164337 0.044764 163 163 163
0.404271 -0.161793 0.044844 165 165 165
0.405517 -0.159252 0.044919 167 167 167
0.406846 -0.156762 0.044957 167 167 167
0.408173 -0.154270 0.044995 168 168 168
0.409349 -0.151685 0.045105 168 168 168
0.410472 -0.149067 0.045239 168 168 168
0.411539 -0.146412 0.045399 169 169 169
0.412595 -0.143750 0.045565 170 170 170
0.413620 -0.141068 0.045746 170 170 170
0.414572 -0.138339 0.045961 171 171 171
0.415472 -0.135576 0.046201 171 171 171
0.416372 -0.132811 0.046441 170 170 170
0.417272 -0.130046 0.046681 170 170 170
0.418045 -0.127198 0.046982 170 170 170
0.418759 -0.124311 0.047310 171 171 171
0.419570 -0.121483 0.047594 170 170 170
0.420108 -0.118480 0.048006 170 170 170
0.420746 -0.115539 0.048372 170 170 170
0.421117 -0.112425 0.048864 169 169 169
0.421401 -0.109251 0.049398 168 168 168
0.421660 -0.106059 0.049945 168 168 168
0.421640 -0.102683 0.050623 168 168 168
0.421788 -0.099411 0.051224 168 168 168
0.421936 -0.096135 0.051825 167 167 167
0.422140 -0.092892 0.052401 167 167 167
0.422755 -0.089912 0.052782 167 167 167
0.423542 -0.087040 0.053083 167 167 167
0.423973 -0.083935 0.053553 167 167 167
0.424432 -0.080844 0.054010 168 168 168
0.424711 -0.077633 0.054553 167 167 167
0.425058 -0.074464 0.055064 167 167 167
0.425350 -0.071254 0.055603 167 167 167
0.425563 -0.067989 0.056179 166 166 166
0.425857 -0.064773 0.056719 167 167 167
0.426150 -0.061553 0.057259 167 167 167
0.426491 -0.058362 0.057777 167 167 167
0.427002 -0.055280 0.058214 167 167 167
0.427513 -0.052196 0.058652 167 167 167
0.428025 -0.049109 0.059090 167 167 167
0.428586 -0.046052 0.059505 167 167 167
0.429117 -0.042972 0.059935 167 167 167
0.429422 -0.039737 0.060475 167 167 167
0.429679 -0.036467 0.061037 166 166 166
0.429989 -0.033228 0.061575 166 166 166
0.430298 -0.029985 0.062114 166 166 166
0.430542 -0.026694 0.062686 166 166 166
0.430679 -0.023326 0.063309 166 166 166
0.430751 -0.019910 0.063964 166 166 166
0.430798 -0.016473 0.064633 166 166 166
0.430770 -0.012979 0.065338 166 166 166
0.430914 -0.009599 0.065962 166 166 166
0.431058 -0.006215 0.066586 167 167 167
0.431093 -0.002751 0.067264 167 167 167
0.431154 0.000699 0.067930 167 167 167
0.431261 0.004122 0.068575 167 167 167
0.431335 0.007572 0.069236 167 167 167
0.431244 0.011141 0.069978 167 167 167
0.431082 0.014765 0.070756 167 167 167
0.431157 0.018228 0.071419 168 168 168
0.431068 0.021811 0.072164 167 167 167
0.430975 0.025402 0.072911 167 167 167
0.430846 0.029023 0.073676 167 167 167
0.430515 0.032793 0.074541 167 167 167
0.430175 0.036574 0.075411 168 168 168
0.429717 0.040446 0.076341 168 168 168
0.428951 0.044542 0.077420 168 168 168
0.428294 0.048569 0.078449 168 168 168
0.427707 0.052553 0.079445 169 169 169
0.426960 0.056657 0.080520 170 170 170
0.426234 0.060754 0.081586 170 170 170
0.425557 0.064823 0.082630 170 170 170
0.425013 0.068803 0.083610 171 171 171
0.424519 0.072754 0.084567 171 171 171
0.424004 0.076726 0.085536 171 171 171
0.423326 0.080823 0.086586 172 172 172
0.421731 0.085595 0.088086 172 172 172
0.420500 0.090112 0.089410 173 173 173
0.416822 0.096431 0.091937 173 173 173
0.412067 0.103557 0.094996 175 175 175
0.403978 0.113156 0.099698 174 174 174
0.397117 0.121882 0.103802 172 172 172
0.391869 0.129444 0.107118 171 171 171
0.387720 0.136215 0.109898 170 170 170
0.385195 0.141799 0.111880 170 170 170
0.382240 0.147716 0.114078 170 170 170
0.379067 0.153812 0.116387 169 169 169
0.374790 0.160748 0.119243 168 168 168
0.369872 0.168183 0.122420 164 164 164
0.365327 0.175361 0.125417 163 163 163
0.357135 0.185304 0.130223 160 160 160
0.350443 0.194148 0.134292 157 157 157
0.346403 0.201016 0.137053 162 162 162
0.341718 0.208391 0.140138 168 168 168
0.301934 0.242441 0.160641 186 186 186
0.296463 0.250516 0.164136 184 184 184
0.293819 0.256460 0.166231 182 182 182
0.291418 0.262232 0.168209 182 182 182
0.288806 0.268180 0.170295 182 182 182
0.285799 0.274445 0.172579 182 182 182
0.282744 0.280764 0.174892 182 182 182
0.276949 0.289211 0.178573 184 184 184
0.269750 0.298770 0.182959 185 185 185
0.263050 0.307972 0.187102 185 185 185
0.256869 0.316800 0.190992 184 184 184
0.248416 0.327423 0.196024 188 188 188
-0.080749 -0.453947 0.150605 180 180 180
-0.026934 -0.471693 0.128575 167 167 167
-0.018510 -0.471751 0.125666 168 168 168
-0.012558 -0.470853 0.123797 168 168 168
-0.006849 -0.469870 0.122029 171 171 171
-0.001288 -0.468840 0.120321 171 171 171
0.003905 -0.467672 0.118767 167 167 167
0.008090 -0.466112 0.117638 166 166 166
0.011316 -0.464175 0.116913 166 166 166
0.014605 -0.462268 0.116161 166 166 166
0.017782 -0.460319 0.115455 166 166 166
0.021093 -0.458430 0.114691 165 165 165
0.024124 -0.456431 0.114046 163 163 163
0.027056 -0.454396 0.113442 162 162 162
0.029740 -0.452264 0.112942 161 161 161
0.032440 -0.450140 0.112435 159 159 159
0.035314 -0.448092 0.111854 157 157 157
0.038332 -0.446106 0.111210 152 152 152
0.041240 -0.444078 0.110613 146 146 146
0.044515 -0.442206 0.109858 140 140 140
0.049583 -0.441082 0.108338 139 139 139
0.054488 -0.439900 0.106886 138 138 138
0.061877 -0.439764 0.104372 138 138 138
0.070905 -0.440330 0.101155 138 138 138
0.082247 -0.441887 0.096946 143 143 143
0.091219 -0.442470 0.093744 151 151 151
0.097642 -0.441994 0.091630 151 151 151
0.102183 -0.440734 0.090319 152 152 152
0.106226 -0.439269 0.089219 152 152 152
0.110164 -0.437766 0.088163 153 153 153
0.113931 -0.436197 0.087179 155 155 155
0.117372 -0.434493 0.086334 156 156 156
0.120803 -0.432790 0.085492 158 158 158
0.124404 -0.431165 0.084577 159 159 159
0.127937 -0.429517 0.083689 161 161 161
0.131219 -0.427765 0.082908 162 162 162
0.134478 -0.426007 0.082136 163 163 163
0.137731 -0.424252 0.081366 165 165 165
0.140357 -0.422226 0.080865 165 165 165
0.142924 -0.420178 0.080389 165 165 165
0.145490 -0.418132 0.079913 165 165 165
0.147951 -0.416043 0.079482 166 166 166
0.150215 -0.413868 0.079135 167 167 167
0.152383 -0.411653 0.078829 168 168 168
0.154522 -0.409427 0.078535 168 168 168
0.156973 -0.407342 0.078107 169 169 169
0.159533 -0.405309 0.077630 169 169 169
0.162091 -0.403278 0.077153 168 168 168
0.164695 -0.401270 0.076656 168 168 168
0.167410 -0.399316 0.076111 168 168 168
0.170149 -0.397376 0.075554 168 168 168
0.172926 -0.395456 0.074980 167 167 167
0.176224 -0.393778 0.074179 167 167 167
0.179907 -0.392281 0.073210 167 167 167
0.183499 -0.390748 0.072279 166 166 166
0.187508 -0.389413 0.071165 166 166 166
0.191754 -0.388193 0.069948 166 166 166
0.195916 -0.386943 0.068764 167 167 167
0.200093 -0.385706 0.067574 167 167 167
0.204078 -0.384388 0.066465 168 168 168
0.208186 -0.383134 0.065301 168 168 168
0.212254 -0.381867 0.064154 168 168 168
0.216105 -0.380506 0.063099 168 168 168
0.219778 -0.379068 0.062122 170 170 170
0.223570 -0.377692 0.061091 171 171 171
0.226715 -0.376015 0.060342 172 172 172
0.230020 -0.374419 0.059523 173 173 173
0.233415 -0.372871 0.058663 175 175 175
0.236068 -0.370974 0.058127 174 174 174
0.238860 -0.369147 0.057529 174 174 174
0.241649 -0.367322 0.056933 174 174 174
0.244392 -0.365478 0.056356 174 174 174
0.246868 -0.363509 0.055895 175 175 175
0.249440 -0.361590 0.055392 175 175 175
0.252099 -0.359715 0.054849 175 175 175
0.254249 -0.357596 0.054531 175 175 175
0.256479 -0.355518 0.054176 175 175 175
0.258707 -0.353441 0.053823 175 175 175
0.260934 -0.351366 0.053469 175 175 175
0.263206 -0.349315 0.053095 172 172 172
0.265432 -0.347245 0.052740 173 173 173
0.267658 -0.345176 0.052386 172 172 172
0.269962 -0.343147 0.051996 172 172 172
0.272899 -0.341437 0.051326 170 170 170
0.275780 -0.339703 0.050679 169 169 169
0.278877 -0.338081 0.049936 168 168 168
0.281702 -0.336327 0.049313 168 168 168
0.284026 -0.334325 0.048911 168 168 168
0.286294 -0.332296 0.048534 168 168 168
0.288442 -0.330210 0.048209 167 167 167
0.290290 -0.327973 0.048018 166 166 166
0.291811 -0.325571 0.047972 166 166 166
0.293331 -0.323169 0.047926 166 166 166
0.294809 -0.320745 0.047899 166 166 166
0.296159 -0.318256 0.047929 166 166 166
0.297626 -0.315827 0.047907 165 165 165
0.299089 -0.313396 0.047886 165 165 165
0.300389 -0.310881 0.047939 164 164 164
0.301684 -0.308363 0.047993 164 164 164
0.303076 -0.305894 0.048005 163 163 163
0.304612 -0.303502 0.047951 163 163 163
0.306139 -0.301104 0.047902 162 162 162
0.307658 -0.298703 0.047857 162 162 162
0.309177 -0.296302 0.047811 162 162 162
0.310845 -0.293980 0.047699 161 161 161
0.312467 -0.291634 0.047607 161 161 161
0.314149 -0.289320 0.047488 161 161 161
0.315933 -0.287062 0.047322 160 160 160
0.317635 -0.284761 0.047194 160 160 160
0.319306 -0.282444 0.047079 160 160 160
0.321055 -0.280170 0.046930 159 159 159
0.323359 -0.278194 0.046529 159 159 159
0.325777 -0.276283 0.046077 160 160 160
0.328227 -0.274392 0.045610 160 160 160
0.330681 -0.272505 0.045141 160 160 160
0.333412 -0.270773 0.044546 160 160 160
0.336120 -0.269031 0.043960 160 160 160
0.338826 -0.267292 0.043375 160 160 160
0.341485 -0.265530 0.042810 160 160 160
0.344083 -0.263740 0.042272 161 161 161
0.346500 -0.261852 0.041816 161 161 161
0.348659 -0.259826 0.041476 161 161 161
0.350727 -0.257751 0.041177 162 162 162
0.352684 -0.255617 0.040927 162 162 162
0.354642 -0.253485 0.040677 161 161 161
0.356610 -0.251360 0.040423 161 161 161
0.358584 -0.249240 0.040165 161 161 161
0.360670 -0.247185 0.039855 161 161 161
0.362557 -0.245020 0.039636 161 161 161
0.364371 -0.242814 0.039450 161 161 161
0.366078 -0.240550 0.039313 161 161 161
0.367644 -0.238207 0.039239 161 161 161
0.369059 -0.235779 0.039235 161 161 161
0.370345 -0.233277 0.039289 160 160 160
0.371547 -0.230727 0.039383 160 160 160
0.372749 -0.228177 0.039475 160 160 160
0.373910 -0.225602 0.039587 160 160 160
0.374909 -0.222934 0.039774 159 159 159
0.375976 -0.220304 0.039929 159 159 159
0.377068 -0.217687 0.040073 159 159 159
0.378244 -0.215117 0.040179 158 158 158
0.379420 -0.212547 0.040285 158 158 158
0.380532 -0.209940 0.040420 157 157 157
0.381862 -0.207458 0.040455 158 158 158
0.383348 -0.205068 0.040419 158 158 158
0.384808 -0.202662 0.040394 158 158 158
0.386268 -0.200257 0.040370 158 158 158
0.387627 -0.197792 0.040392 158 158 158
0.388968 -0.195317 0.040422 158 158 158
0.390332 -0.192855 0.040442 161 161 161
0.391545 -0.190303 0.040531 161 161 161
0.392795 -0.187773 0.040604 162 162 162
0.394044 -0.185241 0.040677 162 162 162
0.395155 -0.182627 0.040814 162 162 162
0.396274 -0.180016 0.040948 163 163 163
0.397414 -0.177417 0.041071 163 163 163
0.398582 -0.174835 0.041183 163 163 163
0.399722 -0.172234 0.041307 163 163 163
0.400785 -0.169586 0.041467 163 163 163
0.401847 -0.166937 0.041628 163 163 163
0.403048 -0.164371 0.041724 165 165 165
0.404345 -0.161863 0.041776 168 168 168
0.405729 -0.159408 0.041788 168 168 168
0.407039 -0.156908 0.041833 168 168 168
0.408350 -0.154408 0.041879 169 169 169
0.409661 -0.151907 0.041925 169 169 169
0.410971 -0.149406 0.041971 170 170 170
0.412149 -0.146822 0.042079 170 170 170
0.413173 -0.144142 0.042259 170 170 170
0.414197 -0.141461 0.042439 171 171 171
0.415221 -0.138780 0.042619 171 171 171
0.416184 -0.136058 0.042828 171 171 171
0.417084 -0.133296 0.043067 171 171 171
0.417933 -0.130500 0.043330 171 171 171
0.418632 -0.127608 0.043664 171 171 171
0.419273 -0.124677 0.044026 171 171 171
0.420063 -0.121838 0.044318 171 171 171
0.420545 -0.118802 0.044755 171 171 171
0.421117 -0.115821 0.045150 171 171 171
0.421602 -0.112781 0.045587 170 170 170
0.421887 -0.109610 0.046118 169 169 169
0.422023 -0.106340 0.046721 169 169 169
0.421962 -0.102940 0.047417 169 169 169
0.422062 -0.099639 0.048038 169 169 169
0.422210 -0.096365 0.048637 169 169 169
0.422477 -0.093165 0.049181 168 168 168
0.422963 -0.090102 0.049622 168 168 168
0.423702 -0.087201 0.049943 168 168 168
0.424133 -0.084097 0.050412 168 168 168
0.424572 -0.080995 0.050877 168 168 168
0.424901 -0.077818 0.051394 168 168 168
0.425190 -0.074612 0.051931 168 168 168
0.425495 -0.071412 0.052462 168 168 168
0.425626 -0.068094 0.053076 167 167 167
0.425919 -0.064879 0.053613 168 168 168
0.426261 -0.061693 0.054128 168 168 168
0.426622 -0.058517 0.054635 168 168 168
0.427069 -0.055394 0.055101 167 167 167
0.427541 -0.052285 0.055556 167 167 167
0.428049 -0.049196 0.055994 167 167 167
0.428584 -0.046123 0.056421 167 167 167
0.429039 -0.042994 0.056886 167 167 167
0.429291 -0.039725 0.057448 167 167 167
0.429544 -0.036452 0.058011 166 166 166
0.429840 -0.033205 0.058553 166 166 166
0.430063 -0.029904 0.059132 166 166 166
0.430248 -0.026575 0.059730 165 165 165
0.430406 -0.023222 0.060341 165 165 165
0.430516 -0.019833 0.060976 165 165 165
0.430627 -0.016440 0.061612 165 165 165
0.430694 -0.013012 0.062269 165 165 165
0.430837 -0.009633 0.062891 165 165 165
0.430981 -0.006250 0.063513 165 165 165
0.431112 -0.002855 0.064142 166 166 166
0.431184 0.000587 0.064801 166 166 166
0.431249 0.004037 0.065463 166 166 166
0.431315 0.007492 0.066127 166 166 166
0.431206 0.011072 0.066875 165 165 165
0.430946 0.014764 0.067698 165 165 165
0.430864 0.018336 0.068435 165 165 165
0.430736 0.021945 0.069196 165 165 165
0.430611 0.025558 0.069956 165 165 165
0.430515 0.029155 0.070703 165 165 165
0.430194 0.032916 0.071560 166 166 166
0.429854 0.036697 0.072428 166 166 166
0.429636 0.040397 0.073238 166 166 166
0.428871 0.044492 0.074314 166 166 166
0.428331 0.048434 0.075282 167 167 167
0.427854 0.052337 0.076221 168 168 168
0.427246 0.056340 0.077225 169 169 169
0.426499 0.060450 0.078298 170 170 170
0.425819 0.064520 0.079340 170 170 170
0.425320 0.068465 0.080294 170 170 170
0.424834 0.072408 0.081245 171 171 171
0.424308 0.076386 0.082215 171 171 171
0.423754 0.080391 0.083201 172 172 172
0.422424 0.084969 0.084567 172 172 172
0.420827 0.089750 0.086066 173 173 173
0.417565 0.095762 0.088381 174 174 174
0.412967 0.102770 0.091354 176 176 176
0.404527 0.112624 0.096213 175 175 175
0.397230 0.121668 0.100518 173 173 173
0.391556 0.129543 0.104033 172 172 172
0.387456 0.136276 0.106780 171 171 171
0.384832 0.141933 0.108805 171 171 171
0.382065 0.147709 0.110904 170 170 170
0.378883 0.153810 0.113209 170 170 170
0.374946 0.160490 0.115890 169 169 169
0.368513 0.169059 0.119803 166 166 166
0.363697 0.176441 0.122925 164 164 164
0.355113 0.186679 0.127910 160 160 160
0.348519 0.195451 0.131919 157 157 157
0.344741 0.202122 0.134543 161 161 161
0.340348 0.209277 0.137474 168 168 168
0.328637 0.222009 0.144030 187 187 187
0.300352 0.247399 0.158798 188 188 188
0.296047 0.254601 0.161708 184 184 184
0.293311 0.260623 0.163845 183 183 183
0.290673 0.266586 0.165936 182 182 182
0.288023 0.272572 0.168036 183 183 183
0.284750 0.279053 0.170448 182 182 182
0.279706 0.286915 0.173744 184 184 184
0.272679 0.296334 0.178031 184 184 184
0.265196 0.306136 0.182550 183 183 183
0.259119 0.314877 0.186375 182 182 182
0.251723 0.324671 0.190863 183 183 183
-0.103119 -0.448394 0.156025 141 141 141
-0.082138 -0.453245 0.147870 161 161 161
-0.025329 -0.472165 0.124647 164 164 164
-0.017291 -0.472076 0.121909 163 163 163
-0.010754 -0.471411 0.119799 165 165 165
-0.005055 -0.470428 0.118039 168 168 168
0.000093 -0.469236 0.116510 166 166 166
0.004548 -0.467778 0.115271 163 163 163
0.008202 -0.466009 0.114369 163 163 163
0.011397 -0.464061 0.113659 164 164 164
0.014685 -0.462154 0.112909 164 164 164
0.017909 -0.460226 0.112185 163 163 163
0.021238 -0.458345 0.111416 163 163 163
0.024562 -0.456466 0.110649 161 161 161
0.027314 -0.454359 0.110122 160 160 160
0.029907 -0.452191 0.109662 159 159 159
0.032499 -0.450025 0.109202 158 158 158
0.034967 -0.447811 0.108794 157 157 157
0.037711 -0.445713 0.108269 153 153 153
0.040621 -0.443687 0.107672 148 148 148
0.043529 -0.441663 0.107075 143 143 143
0.048217 -0.440382 0.105722 140 140 140
0.053125 -0.439200 0.104273 139 139 139
0.060772 -0.439172 0.101656 139 139 139
0.069891 -0.439775 0.098411 140 140 140
0.082278 -0.441772 0.093768 144 144 144
0.091282 -0.442370 0.090562 150 150 150
0.097770 -0.441923 0.088426 150 150 150
0.101882 -0.440482 0.087302 150 150 150
0.105968 -0.439037 0.086187 151 151 151
0.109890 -0.437528 0.085141 153 153 153
0.113784 -0.436013 0.084105 154 154 154
0.117240 -0.434317 0.083256 155 155 155
0.120786 -0.432665 0.082367 157 157 157
0.124397 -0.431045 0.081450 158 158 158
0.127893 -0.429382 0.080580 160 160 160
0.131262 -0.427669 0.079764 161 161 161
0.134547 -0.425924 0.078984 162 162 162
0.137614 -0.424088 0.078296 163 163 163
0.140269 -0.422076 0.077783 163 163 163
0.142927 -0.420069 0.077269 163 163 163
0.145707 -0.418118 0.076703 164 164 164
0.148113 -0.416006 0.076296 165 165 165
0.150388 -0.413838 0.075945 166 166 166
0.152662 -0.411671 0.075594 167 167 167
0.155089 -0.409575 0.075177 168 168 168
0.157650 -0.407541 0.074701 168 168 168
0.160209 -0.405510 0.074226 168 168 168
0.162765 -0.403480 0.073752 168 168 168
0.165422 -0.401498 0.073233 168 168 168
0.168163 -0.399557 0.072677 167 167 167
0.170829 -0.397586 0.072153 167 167 167
0.173469 -0.395606 0.071640 166 166 166
0.176772 -0.393932 0.070839 166 166 166
0.180433 -0.392427 0.069882 166 166 166
0.184135 -0.390946 0.068905 165 165 165
0.188301 -0.389685 0.067726 165 165 165
0.192492 -0.388443 0.066536 165 165 165
0.196509 -0.387127 0.065419 165 165 165
0.200529 -0.385820 0.064299 166 166 166
0.204768 -0.384621 0.063083 167 167 167
0.209077 -0.383462 0.061835 167 167 167
0.213303 -0.382273 0.060621 168 168 168
0.217151 -0.380913 0.059571 169 169 169
0.220946 -0.379535 0.058543 170 170 170
0.224467 -0.378033 0.057633 171 171 171
0.227977 -0.376531 0.056727 172 172 172
0.231611 -0.375095 0.055765 173 173 173
0.234508 -0.373313 0.055125 174 174 174
0.237300 -0.371485 0.054529 174 174 174
0.240194 -0.369709 0.053888 173 173 173
0.243130 -0.367957 0.053229 173 173 173
0.245463 -0.365919 0.052832 173 173 173
0.248324 -0.364139 0.052204 173 173 173
0.251049 -0.362296 0.051634 174 174 174
0.253242 -0.360199 0.051297 174 174 174
0.255089 -0.357935 0.051112 174 174 174
0.257287 -0.355843 0.050773 174 174 174
0.259513 -0.353768 0.050420 174 174 174
0.261683 -0.351667 0.050092 173 173 173
0.263655 -0.349471 0.049851 171 171 171
0.265830 -0.347376 0.049520 171 171 171
0.268240 -0.345400 0.049084 171 171 171
0.270836 -0.343519 0.048567 170 170 170
0.273869 -0.341859 0.047855 169 169 169
0.276898 -0.340201 0.047145 168 168 168
0.279801 -0.338484 0.046490 167 167 167
0.282126 -0.336481 0.046089 167 167 167
0.284448 -0.334480 0.045689 167 167 167
0.286769 -0.332480 0.045289 167 167 167
0.288906 -0.330390 0.044970 167 167 167
0.290426 -0.327988 0.044924 166 166 166
0.291946 -0.325587 0.044878 166 166 166
0.293467 -0.323186 0.044832 166 166 166
0.294987 -0.320785 0.044786 166 166 166
0.296252 -0.318254 0.044854 166 166 166
0.297735 -0.315834 0.044824 166 166 166
0.299071 -0.313339 0.044860 165 165 165
0.300366 -0.310822 0.044914 165 165 165
0.301661 -0.308305 0.044969 164 164 164
0.302956 -0.305787 0.045023 164 164 164
0.304472 -0.303385 0.044979 163 163 163
0.305991 -0.300984 0.044933 163 163 163
0.307509 -0.298584 0.044888 163 163 163
0.309028 -0.296183 0.044842 163 163 163
0.310546 -0.293783 0.044797 162 162 162
0.312174 -0.291441 0.044702 162 162 162
0.313942 -0.289174 0.044545 162 162 162
0.315725 -0.286916 0.044380 162 162 162
0.317493 -0.284651 0.044223 161 161 161
0.319164 -0.282335 0.044108 161 161 161
0.320869 -0.280038 0.043978 161 161 161
0.323142 -0.278047 0.043593 161 161 161
0.325599 -0.276157 0.043125 161 161 161
0.328054 -0.274269 0.042657 161 161 161
0.330641 -0.272456 0.042129 160 160 160
0.333436 -0.270759 0.041507 160 160 160
0.336143 -0.269018 0.040923 160 160 160
0.338848 -0.267279 0.040340 161 161 161
0.341450 -0.265488 0.039802 161 161 161
0.344024 -0.263685 0.039276 161 161 161
0.346414 -0.261784 0.038833 161 161 161
0.348587 -0.259766 0.038488 162 162 162
0.350569 -0.257645 0.038228 162 162 162
0.352550 -0.255525 0.037968 162 162 162
0.354531 -0.253407 0.037709 162 162 162
0.356510 -0.251289 0.037449 162 162 162
0.358534 -0.249198 0.037169 162 162 162
0.360575 -0.247118 0.036881 162 162 162
0.362444 -0.244944 0.036671 162 162 162
0.364257 -0.242739 0.036486 162 162 162
0.366006 -0.240499 0.036329 162 162 162
0.367421 -0.238072 0.036325 161 161 161
0.368835 -0.235644 0.036320 161 161 161
0.370212 -0.233195 0.036333 161 161 161
0.371412 -0.230645 0.036426 161 161 161
0.372466 -0.228010 0.036587 161 161 161
0.373513 -0.225371 0.036750 160 160 160
0.374451 -0.222668 0.036964 160 160 160
0.375477 -0.220015 0.037137 160 160 160
0.376645 -0.217443 0.037245 159 159 159
0.377821 -0.214874 0.037351 159 159 159
0.378997 -0.212304 0.037457 158 158 158
0.380111 -0.209698 0.037590 158 158 158
0.381518 -0.207262 0.037590 160 160 160
0.382978 -0.204857 0.037566 159 159 159
0.384438 -0.202452 0.037541 159 159 159
0.385898 -0.200047 0.037517 159 159 159
0.387358 -0.197643 0.037492 159 159 159
0.388756 -0.195202 0.037496 160 160 160
0.390073 -0.192713 0.037537 161 161 161
0.391321 -0.190183 0.037610 162 162 162
0.392570 -0.187653 0.037683 162 162 162
0.393820 -0.185122 0.037755 162 162 162
0.394978 -0.182537 0.037870 163 163 163
0.396102 -0.179930 0.038000 163 163 163
0.397269 -0.177349 0.038111 164 164 164
0.398436 -0.174766 0.038222 164 164 164
0.399604 -0.172184 0.038333 164 164 164
0.400685 -0.169547 0.038484 164 164 164
0.401825 -0.166947 0.038608 166 166 166
0.403129 -0.164445 0.038656 167 167 167
0.404568 -0.162025 0.038642 168 168 168
0.406017 -0.159611 0.038623 168 168 168
0.407351 -0.157126 0.038658 168 168 168
0.408660 -0.154627 0.038703 169 169 169
0.409970 -0.152128 0.038749 169 169 169
0.411456 -0.149737 0.038713 171 171 171
0.412844 -0.147285 0.038722 170 170 170
0.413943 -0.144654 0.038867 170 170 170
0.414893 -0.141930 0.039080 171 171 171
0.415844 -0.139204 0.039293 171 171 171
0.416821 -0.136494 0.039495 171 171 171
0.417794 -0.133779 0.039699 171 171 171
0.418583 -0.130948 0.039989 172 172 172
0.419356 -0.128105 0.040287 172 172 172
0.419916 -0.125125 0.040684 172 172 172
0.420555 -0.122193 0.041046 172 172 172
0.421108 -0.119203 0.041448 171 171 171
0.421489 -0.116102 0.041931 171 171 171
0.422038 -0.113105 0.042336 171 171 171
0.422372 -0.109967 0.042843 170 170 170
0.422385 -0.106622 0.043501 170 170 170
0.422324 -0.103223 0.044194 170 170 170
0.422444 -0.099937 0.044804 171 171 171
0.422699 -0.096734 0.045351 170 170 170
0.422968 -0.093536 0.045891 170 170 170
0.423236 -0.090334 0.046433 170 170 170
0.423863 -0.087362 0.046806 170 170 170
0.424294 -0.084259 0.047273 169 169 169
0.424725 -0.081154 0.047740 169 169 169
0.425128 -0.078027 0.048221 169 169 169
0.425369 -0.074790 0.048779 169 169 169
0.425641 -0.071570 0.049323 169 169 169
0.425726 -0.068224 0.049956 168 168 168
0.426054 -0.065034 0.050476 168 168 168
0.426416 -0.061862 0.050979 168 168 168
0.426777 -0.058687 0.051484 168 168 168
0.427177 -0.055535 0.051971 168 168 168
0.427649 -0.052427 0.052424 168 168 168
0.428122 -0.049317 0.052878 168 168 168
0.428595 -0.046204 0.053332 167 167 167
0.428905 -0.042978 0.053864 167 167 167
0.429152 -0.039706 0.054427 167 167 167
0.429400 -0.036431 0.054990 166 166 166
0.429589 -0.033113 0.055582 165 165 165
0.429780 -0.029792 0.056174 165 165 165
0.429971 -0.026466 0.056767 165 165 165
0.430113 -0.023104 0.057384 165 165 165
0.430220 -0.019713 0.058019 165 165 165
0.430327 -0.016319 0.058654 165 165 165
0.430337 -0.012853 0.059336 164 164 164
0.430338 -0.009377 0.060024 164 164 164
0.430440 -0.005966 0.060665 164 164 164
0.430542 -0.002550 0.061306 164 164 164
0.430670 0.000852 0.061936 164 164 164
0.430766 0.004280 0.062581 164 164 164
0.430852 0.007720 0.063233 163 163 163
0.430656 0.011361 0.064021 164 164 164
0.430465 0.015004 0.064807 164 164 164
0.430470 0.018514 0.065500 164 164 164
0.430333 0.022129 0.066263 164 164 164
0.430212 0.025738 0.067019 164 164 164
0.430134 0.029322 0.067755 164 164 164
0.429873 0.033040 0.068581 164 164 164
0.429612 0.036764 0.069408 165 165 165
0.429457 0.040418 0.070184 165 165 165
0.428790 0.044442 0.071209 165 165 165
0.428368 0.048299 0.072117 166 166 166
0.427947 0.052160 0.073026 167 167 167
0.427384 0.056129 0.074005 168 168 168
0.426786 0.060131 0.075002 169 169 169
0.426106 0.064198 0.076040 169 169 169
0.425627 0.068127 0.076982 170 170 170
0.425148 0.072063 0.077926 171 171 171
0.424612 0.076047 0.078898 171 171 171
0.424059 0.080049 0.079880 172 172 172
0.423109 0.084347 0.081057 173 173 173
0.421490 0.089142 0.082561 173 173 173
0.418963 0.094613 0.084510 174 174 174
0.414456 0.101550 0.087429 177 177 177
0.406679 0.110912 0.091949 177 177 177
0.397560 0.121295 0.097131 175 175 175
0.391243 0.129642 0.100949 173 173 173
0.387744 0.135929 0.103393 172 172 172
0.384955 0.141706 0.105493 172 172 172
0.382448 0.147287 0.107458 171 171 171
0.379138 0.153480 0.109818 171 171 171
0.375146 0.160200 0.112518 171 171 171
0.368555 0.168885 0.116497 168 168 168
0.362065 0.177521 0.120431 164 164 164
0.353466 0.187772 0.125409 162 162 162
0.347016 0.196436 0.129336 158 158 158
0.343159 0.203167 0.131991 162 162 162
0.338977 0.210163 0.134809 167 167 167
0.332128 0.219204 0.138948 177 177 177
0.308047 0.241385 0.151595 192 192 192
0.299134 0.252086 0.156770 186 186 186
0.295630 0.258689 0.159278 184 184 184
0.292688 0.264879 0.161513 183 183 183
0.289987 0.270899 0.163630 184 184 184
0.286751 0.277346 0.166016 184 184 184
0.282378 0.284686 0.168968 184 184 184
0.275780 0.293766 0.173028 185 185 185
0.267970 0.303813 0.177695 182 182 182
0.261128 0.313142 0.181888 180 180 180
0.251866 0.324383 0.187288 180 180 180
0.242413 0.335810 0.192792 138 138 138
-0.099054 -0.449813 0.150982 177 177 177
-0.040606 -0.469290 0.127157 168 168 168
-0.024811 -0.472212 0.121181 158 158 158
-0.016644 -0.472175 0.118397 159 159 159
-0.009780 -0.471642 0.116155 163 163 163
-0.003815 -0.470766 0.114289 165 165 165
0.000738 -0.469342 0.113014 162 162 162
0.005121 -0.467857 0.111808 160 160 160
0.008314 -0.465905 0.111102 161 161 161
0.011502 -0.463956 0.110397 162 162 162
0.014730 -0.462027 0.109674 162 162 162
0.018056 -0.460140 0.108910 161 161 161
0.021383 -0.458260 0.108143 161 161 161
0.024559 -0.456323 0.107440 160 160 160
0.027148 -0.454151 0.106984 160 160 160
0.029741 -0.451984 0.106525 160 160 160
0.032332 -0.449818 0.106066 158 158 158
0.034610 -0.447527 0.105740 157 157 157
0.037077 -0.445316 0.105333 155 155 155
0.039988 -0.443290 0.104738 150 150 150
0.043233 -0.441406 0.104000 144 144 144
0.047784 -0.440069 0.102709 143 143 143
0.052285 -0.438719 0.101436 141 141 141
0.059666 -0.438579 0.098941 140 140 140
0.069731 -0.439579 0.095302 140 140 140
0.082309 -0.441657 0.090592 144 144 144
0.090647 -0.441976 0.087679 148 148 148
0.097181 -0.441549 0.085530 149 149 149
0.101406 -0.440156 0.084361 149 149 149
0.105621 -0.438767 0.083194 150 150 150
0.109617 -0.437290 0.082119 152 152 152
0.113509 -0.435775 0.081088 153 153 153
0.117140 -0.434155 0.080166 155 155 155
0.120773 -0.432541 0.079243 156 156 156
0.124390 -0.430925 0.078325 157 157 157
0.127830 -0.429239 0.077482 159 159 159
0.131198 -0.427526 0.076669 160 160 160
0.134561 -0.425816 0.075857 161 161 161
0.137574 -0.423958 0.075193 162 162 162
0.140358 -0.422004 0.074627 162 162 162
0.143140 -0.420052 0.074062 163 163 163
0.145832 -0.418064 0.073534 164 164 164
0.148216 -0.415943 0.073137 165 165 165
0.150491 -0.413776 0.072787 166 166 166
0.152764 -0.411611 0.072438 167 167 167
0.155329 -0.409577 0.071962 167 167 167
0.157985 -0.407587 0.071447 167 167 167
0.160623 -0.405593 0.070939 167 167 167
0.163259 -0.403600 0.070431 168 168 168
0.165915 -0.401620 0.069914 167 167 167
0.168568 -0.399641 0.069397 166 166 166
0.171219 -0.397665 0.068882 166 166 166
0.174151 -0.395820 0.068243 166 166 166
0.177331 -0.394091 0.067497 165 165 165
0.180745 -0.392475 0.066649 165 165 165
0.184622 -0.391076 0.065600 164 164 164
0.188801 -0.389822 0.064419 164 164 164
0.192936 -0.388556 0.063255 164 164 164
0.196951 -0.387241 0.062142 164 164 164
0.201023 -0.385960 0.061003 165 165 165
0.205262 -0.384763 0.059790 165 165 165
0.209600 -0.383620 0.058533 166 166 166
0.213842 -0.382439 0.057316 167 167 167
0.217902 -0.381181 0.056176 168 168 168
0.221914 -0.379907 0.055056 169 169 169
0.225888 -0.378622 0.053951 171 171 171
0.229570 -0.377205 0.052972 173 173 173
0.232948 -0.375650 0.052124 174 174 174
0.235879 -0.373887 0.051470 173 173 173
0.238891 -0.372167 0.050780 173 173 173
0.241898 -0.370449 0.050091 172 172 172
0.244261 -0.368425 0.049683 172 172 172
0.246592 -0.366389 0.049288 171 171 171
0.249331 -0.364552 0.048714 172 172 172
0.251979 -0.362674 0.048180 173 173 173
0.254114 -0.360551 0.047869 173 173 173
0.255960 -0.358289 0.047684 173 173 173
0.258094 -0.356168 0.047373 173 173 173
0.260336 -0.354103 0.047014 172 172 172
0.262228 -0.351868 0.046809 170 170 170
0.264200 -0.349673 0.046568 169 169 169
0.266171 -0.347479 0.046327 169 169 169
0.268401 -0.345416 0.045972 168 168 168
0.271320 -0.343696 0.045313 168 168 168
0.274260 -0.341992 0.044645 167 167 167
0.277130 -0.340256 0.044006 166 166 166
0.279842 -0.338445 0.043437 165 165 165
0.282262 -0.336491 0.042995 165 165 165
0.284670 -0.334534 0.042558 165 165 165
0.287076 -0.332579 0.042122 165 165 165
0.288904 -0.330333 0.041940 165 165 165
0.290569 -0.328007 0.041830 166 166 166
0.292088 -0.325606 0.041784 166 166 166
0.293607 -0.323205 0.041739 166 166 166
0.295125 -0.320805 0.041694 166 166 166
0.296486 -0.318324 0.041718 166 166 166
0.297755 -0.315796 0.041784 166 166 166
0.299049 -0.313280 0.041838 166 166 166
0.300343 -0.310763 0.041892 166 166 166
0.301637 -0.308247 0.041946 165 165 165
0.302931 -0.305730 0.042000 165 165 165
0.304336 -0.303271 0.042006 165 165 165
0.305855 -0.300871 0.041960 164 164 164
0.307356 -0.298462 0.041923 164 164 164
0.308849 -0.296049 0.041888 164 164 164
0.310343 -0.293637 0.041854 164 164 164
0.311938 -0.291279 0.041774 163 163 163
0.313734 -0.289027 0.041604 163 163 163
0.315518 -0.286770 0.041440 163 163 163
0.317301 -0.284514 0.041276 163 163 163
0.319021 -0.282225 0.041139 162 162 162
0.320962 -0.280055 0.040904 162 162 162
0.323065 -0.277974 0.040596 162 162 162
0.325426 -0.276034 0.040172 162 162 162
0.327899 -0.274156 0.039697 162 162 162
0.330635 -0.272425 0.039103 161 161 161
0.333434 -0.270731 0.038481 161 161 161
0.336166 -0.269004 0.037888 161 161 161
0.338840 -0.267250 0.037320 161 161 161
0.341413 -0.265444 0.036797 161 161 161
0.343909 -0.263600 0.036307 161 161 161
0.346278 -0.261688 0.035875 161 161 161
0.348439 -0.259664 0.035536 161 161 161
0.350450 -0.257560 0.035264 161 161 161
0.352461 -0.255458 0.034991 161 161 161
0.354470 -0.253356 0.034719 161 161 161
0.356492 -0.251263 0.034441 161 161 161
0.358426 -0.249123 0.034202 161 161 161
0.360474 -0.247048 0.033912 161 161 161
0.362458 -0.244939 0.033650 161 161 161
0.364256 -0.242727 0.033471 162 162 162
0.365811 -0.240379 0.033403 161 161 161
0.367223 -0.237951 0.033400 161 161 161
0.368636 -0.235523 0.033396 161 161 161
0.369971 -0.233051 0.033428 161 161 161
0.371045 -0.230430 0.033578 161 161 161
0.372098 -0.227796 0.033738 161 161 161
0.373075 -0.225117 0.033933 160 160 160
0.374014 -0.222415 0.034145 160 160 160
0.375117 -0.219806 0.034283 160 160 160
0.376288 -0.217236 0.034390 160 160 160
0.377459 -0.214665 0.034497 160 160 160
0.378631 -0.212094 0.034604 159 159 159
0.379826 -0.209536 0.034700 159 159 159
0.381187 -0.207074 0.034720 160 160 160
0.382657 -0.204675 0.034692 160 160 160
0.384125 -0.202276 0.034663 160 160 160
0.385595 -0.199877 0.034634 160 160 160
0.387064 -0.197479 0.034605 160 160 160
0.388601 -0.195120 0.034545 162 162 162
0.389849 -0.192591 0.034618 162 162 162
0.391098 -0.190062 0.034690 162 162 162
0.392346 -0.187533 0.034763 163 163 163
0.393595 -0.185003 0.034835 163 163 163
0.394804 -0.182449 0.034926 164 164 164
0.395957 -0.179861 0.035042 164 164 164
0.397124 -0.177280 0.035153 164 164 164
0.398292 -0.174698 0.035263 164 164 164
0.399458 -0.172116 0.035374 165 165 165
0.400603 -0.169520 0.035495 165 165 165
0.401932 -0.167035 0.035531 167 167 167
0.403342 -0.164599 0.035530 168 168 168
0.404791 -0.162186 0.035511 168 168 168
0.406239 -0.159773 0.035492 168 168 168
0.407662 -0.157345 0.035485 169 169 169
0.409002 -0.154865 0.035516 169 169 169
0.410609 -0.152551 0.035424 171 171 171
0.411997 -0.150101 0.035433 170 170 170
0.413384 -0.147652 0.035442 170 170 170
0.414772 -0.145202 0.035451 170 170 170
0.415781 -0.142516 0.035636 171 171 171
0.416731 -0.139793 0.035849 171 171 171
0.417678 -0.137066 0.036063 171 171 171
0.418522 -0.134273 0.036326 172 172 172
0.419346 -0.131467 0.036598 172 172 172
0.419998 -0.128549 0.036951 172 172 172
0.420558 -0.125572 0.037347 172 172 172
0.421118 -0.122592 0.037744 172 172 172
0.421670 -0.119604 0.038145 172 172 172
0.422030 -0.116492 0.038636 172 172 172
0.422463 -0.113422 0.039094 172 172 172
0.422842 -0.110316 0.039578 171 171 171
0.422944 -0.107028 0.040192 171 171 171
0.423036 -0.103731 0.040811 172 172 172
0.423127 -0.100428 0.041432 172 172 172
0.423321 -0.097188 0.042005 172 172 172
0.423547 -0.093964 0.042564 172 172 172
0.423766 -0.090732 0.043127 171 171 171
0.424035 -0.087530 0.043667 171 171 171
0.424437 -0.084410 0.044146 171 171 171
0.424863 -0.081303 0.044613 170 170 170
0.425290 -0.078193 0.045081 170 170 170
0.425567 -0.074981 0.045620 170 170 170
0.425818 -0.071750 0.046172 169 169 169
0.425979 -0.068455 0.046768 169 169 169
0.426211 -0.065203 0.047330 169 169 169
0.426575 -0.062034 0.047831 169 169 169
0.426939 -0.058863 0.048332 169 169 169
0.427232 -0.055640 0.048868 168 168 168
0.427533 -0.052420 0.049401 168 168 168
0.427886 -0.049230 0.049910 168 168 168
0.428339 -0.046105 0.050372 167 167 167
0.428704 -0.042917 0.050876 167 167 167
0.428948 -0.039644 0.051439 166 166 166
0.429148 -0.036338 0.052023 166 166 166
0.429337 -0.033020 0.052613 165 165 165
0.429527 -0.029700 0.053203 165 165 165
0.429718 -0.026375 0.053794 165 165 165
0.429805 -0.022976 0.054436 164 164 164
0.429908 -0.019583 0.055070 164 164 164
0.430014 -0.016189 0.055704 164 164 164
0.429926 -0.012657 0.056431 163 163 163
0.429843 -0.009124 0.057157 163 163 163
0.429870 -0.005661 0.057831 163 163 163
0.429971 -0.002245 0.058470 163 163 163
0.430130 0.001135 0.059084 163 163 163
0.430213 0.004572 0.059733 162 162 162
0.430206 0.008076 0.060428 162 162 162
0.430059 0.011682 0.061189 162 162 162
0.429984 0.015243 0.061918 163 163 163
0.430021 0.018732 0.062594 163 163 163
0.429931 0.022313 0.063331 163 163 163
0.429831 0.025906 0.064074 163 163 163
0.429753 0.029489 0.064809 163 163 163
0.429553 0.033163 0.065602 163 163 163
0.429369 0.036831 0.066389 163 163 163
0.429215 0.040484 0.067162 163 163 163
0.428792 0.044333 0.068067 164 164 164
0.428405 0.048163 0.068955 165 165 165
0.428017 0.051999 0.069845 166 166 166
0.427478 0.055951 0.070809 167 167 167
0.426904 0.059933 0.071791 168 168 168
0.426343 0.063913 0.072768 169 169 169
0.425842 0.067856 0.073718 169 169 169
0.425324 0.071818 0.074677 169 169 169
0.424800 0.075791 0.075640 170 170 170
0.424274 0.079772 0.076606 171 171 171
0.423716 0.083783 0.077588 171 171 171
0.422096 0.088577 0.079088 172 172 172
0.420470 0.093385 0.080593 172 172 172
0.416100 0.100217 0.083435 175 175 175
0.408624 0.109353 0.087794 178 178 178
0.398042 0.120809 0.093672 177 177 177
0.391815 0.129087 0.097435 175 175 175
0.388610 0.135154 0.099728 174 174 174
0.385425 0.141221 0.102015 173 173 173
0.382742 0.146931 0.104059 172 172 172
0.379541 0.153042 0.106359 172 172 172
0.375343 0.159912 0.109150 172 172 172
0.368977 0.168426 0.113007 170 170 170
0.361138 0.178073 0.117590 167 167 167
0.352165 0.188604 0.122736 163 163 163
0.345511 0.197422 0.126751 160 160 160
0.341562 0.204224 0.129444 162 162 162
0.337606 0.211050 0.132143 167 167 167
0.332062 0.219100 0.135628 172 172 172
0.320188 0.231991 0.142231 190 190 190
0.304190 0.248072 0.150874 190 190 190
0.298707 0.256176 0.154348 186 186 186
0.295110 0.262860 0.156897 184 184 184
0.292280 0.268974 0.159070 184 184 184
0.289520 0.275049 0.161213 184 184 184
0.285106 0.282414 0.164176 185 185 185
0.279026 0.291086 0.167966 186 186 186
0.269875 0.302165 0.173281 186 186 186
0.260833 0.313196 0.178549 178 178 178
0.250722 0.325095 0.184354 178 178 178
0.243247 0.334980 0.188860 182 182 182
-0.097417 -0.450288 0.146965 161 161 161
-0.035471 -0.471136 0.121749 150 150 150
-0.024396 -0.472219 0.117761 155 155 155
-0.015922 -0.472305 0.114856 155 155 155
-0.009255 -0.471696 0.112704 161 161 161
-0.003707 -0.470657 0.111017 160 160 160
0.000926 -0.469266 0.109712 158 158 158
0.004887 -0.467615 0.108687 158 158 158
0.008214 -0.465718 0.107926 158 158 158
0.011537 -0.463823 0.107167 160 160 160
0.014871 -0.461937 0.106401 160 160 160
0.018203 -0.460055 0.105636 160 160 160
0.021529 -0.458176 0.104872 160 160 160
0.024399 -0.456116 0.104299 160 160 160
0.026986 -0.453944 0.103845 160 160 160
0.029575 -0.451776 0.103389 160 160 160
0.031862 -0.449487 0.103060 158 158 158
0.034254 -0.447243 0.102687 157 157 157
0.036645 -0.445001 0.102313 155 155 155
0.039355 -0.442893 0.101804 151 151 151
0.043014 -0.441181 0.100894 146 146 146
0.047525 -0.439828 0.099623 145 145 145
0.052548 -0.438696 0.098133 144 144 144
0.059861 -0.438530 0.095674 143 143 143
0.069629 -0.439407 0.092172 140 140 140
0.082340 -0.441543 0.087419 146 146 146
0.090246 -0.441680 0.084698 147 147 147
